# .PCD v0.7 - Point Cloud Data file format
VERSION 0.7
FIELDS x y z rgb
SIZE 4 4 4 4
TYPE F F F U
COUNT 1 1 1 1
WIDTH 1268
HEIGHT 1
VIEWPOINT 0 0 0 1 0 0 0
POINTS 1268
DATA ascii
1.25684 0.66077799 1.01855 4278190080
1.1475 0.62988299 1.3291 4278190080
1.14551 0.62988299 1.33013 4278190080
1.15137 0.630521 1.3291 4278190080
1.15723 0.630642 1.3291 4278190080
1.16309 0.6329 1.3291 4278190080
1.16895 0.63435602 1.3291 4278190080
1.14802 0.63574201 1.27051 4278190080
1.14551 0.63574201 1.2728601 4278190080
1.32233 0.665039 0.91894501 4278190080
1.32715 0.665039 0.92275101 4278190080
1.2493401 0.647461 0.98339802 4278190080
1.25098 0.65150303 0.98339802 4278190080
1.31477 0.647461 0.98339802 4278190080
1.30334 0.618164 1.34082 4278190080
1.30371 0.618734 1.34082 4278190080
1.30371 0.618164 1.34145 4278190080
1.30957 0.62336498 1.34082 4278190080
1.33228 0.65917999 0.95410198 4278190080
1.33301 0.660155 0.95410198 4278190080
1.33301 0.65917999 0.95638603 4278190080
1.33887 0.66336602 0.95410198 4278190080
1.26235 0.665039 1.02441 4278190080
1.2627 0.66527998 1.02441 4278190080
1.2627 0.665039 1.02876 4278190080
1.26855 0.66956401 1.02441 4278190080
1.25111 0.65332001 0.98925799 4278190080
1.25098 0.65332001 0.99029601 4278190080
1.42037 0.61230499 1.46973 4278190080
1.4209 0.61492503 1.46973 4278190080
1.4209 0.61230499 1.47058 4278190080
1.42926 0.61230499 1.46973 4278190080
1.27019 0.67089802 0.98925799 4278190080
1.27441 0.67353898 0.98925799 4278190080
1.28027 0.67660397 0.98925799 4278190080
1.35026 0.63574201 1.41113 4278190080
1.35059 0.63618898 1.41113 4278190080
1.35059 0.63574201 1.41175 4278190080
1.35645 0.63803703 1.41113 4278190080
1.28048 0.67675799 0.98925799 4278190080
1.28613 0.681113 0.98925799 4278190080
1.34858 0.64160198 1.37012 4278190080
1.35059 0.64418501 1.37012 4278190080
1.35059 0.64160198 1.37277 4278190080
1.35645 0.64160198 1.37562 4278190080
1.3623 0.64402097 1.37012 4278190080
1.4423 0.618164 1.4873 4278190080
1.44542 0.618164 1.4873 4278190080
1.4502 0.62090898 1.4873 4278190080
1.31543 0.64912599 1.0127 4278190080
1.32129 0.651712 1.0127 4278190080
1.32687 0.65332001 0.98339802 4278190080
1.32715 0.65349102 0.98339802 4278190080
1.33301 0.65709901 0.98339802 4278190080
1.25458 0.65917999 1.02441 4278190080
1.25684 0.66071802 1.02441 4278190080
1.45278 0.62402302 1.49902 4278190080
1.45605 0.62402302 1.5028501 4278190080
1.47025 0.62402302 1.49902 4278190080
1.47363 0.62402302 1.50415 4278190080
1.14873 0.64160198 1.27051 4278190080
1.14551 0.64160198 1.27414 4278190080
1.15137 0.64565301 1.27051 4278190080
1.13379 0.62988299 1.34053 4278190080
1.13966 0.62988299 1.33496 4278190080
1.13965 0.62988299 1.33497 4278190080
1.14551 0.63126898 1.33496 4278190080
1.15137 0.63213301 1.33496 4278190080
1.15723 0.63352197 1.33496 4278190080
1.16309 0.63556701 1.33496 4278190080
1.32875 0.665039 0.92480499 4278190080
1.14308 0.63574201 1.27637 4278190080
1.13965 0.63574201 1.28177 4278190080
1.43637 0.62988299 1.46973 4278190080
1.24947 0.647461 0.98925799 4278190080
1.25098 0.65271401 0.98925799 4278190080
1.30717 0.618164 1.34668 4278190080
1.30957 0.62045902 1.34668 4278190080
1.30957 0.618164 1.35058 4278190080
1.33417 0.65917999 0.959961 4278190080
1.33887 0.66219801 0.959961 4278190080
1.27086 0.67089802 0.99511701 4278190080
1.27441 0.673042 0.99511701 4278190080
1.28027 0.67668903 0.99511701 4278190080
1.26281 0.665039 1.03027 4278190080
1.2627 0.665039 1.03266 4278190080
1.26855 0.66910398 1.03027 4278190080
1.25044 0.65332001 0.99511701 4278190080
1.25098 0.65388602 0.99511701 4278190080
1.25098 0.65332001 1.00059 4278190080
1.42601 0.61230499 1.47559 4278190080
1.42786 0.61230499 1.47559 4278190080
1.42676 0.61310798 1.47559 4278190080
1.42676 0.61230499 1.47662 4278190080
1.43262 0.61804199 1.47559 4278190080
1.31543 0.64869303 1.01855 4278190080
1.32129 0.65080303 1.01855 4278190080
1.3545901 0.63574201 1.41699 4278190080
1.35645 0.64145201 1.41699 4278190080
1.25553 0.65917999 1.03027 4278190080
1.25684 0.66026199 1.03027 4278190080
1.2627 0.66492099 1.03027 4278190080
1.32494 0.65332001 0.98925799 4278190080
1.32715 0.65464699 0.98925799 4278190080
1.32715 0.65332001 0.99432802 4278190080
1.33301 0.65705299 0.98925799 4278190080
1.28036 0.67675799 0.99511701 4278190080
1.28027 0.67675799 0.99553001 4278190080
1.28613 0.680273 0.99511701 4278190080
1.45863 0.62402302 1.50488 4278190080
1.46191 0.62402302 1.50814 4278190080
1.47515 0.62402302 1.50488 4278190080
1.44419 0.618164 1.49316 4278190080
1.44796 0.618164 1.49316 4278190080
1.44434 0.618801 1.49316 4278190080
1.44434 0.618164 1.4933 4278190080
1.4502 0.61832899 1.49316 4278190080
1.45605 0.62128299 1.49316 4278190080
1.45605 0.618164 1.4985501 4278190080
1.3566999 0.64160198 1.37598 4278190080
1.35645 0.64332598 1.37598 4278190080
1.1332901 0.62988299 1.34082 4278190080
1.13379 0.629951 1.34082 4278190080
1.13965 0.63143498 1.34082 4278190080
1.14551 0.63254899 1.34082 4278190080
1.15137 0.63367802 1.34082 4278190080
1.15723 0.63462198 1.34082 4278190080
1.13936 0.63574201 1.28223 4278190080
1.2334 0.63574201 1.28632 4278190080
1.23926 0.63574201 1.28499 4278190080
1.24512 0.63574201 1.28644 4278190080
1.27441 0.63574201 1.2874399 4278190080
1.14363 0.64160198 1.27637 4278190080
1.13965 0.64160198 1.2819999 4278190080
1.14551 0.64494598 1.27637 4278190080
1.33058 0.665039 0.930664 4278190080
1.33301 0.66638303 0.930664 4278190080
1.33301 0.665039 0.931885 4278190080
1.43767 0.62988299 1.47559 4278190080
1.43262 0.62988299 1.48067 4278190080
1.44286 0.62988299 1.47559 4278190080
1.43848 0.62988299 1.4771399 4278190080
1.45145 0.62988299 1.47559 4278190080
1.4502 0.62988299 1.47729 4278190080
1.2487299 0.647461 0.99511701 4278190080
1.31508 0.647461 0.99511701 4278190080
1.33575 0.65917999 0.96582001 4278190080
1.33301 0.65917999 0.97112501 4278190080
1.33887 0.66112202 0.96582001 4278190080
1.34473 0.66336501 0.96582001 4278190080
1.26972 0.67089802 1.00098 4278190080
1.27441 0.673374 1.00098 4278190080
1.31112 0.618164 1.35254 4278190080
1.2625 0.665039 1.03613 4278190080
1.2627 0.66514999 1.03613 4278190080
1.2627 0.665039 1.0389 4278190080
1.26855 0.66849601 1.03613 4278190080
1.2547801 0.65917999 1.03613 4278190080
1.25684 0.660671 1.03613 4278190080
1.31543 0.67089802 0.91076398 4278190080
1.25102 0.65332001 1.00098 4278190080
1.25098 0.65332001 1.00131 4278190080
1.31543 0.64861298 1.02441 4278190080
1.31543 0.647461 1.0301 4278190080
1.32129 0.65122902 1.02441 4278190080
1.32744 0.65332001 0.99511701 4278190080
1.33301 0.65835202 0.99511701 4278190080
1.43848 0.61511999 1.48145 4278190080
1.35623 0.63574201 1.42285 4278190080
1.35645 0.63790101 1.42285 4278190080
1.35645 0.63574201 1.42325 4278190080
1.4662 0.62402302 1.51074 4278190080
1.46777 0.62402302 1.51227 4278190080
1.47812 0.62402302 1.51074 4278190080
1.47949 0.62402302 1.51152 4278190080
1.48535 0.62402302 1.51393 4278190080
1.49707 0.62963599 1.51074 4278190080
1.27907 0.67675799 1.00098 4278190080
1.28027 0.67746198 1.00098 4278190080
1.28613 0.68030798 1.00098 4278190080
1.12995 0.62988299 1.34668 4278190080
1.12793 0.62988299 1.3500299 4278190080
1.13379 0.631006 1.34668 4278190080
1.13965 0.63249999 1.34668 4278190080
1.14551 0.63366401 1.34668 4278190080
1.15137 0.63495302 1.34668 4278190080
1.35853 0.64160198 1.38184 4278190080
1.35645 0.64160198 1.38749 4278190080
1.3623 0.64160198 1.38739 4278190080
1.45591 0.618164 1.49902 4278190080
1.45647 0.618164 1.49902 4278190080
1.45605 0.618164 1.4994299 4278190080
1.46191 0.61995 1.49902 4278190080
1.46777 0.62169898 1.49902 4278190080
1.137 0.63574201 1.28809 4278190080
1.13379 0.63574201 1.2912199 4278190080
1.22168 0.63574201 1.29283 4278190080
1.23189 0.63574201 1.28809 4278190080
1.22754 0.63574201 1.29146 4278190080
1.2334 0.636711 1.28809 4278190080
1.23926 0.63759899 1.28809 4278190080
1.25019 0.63574201 1.28809 4278190080
1.24512 0.63685697 1.28809 4278190080
1.25098 0.63574201 1.28837 4278190080
1.25684 0.63574201 1.2913001 4278190080
1.2627 0.63574201 1.29124 4278190080
1.27302 0.63574201 1.28809 4278190080
1.26855 0.63574201 1.29111 4278190080
1.27509 0.63574201 1.28809 4278190080
1.27441 0.63574201 1.2905 4278190080
1.13947 0.64160198 1.28223 4278190080
1.13965 0.64202398 1.28223 4278190080
1.33476 0.665039 0.93652302 4278190080
1.24827 0.647461 1.00098 4278190080
1.25098 0.65320998 1.00098 4278190080
1.31455 0.647461 1.00098 4278190080
1.43413 0.62988299 1.48145 4278190080
1.43848 0.62988299 1.4833 4278190080
1.4470201 0.62988299 1.48145 4278190080
1.45605 0.63258803 1.48145 4278190080
1.31322 0.618164 1.3584 4278190080
1.26296 0.665039 1.04199 4278190080
1.2627 0.665039 1.04273 4278190080
1.26855 0.66792101 1.04199 4278190080
1.2704901 0.67089802 1.00684 4278190080
1.27441 0.67346001 1.00684 4278190080
1.25388 0.65917999 1.04199 4278190080
1.25684 0.661358 1.04199 4278190080
1.2627 0.66486597 1.04199 4278190080
1.3326499 0.65917999 0.97167999 4278190080
1.33301 0.65941602 0.97167999 4278190080
1.33301 0.65917999 0.97203302 4278190080
1.33887 0.660653 0.97167999 4278190080
1.31958 0.67089802 0.913086 4278190080
1.32129 0.67089802 0.91498601 4278190080
1.32745 0.65332001 1.00098 4278190080
1.32715 0.65332001 1.00208 4278190080
1.33301 0.65623701 1.00098 4278190080
1.25016 0.65332001 1.00684 4278190080
1.25098 0.65407503 1.00684 4278190080
1.44434 0.617185 1.4873 4278190080
1.31552 0.647461 1.03027 4278190080
1.32129 0.64999598 1.03027 4278190080
1.31543 0.67675799 0.91056001 4278190080
1.47018 0.62402302 1.5166 4278190080
1.4879 0.62402302 1.5166 4278190080
1.49121 0.62402302 1.51894 4278190080
1.49707 0.62515402 1.5166 4278190080
1.49707 0.62402302 1.52171 4278190080
1.3592401 0.63574201 1.42871 4278190080
1.3623 0.63574201 1.43308 4278190080
1.12793 0.63035202 1.35254 4278190080
1.13379 0.63227099 1.35254 4278190080
1.13965 0.63369501 1.35254 4278190080
1.14551 0.63503098 1.35254 4278190080
1.27937 0.67675799 1.00684 4278190080
1.28027 0.67738402 1.00684 4278190080
1.28027 0.67675799 1.0098799 4278190080
1.28613 0.68043399 1.00684 4278190080
1.46191 0.61868799 1.50488 4278190080
1.46777 0.62108201 1.50488 4278190080
1.47363 0.623263 1.50488 4278190080
1.33557 0.665039 0.94238299 4278190080
1.33887 0.666614 0.94238299 4278190080
1.13569 0.64160198 1.28809 4278190080
1.13379 0.64160198 1.29023 4278190080
1.2627 0.64160198 1.29371 4278190080
1.26855 0.64160198 1.2938401 4278190080
1.2532001 0.65917999 1.04785 4278190080
1.25684 0.661448 1.04785 4278190080
1.24693 0.647461 1.00684 4278190080
1.31341 0.647461 1.00684 4278190080
1.12599 0.665039 1.3291 4278190080
1.12207 0.665039 1.33311 4278190080
1.13118 0.63574201 1.29395 4278190080
1.12793 0.63574201 1.29905 4278190080
1.21813 0.63574201 1.29395 4278190080
1.21582 0.63574201 1.29546 4278190080
1.22168 0.63660502 1.29395 4278190080
1.22754 0.63755602 1.29395 4278190080
1.2334 0.638587 1.29395 4278190080
1.23926 0.64155602 1.29395 4278190080
1.24512 0.63942599 1.29395 4278190080
1.25098 0.64081502 1.29395 4278190080
1.25684 0.637779 1.29395 4278190080
1.27253 0.63574201 1.29395 4278190080
1.27441 0.63574201 1.29555 4278190080
1.28027 0.63574201 1.29735 4278190080
1.26153 0.665039 1.04785 4278190080
1.2627 0.66586798 1.04785 4278190080
1.26855 0.66878098 1.04785 4278190080
1.35632 0.64160198 1.3877 4278190080
1.3580199 0.64160198 1.3877 4278190080
1.35645 0.64170998 1.3877 4278190080
1.36244 0.64160198 1.3877 4278190080
1.3623 0.64160198 1.3886499 4278190080
1.36816 0.64675999 1.3877 4278190080
1.36816 0.64160198 1.39273 4278190080
1.26914 0.67089802 1.0127 4278190080
1.27441 0.67366499 1.0127 4278190080
1.28027 0.67619199 1.0127 4278190080
1.44217 0.62988299 1.4873 4278190080
1.44434 0.62988299 1.48998 4278190080
1.4544801 0.62988299 1.4873 4278190080
1.33697 0.65917999 0.977539 4278190080
1.33887 0.66077697 0.977539 4278190080
1.32535 0.67089802 0.91894501 4278190080
1.32715 0.672382 0.91894501 4278190080
1.32715 0.67089802 0.91995102 4278190080
1.25006 0.65332001 1.0127 4278190080
1.25098 0.65437502 1.0127 4278190080
1.44434 0.61799198 1.49316 4278190080
1.3257 0.65332001 1.00684 4278190080
1.32715 0.65434301 1.00684 4278190080
1.12793 0.63220298 1.3584 4278190080
1.13379 0.633017 1.3584 4278190080
1.13965 0.635059 1.3584 4278190080
1.31692 0.647461 1.03613 4278190080
1.32129 0.64910501 1.03613 4278190080
1.32003 0.67675799 0.913086 4278190080
1.32129 0.67675799 0.91407698 4278190080
1.32715 0.67675799 0.916035 4278190080
1.36325 0.63574201 1.43457 4278190080
1.3623 0.63882399 1.43457 4278190080
1.47334 0.62402302 1.52246 4278190080
1.47363 0.62402302 1.52302 4278190080
1.47949 0.62402302 1.52516 4278190080
1.12656 0.65917999 1.31738 4278190080
1.12207 0.65917999 1.32271 4278190080
1.12397 0.647461 1.30566 4278190080
1.12207 0.647461 1.3077 4278190080
1.12753 0.67089802 1.34082 4278190080
1.25384 0.65917999 1.05371 4278190080
1.25684 0.66151798 1.05371 4278190080
1.26241 0.665039 1.05371 4278190080
1.2627 0.66517699 1.05371 4278190080
1.26855 0.66871297 1.05371 4278190080
1.28118 0.67675799 1.0127 4278190080
1.28027 0.67675799 1.018 4278190080
1.28613 0.68017203 1.0127 4278190080
1.24683 0.647461 1.0127 4278190080
1.31284 0.647461 1.0127 4278190080
1.33871 0.665039 0.94824201 4278190080
1.33887 0.66517901 0.94824201 4278190080
1.33887 0.665039 0.94873899 4278190080
1.34473 0.66695601 0.94824201 4278190080
1.46777 0.62219399 1.51074 4278190080
1.47363 0.61850297 1.51074 4278190080
1.47363 0.618164 1.51173 4278190080
1.47949 0.618164 1.5161999 4278190080
1.12011 0.665039 1.33496 4278190080
1.11621 0.665039 1.33971 4278190080
1.12207 0.665887 1.33496 4278190080
1.13095 0.64160198 1.29395 4278190080
1.12793 0.64160198 1.29767 4278190080
1.2334 0.64160198 1.29805 4278190080
1.23926 0.64160198 1.29399 4278190080
1.24512 0.64160198 1.29679 4278190080
1.25098 0.64160198 1.29475 4278190080
1.26239 0.64160198 1.29395 4278190080
1.25684 0.64160198 1.29835 4278190080
1.12696 0.67675799 1.3584 4278190080
1.12793 0.63303602 1.36426 4278190080
1.13379 0.63373798 1.36426 4278190080
1.21254 0.63574201 1.2998 4278190080
1.20996 0.63574201 1.30179 4278190080
1.21582 0.637119 1.2998 4278190080
1.22168 0.63801098 1.2998 4278190080
1.22754 0.64127898 1.2998 4278190080
1.27441 0.63929701 1.2998 4278190080
1.28343 0.63574201 1.2998 4278190080
1.28613 0.63574201 1.30084 4278190080
1.29199 0.63796097 1.2998 4278190080
1.29199 0.63574201 1.30209 4278190080
1.30371 0.63574201 1.3054301 4278190080
1.26983 0.67089802 1.01855 4278190080
1.27441 0.67330098 1.01855 4278190080
1.32407 0.65332001 1.0127 4278190080
1.45164 0.62988299 1.49316 4278190080
1.35598 0.64160198 1.39355 4278190080
1.35645 0.64205599 1.39355 4278190080
1.35645 0.64160198 1.39456 4278190080
1.3648 0.64160198 1.39355 4278190080
1.36884 0.64160198 1.39355 4278190080
1.36816 0.64335001 1.39355 4278190080
1.33495 0.65917999 0.98339802 4278190080
1.33887 0.66155398 0.98339802 4278190080
1.33084 0.67675799 0.91894501 4278190080
1.45605 0.61779302 1.49902 4278190080
1.25001 0.65332001 1.01855 4278190080
1.25098 0.65435398 1.01855 4278190080
1.3314101 0.67089802 0.92480499 4278190080
1.33301 0.67089802 0.92753899 4278190080
1.31819 0.647461 1.04199 4278190080
1.32129 0.649391 1.04199 4278190080
1.32715 0.65222597 1.04199 4278190080
1.36364 0.63574201 1.44043 4278190080
1.25251 0.65917999 1.05957 4278190080
1.25684 0.66197801 1.05957 4278190080
1.48265 0.62402302 1.52832 4278190080
1.48535 0.62402302 1.5305001 4278190080
1.49707 0.62402302 1.52843 4278190080
1.26235 0.665039 1.05957 4278190080
1.2627 0.66520798 1.05957 4278190080
1.26855 0.66885298 1.05957 4278190080
1.12378 0.65332001 1.31152 4278190080
1.12207 0.65332001 1.31359 4278190080
1.12158 0.65917999 1.32324 4278190080
1.11621 0.65917999 1.32821 4278190080
1.12207 0.65940899 1.32324 4278190080
1.11888 0.647461 1.31152 4278190080
1.11621 0.647461 1.31523 4278190080
1.12207 0.65139902 1.31152 4278190080
1.12366 0.67089802 1.34668 4278190080
1.12207 0.67089802 1.34846 4278190080
1.2472301 0.647461 1.01855 4278190080
1.31297 0.647461 1.01855 4278190080
1.12793 0.63463098 1.37012 4278190080
1.3409801 0.665039 0.95410198 4278190080
1.34473 0.66672701 0.95410198 4278190080
1.28017 0.67675799 1.01855 4278190080
1.28027 0.67681998 1.01855 4278190080
1.28613 0.68006402 1.01855 4278190080
1.11621 0.67675799 1.3697799 4278190080
1.12327 0.67675799 1.36426 4278190080
1.12207 0.67675799 1.36505 4278190080
1.11525 0.665039 1.34082 4278190080
1.11035 0.665039 1.34558 4278190080
1.11621 0.66548198 1.34082 4278190080
1.12207 0.66826499 1.34082 4278190080
1.32533 0.65332001 1.01855 4278190080
1.32715 0.65485901 1.01855 4278190080
1.47209 0.618164 1.5166 4278190080
1.4802001 0.618164 1.5166 4278190080
1.47949 0.618164 1.51695 4278190080
1.48535 0.62171102 1.5166 4278190080
1.27021 0.67089802 1.02441 4278190080
1.27441 0.67362601 1.02441 4278190080
1.20469 0.63574201 1.30566 4278190080
1.2041 0.63574201 1.30602 4278190080
1.20996 0.63810802 1.30566 4278190080
1.22168 0.63958198 1.30566 4278190080
1.2954 0.63574201 1.30566 4278190080
1.3029701 0.63574201 1.30566 4278190080
1.29785 0.63574201 1.30796 4278190080
1.304 0.63574201 1.30566 4278190080
1.33263 0.67675799 0.92480499 4278190080
1.33301 0.67675799 0.92601198 4278190080
1.33887 0.68182802 0.92480499 4278190080
1.12793 0.64520502 1.2998 4278190080
1.21582 0.64160198 1.3053401 4278190080
1.22841 0.64160198 1.2998 4278190080
1.22754 0.64160198 1.30065 4278190080
1.2334 0.64288002 1.2998 4278190080
1.23926 0.64410502 1.2998 4278190080
1.24512 0.64331698 1.2998 4278190080
1.25098 0.64401001 1.2998 4278190080
1.25684 0.64274698 1.2998 4278190080
1.2627 0.64442497 1.2998 4278190080
1.27192 0.64160198 1.2998 4278190080
1.26855 0.64360797 1.2998 4278190080
1.27695 0.64160198 1.2998 4278190080
1.27441 0.64160198 1.30138 4278190080
1.36036 0.64160198 1.39941 4278190080
1.35645 0.64620602 1.39941 4278190080
1.36299 0.64160198 1.39941 4278190080
1.37126 0.64160198 1.39941 4278190080
1.36816 0.64432502 1.39941 4278190080
1.25257 0.65917999 1.06543 4278190080
1.25684 0.66158098 1.06543 4278190080
1.33518 0.65917999 0.98925799 4278190080
1.33887 0.66146803 0.98925799 4278190080
1.33603 0.67089802 0.930664 4278190080
1.31829 0.647461 1.04785 4278190080
1.32129 0.648597 1.04785 4278190080
1.32715 0.65113598 1.04785 4278190080
1.26151 0.665039 1.06543 4278190080
1.2627 0.66575599 1.06543 4278190080
1.26855 0.66861099 1.06543 4278190080
1.2493401 0.65332001 1.02441 4278190080
1.25098 0.65502602 1.02441 4278190080
1.36799 0.63574201 1.44629 4278190080
1.36816 0.63574201 1.44696 4278190080
1.11885 0.65332001 1.31738 4278190080
1.11621 0.65332001 1.3200001 4278190080
1.12207 0.655563 1.31738 4278190080
1.48966 0.62402302 1.53418 4278190080
1.49534 0.62402302 1.53418 4278190080
1.49121 0.62402302 1.53705 4278190080
1.49707 0.624668 1.53418 4278190080
1.11551 0.65917999 1.3291 4278190080
1.11621 0.65956599 1.3291 4278190080
1.12207 0.66245502 1.3291 4278190080
1.11765 0.67089802 1.35254 4278190080
1.11621 0.67089802 1.35353 4278190080
1.12207 0.67228198 1.35254 4278190080
1.24704 0.647461 1.02441 4278190080
1.31367 0.647461 1.02441 4278190080
1.11426 0.647461 1.31738 4278190080
1.11035 0.647461 1.32208 4278190080
1.11621 0.64979303 1.31738 4278190080
1.34287 0.665039 0.959961 4278190080
1.34473 0.665039 0.962515 4278190080
1.32347 0.65332001 1.02441 4278190080
1.32715 0.65534902 1.02441 4278190080
1.10929 0.665039 1.34668 4278190080
1.11035 0.66552103 1.34668 4278190080
1.11621 0.66799903 1.34668 4278190080
1.12207 0.67028099 1.34668 4278190080
1.11555 0.67675799 1.37012 4278190080
1.11035 0.67675799 1.37356 4278190080
1.11621 0.67691398 1.37012 4278190080
1.12207 0.679057 1.37012 4278190080
1.47363 0.61756998 1.5166 4278190080
1.47949 0.61787599 1.5166 4278190080
1.25128 0.65917999 1.07129 4278190080
1.25684 0.662328 1.07129 4278190080
1.2790101 0.67675799 1.02441 4278190080
1.28027 0.67765999 1.02441 4278190080
1.28613 0.680489 1.02441 4278190080
1.2712899 0.67089802 1.03027 4278190080
1.27441 0.67311603 1.03027 4278190080
1.47343 0.618164 1.52246 4278190080
1.47393 0.618164 1.52246 4278190080
1.47363 0.618164 1.5227 4278190080
1.47949 0.62176597 1.52246 4278190080
1.48535 0.62019801 1.52246 4278190080
1.49121 0.62152499 1.52246 4278190080
1.49707 0.623914 1.52246 4278190080
1.33706 0.67675799 0.930664 4278190080
1.33887 0.67762703 0.930664 4278190080
1.33887 0.67675799 0.93383998 4278190080
1.34473 0.68130398 0.930664 4278190080
1.26104 0.665039 1.07129 4278190080
1.2627 0.66596901 1.07129 4278190080
1.26855 0.66904098 1.07129 4278190080
1.33382 0.65917999 0.99511701 4278190080
1.33887 0.66165799 0.99511701 4278190080
1.19238 0.63574201 1.31409 4278190080
1.19889 0.63574201 1.31152 4278190080
1.19824 0.63574201 1.31241 4278190080
1.2041 0.63958901 1.31152 4278190080
1.20996 0.64133 1.31152 4278190080
1.30775 0.63574201 1.31152 4278190080
1.3099 0.63574201 1.31152 4278190080
1.30957 0.63604099 1.31152 4278190080
1.30957 0.63574201 1.31308 4278190080
1.31815 0.647461 1.05371 4278190080
1.32129 0.65037799 1.05371 4278190080
1.33845 0.67089802 0.93652302 4278190080
1.33887 0.67395902 0.93652302 4278190080
1.33887 0.67089802 0.937038 4278190080
1.47903 0.62988299 1.50488 4278190080
1.47949 0.63091302 1.50488 4278190080
1.47949 0.62988299 1.50542 4278190080
1.49707 0.62988299 1.5105 4278190080
1.24921 0.65332001 1.03027 4278190080
1.25098 0.65468699 1.03027 4278190080
1.2153701 0.64160198 1.30566 4278190080
1.21637 0.64160198 1.30566 4278190080
1.21582 0.641904 1.30566 4278190080
1.22536 0.64160198 1.30566 4278190080
1.22168 0.64160198 1.30811 4278190080
1.22754 0.64327401 1.30566 4278190080
1.24512 0.644517 1.30566 4278190080
1.2627 0.64503199 1.30566 4278190080
1.27441 0.64424801 1.30566 4278190080
1.35834 0.64160198 1.40527 4278190080
1.36801 0.64160198 1.40527 4278190080
1.36847 0.64160198 1.40527 4278190080
1.36816 0.64175099 1.40527 4278190080
1.36816 0.64160198 1.40547 4278190080
1.11344 0.65332001 1.32324 4278190080
1.11035 0.65332001 1.32731 4278190080
1.11621 0.65544897 1.32324 4278190080
1.11053 0.65917999 1.33496 4278190080
1.11035 0.65917999 1.33518 4278190080
1.11621 0.66259599 1.33496 4278190080
1.24619 0.647461 1.03027 4278190080
1.24512 0.647461 1.03319 4278190080
1.11157 0.67089802 1.3584 4278190080
1.11035 0.67089802 1.35972 4278190080
1.11621 0.67261702 1.3584 4278190080
1.12207 0.67444599 1.3584 4278190080
1.10954 0.647461 1.32324 4278190080
1.11035 0.64858299 1.32324 4278190080
1.32433 0.65332001 1.03027 4278190080
1.32715 0.65536398 1.03027 4278190080
1.33301 0.65738899 1.03027 4278190080
1.25203 0.65917999 1.07715 4278190080
1.25684 0.66241199 1.07715 4278190080
1.09863 0.665039 1.35821 4278190080
1.10465 0.665039 1.35254 4278190080
1.10449 0.665039 1.3526599 4278190080
1.11035 0.66718298 1.35254 4278190080
1.11621 0.67041999 1.35254 4278190080
1.47363 0.617975 1.52246 4278190080
1.26034 0.665039 1.07715 4278190080
1.2627 0.66651601 1.07715 4278190080
1.26855 0.66884297 1.07715 4278190080
1.2716399 0.67089802 1.03613 4278190080
1.27441 0.67280102 1.03613 4278190080
1.28027 0.67664999 1.03613 4278190080
1.27957 0.67675799 1.03027 4278190080
1.28027 0.67725003 1.03027 4278190080
1.28027 0.67675799 1.03518 4278190080
1.28613 0.680448 1.03027 4278190080
1.10799 0.67675799 1.37598 4278190080
1.10449 0.67675799 1.37954 4278190080
1.11035 0.67759699 1.37598 4278190080
1.11621 0.67936403 1.37598 4278190080
1.12207 0.680381 1.37598 4278190080
1.31709 0.647461 1.05957 4278190080
1.32129 0.65027398 1.05957 4278190080
1.3398499 0.67675799 0.93652302 4278190080
1.33887 0.67675799 0.93981099 4278190080
1.33556 0.65917999 1.00098 4278190080
1.33301 0.65917999 1.00611 4278190080
1.48535 0.62155598 1.52832 4278190080
1.49121 0.62309003 1.52832 4278190080
1.49707 0.62400103 1.52832 4278190080
1.18771 0.63574201 1.31738 4278190080
1.18652 0.63574201 1.31883 4278190080
1.19238 0.63742101 1.31738 4278190080
1.19824 0.638515 1.31738 4278190080
1.31312 0.63574201 1.31738 4278190080
1.24799 0.65332001 1.03613 4278190080
1.25098 0.65555203 1.03613 4278190080
1.48463 0.62988299 1.51074 4278190080
1.48535 0.62988299 1.51144 4278190080
1.49642 0.62988299 1.51074 4278190080
1.49121 0.63128 1.51074 4278190080
1.49707 0.63006598 1.51074 4278190080
1.34345 0.67089802 0.94238299 4278190080
1.33887 0.67637998 0.94238299 4278190080
1.34473 0.67089802 0.94343698 4278190080
1.3581001 0.64160198 1.41113 4278190080
1.2041 0.64160198 1.31528 4278190080
1.2104501 0.64160198 1.31152 4278190080
1.20996 0.64160198 1.3117599 4278190080
1.21582 0.64343297 1.31152 4278190080
1.22168 0.64429498 1.31152 4278190080
1.22754 0.64433199 1.31152 4278190080
1.10878 0.65332001 1.3291 4278190080
1.10449 0.65332001 1.33355 4278190080
1.11035 0.65435803 1.3291 4278190080
1.1047699 0.65917999 1.34082 4278190080
1.10449 0.65917999 1.34117 4278190080
1.11035 0.66201401 1.34082 4278190080
1.25166 0.65917999 1.08301 4278190080
1.25684 0.66257298 1.08301 4278190080
1.24421 0.647461 1.03613 4278190080
1.24512 0.64900798 1.03613 4278190080
1.1051199 0.647461 1.3291 4278190080
1.10449 0.647461 1.32999 4278190080
1.2608 0.665039 1.08301 4278190080
1.2627 0.66611201 1.08301 4278190080
1.26855 0.66904902 1.08301 4278190080
1.09848 0.665039 1.3584 4278190080
1.09863 0.66512603 1.3584 4278190080
1.10449 0.66765797 1.3584 4278190080
1.11035 0.67025501 1.3584 4278190080
1.1052099 0.67089802 1.36426 4278190080
1.10449 0.67089802 1.36488 4278190080
1.11035 0.67251599 1.36426 4278190080
1.11621 0.674245 1.36426 4278190080
1.12207 0.67632002 1.36426 4278190080
1.32561 0.65332001 1.03613 4278190080
1.32715 0.65475601 1.03613 4278190080
1.32715 0.65332001 1.03985 4278190080
1.27211 0.67089802 1.04199 4278190080
1.27441 0.67261201 1.04199 4278190080
1.28027 0.67563498 1.04199 4278190080
1.33234 0.65917999 1.00684 4278190080
1.32715 0.65917999 1.01157 4278190080
1.33887 0.67714697 0.94238299 4278190080
1.3162 0.647461 1.06543 4278190080
1.32129 0.65162802 1.06543 4278190080
1.49121 0.62221402 1.53418 4278190080
1.28045 0.67675799 1.03613 4278190080
1.28613 0.679726 1.03613 4278190080
1.10194 0.67675799 1.38184 4278190080
1.09863 0.67675799 1.3846 4278190080
1.10449 0.67766702 1.38184 4278190080
1.11035 0.67961597 1.38184 4278190080
1.11621 0.68182302 1.38184 4278190080
1.2476 0.65332001 1.04199 4278190080
1.25098 0.656371 1.04199 4278190080
1.1748 0.63574201 1.32845 4278190080
1.18223 0.63574201 1.32324 4278190080
1.18066 0.63574201 1.32465 4278190080
1.18652 0.63750798 1.32324 4278190080
1.19238 0.63852799 1.32324 4278190080
1.34372 0.665039 0.98339802 4278190080
1.35059 0.66671503 0.98339802 4278190080
1.43072 0.63574201 1.46387 4278190080
1.43262 0.63809699 1.46387 4278190080
1.25131 0.65917999 1.08887 4278190080
1.25684 0.662157 1.08887 4278190080
1.35653 0.64160198 1.41699 4278190080
1.20249 0.64160198 1.31738 4278190080
1.19824 0.64160198 1.3228 4278190080
1.2041 0.64271599 1.31738 4278190080
1.20996 0.64606398 1.31738 4278190080
1.21582 0.64553398 1.31738 4278190080
1.22168 0.64652002 1.31738 4278190080
1.10335 0.65332001 1.33496 4278190080
1.10449 0.65421098 1.33496 4278190080
1.11035 0.65898502 1.33496 4278190080
1.10051 0.65917999 1.34668 4278190080
1.09863 0.65917999 1.3486 4278190080
1.10449 0.66161501 1.34668 4278190080
1.26157 0.665039 1.08887 4278190080
1.2627 0.66566497 1.08887 4278190080
1.26855 0.66870499 1.08887 4278190080
1.24375 0.647461 1.04199 4278190080
1.24512 0.64920902 1.04199 4278190080
1.10028 0.647461 1.33496 4278190080
1.09863 0.647461 1.33683 4278190080
1.09315 0.665039 1.36426 4278190080
1.09277 0.665039 1.36467 4278190080
1.09863 0.66748899 1.36426 4278190080
1.10449 0.67060602 1.36426 4278190080
1.32855 0.65332001 1.04199 4278190080
1.09277 0.67089802 1.37585 4278190080
1.09894 0.67089802 1.37012 4278190080
1.09863 0.67089802 1.3703901 4278190080
1.10449 0.67286599 1.37012 4278190080
1.11035 0.675313 1.37012 4278190080
1.27193 0.67089802 1.04785 4278190080
1.27441 0.67237401 1.04785 4278190080
1.28027 0.675955 1.04785 4278190080
1.32612 0.65917999 1.0127 4278190080
1.32715 0.65988398 1.0127 4278190080
1.32715 0.65917999 1.01378 4278190080
1.31653 0.647461 1.07129 4278190080
1.32129 0.64948499 1.07129 4278190080
1.2819099 0.67675799 1.04199 4278190080
1.28613 0.67999601 1.04199 4278190080
1.2516 0.65917999 1.09473 4278190080
1.25684 0.66266 1.09473 4278190080
1.2469701 0.65332001 1.04785 4278190080
1.25098 0.65675002 1.04785 4278190080
1.08105 0.67675799 1.39323 4278190080
1.08691 0.67675799 1.39104 4278190080
1.09333 0.67675799 1.3877 4278190080
1.09277 0.67675799 1.38796 4278190080
1.09863 0.67813402 1.3877 4278190080
1.10449 0.680448 1.3877 4278190080
1.11035 0.68218499 1.3877 4278190080
1.35059 0.66719502 0.98925799 4278190080
1.17397 0.63574201 1.3291 4278190080
1.16895 0.63574201 1.33149 4278190080
1.1748 0.63604599 1.3291 4278190080
1.18066 0.63732302 1.3291 4278190080
1.18652 0.63963002 1.3291 4278190080
1.19238 0.64103699 1.3291 4278190080
1.26096 0.665039 1.09473 4278190080
1.2627 0.66594303 1.09473 4278190080
1.26855 0.66872001 1.09473 4278190080
1.3572 0.64160198 1.42285 4278190080
1.43072 0.63574201 1.46973 4278190080
1.43262 0.63704801 1.46973 4278190080
1.43262 0.63574201 1.47131 4278190080
1.44227 0.63574201 1.46973 4278190080
1.43848 0.636406 1.46973 4278190080
1.09886 0.65332001 1.34082 4278190080
1.09863 0.65332001 1.34114 4278190080
1.10449 0.65892702 1.34082 4278190080
1.19792 0.64160198 1.32324 4278190080
1.19824 0.64183497 1.32324 4278190080
1.2041 0.643646 1.32324 4278190080
1.20996 0.64627397 1.32324 4278190080
1.09385 0.65917999 1.35254 4278190080
1.09277 0.65917999 1.35402 4278190080
1.09863 0.66154099 1.35254 4278190080
1.10449 0.66495299 1.35254 4278190080
1.2431099 0.647461 1.04785 4278190080
1.24512 0.65022099 1.04785 4278190080
1.09578 0.647461 1.34082 4278190080
1.09277 0.647461 1.3444999 4278190080
1.09863 0.65281701 1.34082 4278190080
1.32951 0.65332001 1.04785 4278190080
1.32715 0.65332001 1.05062 4278190080
1.08808 0.665039 1.37012 4278190080
1.08691 0.665039 1.37157 4278190080
1.09277 0.66749501 1.37012 4278190080
1.09863 0.67073798 1.37012 4278190080
1.27192 0.67089802 1.05371 4278190080
1.27441 0.67247301 1.05371 4278190080
1.28027 0.67513001 1.05371 4278190080
1.25226 0.65917999 1.10059 4278190080
1.25684 0.66200399 1.10059 4278190080
1.09264 0.67089802 1.37598 4278190080
1.09277 0.670959 1.37598 4278190080
1.09863 0.67316502 1.37598 4278190080
1.10449 0.67535299 1.37598 4278190080
1.31818 0.647461 1.07715 4278190080
1.32129 0.65084499 1.07715 4278190080
1.33015 0.65917999 1.01855 4278190080
1.33301 0.66110402 1.01855 4278190080
1.28143 0.67675799 1.04785 4278190080
1.28613 0.67983401 1.04785 4278190080
1.33887 0.665039 1.00081 4278190080
1.26201 0.665039 1.10059 4278190080
1.2627 0.66544998 1.10059 4278190080
1.26855 0.66833299 1.10059 4278190080
1.24699 0.65332001 1.05371 4278190080
1.25098 0.6566 1.05371 4278190080
1.06934 0.67675799 1.39828 4278190080
1.08033 0.67675799 1.39355 4278190080
1.0752 0.67675799 1.39604 4278190080
1.08105 0.67701501 1.39355 4278190080
1.08691 0.678572 1.39355 4278190080
1.09277 0.68042302 1.39355 4278190080
1.09863 0.68146402 1.39355 4278190080
1.36054 0.64160198 1.42871 4278190080
1.16346 0.63574201 1.33496 4278190080
1.16309 0.63574201 1.33731 4278190080
1.16895 0.63771898 1.33496 4278190080
1.1748 0.63786501 1.33496 4278190080
1.4379801 0.63574201 1.47559 4278190080
1.4401799 0.63574201 1.47559 4278190080
1.43848 0.63614798 1.47559 4278190080
1.18066 0.64160198 1.33462 4278190080
1.18652 0.64160198 1.33243 4278190080
1.19297 0.64160198 1.3291 4278190080
1.19238 0.64160198 1.33005 4278190080
1.19824 0.64438999 1.3291 4278190080
1.2041 0.64451897 1.3291 4278190080
1.24263 0.647461 1.05371 4278190080
1.24512 0.65078402 1.05371 4278190080
1.09377 0.65332001 1.34668 4278190080
1.09277 0.65332001 1.34786 4278190080
1.09863 0.65726799 1.34668 4278190080
1.0903 0.65917999 1.3584 4278190080
1.08691 0.65917999 1.363 4278190080
1.09277 0.66074902 1.3584 4278190080
1.09088 0.647461 1.34668 4278190080
1.09277 0.65125698 1.34668 4278190080
1.32353 0.65332001 1.05371 4278190080
1.25255 0.65917999 1.10645 4278190080
1.25684 0.66206402 1.10645 4278190080
1.08287 0.665039 1.37598 4278190080
1.08105 0.665039 1.37773 4278190080
1.08691 0.66727298 1.37598 4278190080
1.27271 0.67089802 1.05957 4278190080
1.27441 0.67186397 1.05957 4278190080
1.28027 0.675439 1.05957 4278190080
1.2612799 0.665039 1.10645 4278190080
1.2627 0.666116 1.10645 4278190080
1.26855 0.66920602 1.10645 4278190080
1.31688 0.647461 1.08301 4278190080
1.31543 0.647461 1.08778 4278190080
1.32129 0.65171802 1.08301 4278190080
1.08105 0.67089802 1.3857599 4278190080
1.0874799 0.67089802 1.38184 4278190080
1.08691 0.67089802 1.3824 4278190080
1.09277 0.67322898 1.38184 4278190080
1.09863 0.67546898 1.38184 4278190080
1.28242 0.67675799 1.05371 4278190080
1.28613 0.679232 1.05371 4278190080
1.33867 0.665039 1.00098 4278190080
1.33051 0.65917999 1.02441 4278190080
1.33301 0.66145802 1.02441 4278190080
1.33301 0.65917999 1.02845 4278190080
1.24646 0.65332001 1.05957 4278190080
1.24512 0.65332001 1.0650001 4278190080
1.25098 0.65760899 1.05957 4278190080
1.06488 0.67675799 1.39941 4278190080
1.06348 0.67675799 1.39999 4278190080
1.06934 0.67865402 1.39941 4278190080
1.0752 0.68093902 1.39941 4278190080
1.08105 0.68177599 1.39941 4278190080
1.36142 0.64160198 1.43457 4278190080
1.3623 0.64160198 1.43739 4278190080
1.24191 0.647461 1.05957 4278190080
1.24512 0.65138602 1.05957 4278190080
1.44047 0.63574201 1.48145 4278190080
1.43848 0.63815302 1.48145 4278190080
1.25227 0.65917999 1.1123 4278190080
1.25098 0.65917999 1.11757 4278190080
1.25684 0.66215301 1.1123 4278190080
1.16222 0.63574201 1.34082 4278190080
1.15723 0.63574201 1.34434 4278190080
1.16309 0.63601398 1.34082 4278190080
1.16895 0.63861501 1.34082 4278190080
1.0878201 0.647461 1.35254 4278190080
1.08691 0.647461 1.3541 4278190080
1.08918 0.65332001 1.35254 4278190080
1.08691 0.65332001 1.35615 4278190080
1.09277 0.65792102 1.35254 4278190080
1.08583 0.65917999 1.36426 4278190080
1.08105 0.65917999 1.36905 4278190080
1.08691 0.65987301 1.36426 4278190080
1.09277 0.66468799 1.36426 4278190080
1.32441 0.65332001 1.05957 4278190080
1.18016 0.64160198 1.33496 4278190080
1.1748 0.64160198 1.34065 4278190080
1.18066 0.64189202 1.33496 4278190080
1.18652 0.64313197 1.33496 4278190080
1.19238 0.643574 1.33496 4278190080
1.19824 0.64425802 1.33496 4278190080
1.2610199 0.665039 1.1123 4278190080
1.2627 0.66594702 1.1123 4278190080
1.26855 0.66931099 1.1123 4278190080
1.07525 0.665039 1.38184 4278190080
1.0752 0.665039 1.3818901 4278190080
1.08105 0.667777 1.38184 4278190080
1.08691 0.67056203 1.38184 4278190080
1.27168 0.67089802 1.06543 4278190080
1.27441 0.67257297 1.06543 4278190080
1.28027 0.674932 1.06543 4278190080
1.31543 0.64781898 1.08887 4278190080
1.32129 0.65155602 1.08887 4278190080
1.28254 0.67675799 1.05957 4278190080
1.28613 0.67909598 1.05957 4278190080
1.29199 0.68211102 1.05957 4278190080
1.06934 0.67089802 1.39288 4278190080
1.0781699 0.67089802 1.3877 4278190080
1.0752 0.67089802 1.39001 4278190080
1.08105 0.67228198 1.3877 4278190080
1.08691 0.67394 1.3877 4278190080
1.09277 0.67654198 1.3877 4278190080
1.33301 0.65917999 1.0328799 4278190080
1.3634 0.64160198 1.44043 4278190080
1.3623 0.64693803 1.44043 4278190080
1.24501 0.65332001 1.06543 4278190080
1.24512 0.65339798 1.06543 4278190080
1.24512 0.65332001 1.06802 4278190080
1.25098 0.65800202 1.06543 4278190080
1.24107 0.647461 1.06543 4278190080
1.05856 0.67675799 1.40527 4278190080
1.05762 0.67675799 1.40706 4278190080
1.33258 0.665039 1.0127 4278190080
1.33301 0.665039 1.01306 4278190080
1.12793 0.65917999 1.12239 4278190080
1.2508399 0.65917999 1.11816 4278190080
1.25098 0.65926301 1.11816 4278190080
1.25684 0.66223502 1.11816 4278190080
1.0838 0.647461 1.3584 4278190080
1.08105 0.647461 1.36191 4278190080
1.15434 0.63574201 1.34668 4278190080
1.15137 0.63574201 1.34913 4278190080
1.15723 0.636859 1.34668 4278190080
1.16309 0.63862598 1.34668 4278190080
1.16895 0.641339 1.34668 4278190080
1.08014 0.65917999 1.37012 4278190080
1.08105 0.65980601 1.37012 4278190080
1.08691 0.66401201 1.37012 4278190080
1.26174 0.665039 1.11816 4278190080
1.2627 0.66554099 1.11816 4278190080
1.26855 0.66874403 1.11816 4278190080
1.08552 0.65332001 1.3584 4278190080
1.08105 0.65332001 1.36395 4278190080
1.08691 0.65485501 1.3584 4278190080
1.27213 0.67089802 1.07129 4278190080
1.27441 0.67221099 1.07129 4278190080
1.28027 0.67500198 1.07129 4278190080
1.32298 0.65332001 1.06543 4278190080
1.06348 0.665039 1.39226 4278190080
1.07024 0.665039 1.3877 4278190080
1.06934 0.665039 1.38852 4278190080
1.0752 0.66865802 1.3877 4278190080
1.31543 0.64888501 1.09473 4278190080
1.31543 0.647461 1.09861 4278190080
1.32129 0.64990097 1.09473 4278190080
1.32715 0.65044498 1.09473 4278190080
1.1746 0.64160198 1.34082 4278190080
1.1748 0.64168298 1.34082 4278190080
1.18066 0.64366299 1.34082 4278190080
1.18652 0.64654499 1.34082 4278190080
1.19238 0.64629 1.34082 4278190080
1.28281 0.67675799 1.06543 4278190080
1.28613 0.679407 1.06543 4278190080
1.29199 0.68170297 1.06543 4278190080
1.06806 0.67089802 1.39355 4278190080
1.06348 0.67089802 1.3967201 4278190080
1.06934 0.67162901 1.39355 4278190080
1.0752 0.674052 1.39355 4278190080
1.3314199 0.65917999 1.03613 4278190080
1.33301 0.660703 1.03613 4278190080
1.24155 0.647461 1.07129 4278190080
1.24512 0.65311402 1.07129 4278190080
1.36615 0.64160198 1.44629 4278190080
1.13123 0.65917999 1.12402 4278190080
1.12793 0.66453999 1.12402 4278190080
1.13379 0.65917999 1.12572 4278190080
1.13965 0.65917999 1.12827 4278190080
1.24962 0.65917999 1.12402 4278190080
1.25098 0.660043 1.12402 4278190080
1.25684 0.663239 1.12402 4278190080
1.24525 0.65332001 1.07129 4278190080
1.25098 0.65890998 1.07129 4278190080
1.3329099 0.67089802 1.0127 4278190080
1.05642 0.67675799 1.41113 4278190080
1.12793 0.665039 1.1242599 4278190080
1.13379 0.665039 1.1269799 4278190080
1.2599699 0.665039 1.12402 4278190080
1.2627 0.66640598 1.12402 4278190080
1.26855 0.66979998 1.12402 4278190080
1.07959 0.647461 1.36426 4278190080
1.0757101 0.65917999 1.37598 4278190080
1.0752 0.65917999 1.3764499 4278190080
1.08105 0.66317499 1.37598 4278190080
1.27301 0.67089802 1.07715 4278190080
1.27441 0.67169303 1.07715 4278190080
1.28027 0.675138 1.07715 4278190080
1.08084 0.65332001 1.36426 4278190080
1.08105 0.653615 1.36426 4278190080
1.06179 0.665039 1.39355 4278190080
1.05762 0.665039 1.39809 4278190080
1.06348 0.66685599 1.39355 4278190080
1.32547 0.65332001 1.07129 4278190080
1.14771 0.63574201 1.35254 4278190080
1.14551 0.63574201 1.3547 4278190080
1.15137 0.637034 1.35254 4278190080
1.15723 0.63954097 1.35254 4278190080
1.16309 0.64144897 1.35254 4278190080
1.28307 0.67675799 1.07129 4278190080
1.28613 0.67897999 1.07129 4278190080
1.29199 0.681916 1.07129 4278190080
1.31637 0.647461 1.10059 4278190080
1.32129 0.64986998 1.10059 4278190080
1.16925 0.64160198 1.34668 4278190080
1.16895 0.64160198 1.34723 4278190080
1.1748 0.64472198 1.34668 4278190080
1.18066 0.646267 1.34668 4278190080
1.06011 0.67089802 1.39941 4278190080
1.05762 0.67089802 1.4023 4278190080
1.06348 0.675888 1.39941 4278190080
1.14267 0.65917999 1.12988 4278190080
1.13965 0.66408998 1.12988 4278190080
1.14551 0.65917999 1.1318099 4278190080
1.15137 0.65917999 1.13484 4278190080
1.24919 0.65917999 1.12988 4278190080
1.25098 0.66008198 1.12988 4278190080
1.25684 0.664083 1.12988 4278190080
1.24088 0.647461 1.07715 4278190080
1.24512 0.65317601 1.07715 4278190080
1.2452199 0.65332001 1.07715 4278190080
1.25098 0.65815097 1.07715 4278190080
1.05601 0.67675799 1.41699 4278190080
1.05762 0.67675799 1.42212 4278190080
1.1389 0.665039 1.12988 4278190080
1.13379 0.66886801 1.12988 4278190080
1.13965 0.665039 1.13042 4278190080
1.14551 0.665039 1.13533 4278190080
1.2589 0.665039 1.12988 4278190080
1.2627 0.66676199 1.12988 4278190080
1.26855 0.66966701 1.12988 4278190080
1.07636 0.647461 1.37012 4278190080
1.0752 0.647461 1.37185 4278190080
1.07057 0.65917999 1.38184 4278190080
1.06934 0.65917999 1.3836 4278190080
1.0752 0.66498899 1.38184 4278190080
1.272 0.67089802 1.08301 4278190080
1.27441 0.67224199 1.08301 4278190080
1.28027 0.67521399 1.08301 4278190080
1.07722 0.65332001 1.37012 4278190080
1.0752 0.65332001 1.37314 4278190080
1.28359 0.67675799 1.07715 4278190080
1.28613 0.67798603 1.07715 4278190080
1.29199 0.68040597 1.07715 4278190080
1.48535 0.63666898 1.49902 4278190080
1.05685 0.665039 1.39941 4278190080
1.05762 0.66702902 1.39941 4278190080
1.31822 0.647461 1.10645 4278190080
1.31543 0.647461 1.10904 4278190080
1.32129 0.64946997 1.10645 4278190080
1.32438 0.65332001 1.07715 4278190080
1.1415499 0.63574201 1.3584 4278190080
1.13965 0.63574201 1.36106 4278190080
1.14551 0.63702202 1.3584 4278190080
1.15137 0.638605 1.3584 4278190080
1.15311 0.65917999 1.13574 4278190080
1.15137 0.660833 1.13574 4278190080
1.15723 0.65917999 1.13824 4278190080
1.16309 0.65917999 1.141 4278190080
1.24824 0.65917999 1.13574 4278190080
1.24512 0.65917999 1.14046 4278190080
1.25098 0.66064203 1.13574 4278190080
1.25684 0.66351402 1.13574 4278190080
1.15723 0.64160198 1.3567801 4278190080
1.16348 0.64160198 1.35254 4278190080
1.16309 0.64160198 1.3528 4278190080
1.16895 0.64293098 1.35254 4278190080
1.05615 0.67089802 1.40527 4278190080
1.05762 0.67506599 1.40527 4278190080
1.24 0.647461 1.08301 4278190080
1.24512 0.65306997 1.08301 4278190080
1.24533 0.65332001 1.08301 4278190080
1.24512 0.65332001 1.08538 4278190080
1.25098 0.65846503 1.08301 4278190080
1.05786 0.67675799 1.42285 4278190080
1.05762 0.67866498 1.42285 4278190080
1.14601 0.665039 1.13574 4278190080
1.14551 0.665474 1.13574 4278190080
1.15137 0.665039 1.13841 4278190080
1.25879 0.665039 1.13574 4278190080
1.2627 0.66734999 1.13574 4278190080
1.26855 0.66989499 1.13574 4278190080
1.0723 0.647461 1.37598 4278190080
1.06934 0.647461 1.38007 4278190080
1.2721 0.67089802 1.08887 4278190080
1.27441 0.67234802 1.08887 4278190080
1.28027 0.67597502 1.08887 4278190080
1.06559 0.65917999 1.3877 4278190080
1.06348 0.65917999 1.38957 4278190080
1.06934 0.66377699 1.3877 4278190080
1.28295 0.67675799 1.08301 4278190080
1.28613 0.67891997 1.08301 4278190080
1.29199 0.68207401 1.08301 4278190080
1.05481 0.665039 1.40527 4278190080
1.07277 0.65332001 1.37598 4278190080
1.0752 0.65816498 1.37598 4278190080
1.49121 0.63574201 1.50912 4278190080
1.32652 0.65332001 1.08301 4278190080
1.32715 0.65348101 1.08301 4278190080
1.15723 0.66475999 1.1416 4278190080
1.16403 0.65917999 1.1416 4278190080
1.16309 0.65999299 1.1416 4278190080
1.16895 0.65917999 1.14531 4278190080
1.1748 0.65917999 1.14726 4278190080
1.24433 0.65917999 1.1416 4278190080
1.23926 0.65917999 1.14639 4278190080
1.24512 0.65960598 1.1416 4278190080
1.25098 0.66222602 1.1416 4278190080
1.25684 0.66446698 1.1416 4278190080
1.31543 0.64984798 1.1123 4278190080
1.31543 0.647461 1.11454 4278190080
1.32129 0.65039802 1.1123 4278190080
1.32715 0.65082198 1.1123 4278190080
1.2403899 0.647461 1.08887 4278190080
1.31507 0.647461 1.08887 4278190080
1.05564 0.67089802 1.41113 4278190080
1.1381299 0.63574201 1.36426 4278190080
1.13379 0.63574201 1.36859 4278190080
1.13965 0.63660198 1.36426 4278190080
1.14551 0.63848001 1.36426 4278190080
1.2448699 0.65332001 1.08887 4278190080
1.24512 0.65351498 1.08887 4278190080
1.25098 0.65890801 1.08887 4278190080
1.15602 0.64160198 1.3584 4278190080
1.15137 0.64160198 1.36304 4278190080
1.15723 0.64234799 1.3584 4278190080
1.16309 0.64529699 1.3584 4278190080
1.05879 0.67675799 1.42871 4278190080
1.14551 0.66935003 1.1416 4278190080
1.15694 0.665039 1.1416 4278190080
1.15137 0.66859102 1.1416 4278190080
1.15723 0.665039 1.1429 4278190080
1.16309 0.665039 1.14693 4278190080
1.25773 0.665039 1.1416 4278190080
1.25684 0.665039 1.14412 4278190080
1.2627 0.66769999 1.1416 4278190080
1.26855 0.67029798 1.1416 4278190080
1.27177 0.67089802 1.09473 4278190080
1.27441 0.67234302 1.09473 4278190080
1.28027 0.67658502 1.09473 4278190080
1.28181 0.67675799 1.08887 4278190080
1.28613 0.67905003 1.08887 4278190080
1.29199 0.68239701 1.08887 4278190080
1.0596 0.65917999 1.39355 4278190080
1.05762 0.65917999 1.39554 4278190080
1.05483 0.665039 1.41113 4278190080
1.06801 0.647461 1.38184 4278190080
1.06934 0.65180302 1.38184 4278190080
1.0697 0.65332001 1.38184 4278190080
1.06934 0.65332001 1.38237 4278190080
1.49386 0.63574201 1.51074 4278190080
1.49121 0.64044398 1.51074 4278190080
1.49707 0.63574201 1.51485 4278190080
1.16895 0.661744 1.14746 4278190080
1.17583 0.65917999 1.14746 4278190080
1.1748 0.65942103 1.14746 4278190080
1.18066 0.65917999 1.14916 4278190080
1.18652 0.65917999 1.15118 4278190080
1.19238 0.65917999 1.1523 4278190080
1.19824 0.65917999 1.1528701 4278190080
1.22754 0.65917999 1.15294 4278190080
1.23794 0.65917999 1.14746 4278190080
1.2334 0.65917999 1.15113 4278190080
1.23926 0.65971398 1.14746 4278190080
1.24512 0.66185403 1.14746 4278190080
1.25098 0.663764 1.14746 4278190080
1.32557 0.65332001 1.08887 4278190080
1.32715 0.65332001 1.08955 4278190080
1.05533 0.67089802 1.41699 4278190080
1.05762 0.67089802 1.42153 4278190080
1.24026 0.647461 1.09473 4278190080
1.31366 0.647461 1.09473 4278190080
1.3196599 0.647461 1.11816 4278190080
1.49121 0.647461 1.11892 4278190080
1.49707 0.64766997 1.11816 4278190080
1.49707 0.647461 1.11822 4278190080
1.24499 0.65332001 1.09473 4278190080
1.24512 0.65342498 1.09473 4278190080
1.24512 0.65332001 1.09829 4278190080
1.25098 0.65862697 1.09473 4278190080
1.06156 0.67675799 1.43457 4278190080
1.06348 0.67675799 1.43757 4278190080
1.32715 0.65917999 1.08849 4278190080
1.15137 0.66919899 1.14746 4278190080
1.15723 0.66570002 1.14746 4278190080
1.16389 0.665039 1.14746 4278190080
1.16309 0.665474 1.14746 4278190080
1.2547801 0.665039 1.14746 4278190080
1.25098 0.665039 1.15101 4278190080
1.25684 0.66573298 1.14746 4278190080
1.2627 0.667638 1.14746 4278190080
1.26855 0.67075598 1.14746 4278190080
1.15 0.64160198 1.36426 4278190080
1.15137 0.64227998 1.36426 4278190080
1.15723 0.64385903 1.36426 4278190080
1.28234 0.67675799 1.09473 4278190080
1.28613 0.67727703 1.09473 4278190080
1.13143 0.63574201 1.37012 4278190080
1.12793 0.63574201 1.37277 4278190080
1.13379 0.63663602 1.37012 4278190080
1.13965 0.63846898 1.37012 4278190080
1.14551 0.64061099 1.37012 4278190080
1.27394 0.67089802 1.10059 4278190080
1.27441 0.67120802 1.10059 4278190080
1.28027 0.67671198 1.10059 4278190080
1.05507 0.65917999 1.39941 4278190080
1.05485 0.665039 1.41699 4278190080
1.05762 0.665039 1.42173 4278190080
1.06401 0.65332001 1.3877 4278190080
1.06348 0.65332001 1.38823 4278190080
1.0636801 0.647461 1.3877 4278190080
1.06348 0.647461 1.3879499 4278190080
1.16895 0.66279602 1.15332 4278190080
1.1748 0.66313899 1.15332 4278190080
1.18066 0.66262501 1.15332 4278190080
1.18652 0.66092497 1.15332 4278190080
1.19238 0.66017097 1.15332 4278190080
1.19996 0.65917999 1.15332 4278190080
1.19824 0.65977401 1.15332 4278190080
1.2041 0.65917999 1.15483 4278190080
1.20996 0.65917999 1.15591 4278190080
1.21582 0.65917999 1.1554199 4278190080
1.22554 0.65917999 1.15332 4278190080
1.22168 0.65917999 1.1541899 4278190080
1.22754 0.65943903 1.15332 4278190080
1.2334 0.66069102 1.15332 4278190080
1.23926 0.66169602 1.15332 4278190080
1.24512 0.66379499 1.15332 4278190080
1.05817 0.67089802 1.42285 4278190080
1.11035 0.67089802 1.42812 4278190080
1.23988 0.647461 1.10059 4278190080
1.23926 0.647461 1.10296 4278190080
1.24512 0.65320998 1.10059 4278190080
1.33084 0.65332001 1.09473 4278190080
1.32715 0.65332001 1.0984401 4278190080
1.06468 0.67675799 1.44043 4278190080
1.2452101 0.65332001 1.10059 4278190080
1.25098 0.65816897 1.10059 4278190080
1.32118 0.647461 1.12402 4278190080
1.4860899 0.647461 1.12402 4278190080
1.48535 0.647461 1.12473 4278190080
1.05405 0.65917999 1.40527 4278190080
1.27185 0.67089802 1.10645 4278190080
1.27441 0.67247897 1.10645 4278190080
1.28027 0.67613399 1.10645 4278190080
1.12793 0.665039 1.15756 4278190080
1.15137 0.66924399 1.15332 4278190080
1.15723 0.66715902 1.15332 4278190080
