# .PCD v0.7 - Point Cloud Data file format
VERSION 0.7
FIELDS x y z rgb
SIZE 4 4 4 4
TYPE F F F U
COUNT 1 1 1 1
WIDTH 1154
HEIGHT 1
VIEWPOINT 0 0 0 1 0 0 0
POINTS 1154
DATA ascii
-0.459961 0.76382899 1.15332 4278190080
-0.45410201 0.76306403 1.15332 4278190080
-0.36151901 0.76464802 1.12402 4278190080
-0.35584399 0.76464802 1.12402 4278190080
-0.36035201 0.76525199 1.12402 4278190080
-0.36035201 0.76464802 1.1253999 4278190080
-0.35449201 0.76464802 1.12477 4278190080
-0.34863299 0.76464802 1.1284699 4278190080
-0.297447 0.76464802 1.12402 4278190080
-0.293455 0.76464802 1.12402 4278190080
-0.29589799 0.76501799 1.12402 4278190080
-0.29589799 0.76464802 1.12523 4278190080
-0.51436502 0.76464802 1.13574 4278190080
-0.51855499 0.76464802 1.14063 4278190080
-0.51155698 0.76464802 1.13574 4278190080
-0.506836 0.76756698 1.13574 4278190080
-0.50097698 0.76724797 1.13574 4278190080
-0.49511701 0.76772398 1.13574 4278190080
-0.48925799 0.768022 1.13574 4278190080
-0.48339799 0.76787102 1.13574 4278190080
-0.477539 0.76677603 1.13574 4278190080
-0.47167999 0.76648402 1.13574 4278190080
-0.46582001 0.76605397 1.13574 4278190080
-0.46582001 0.76464802 1.13709 4278190080
-0.459961 0.76644897 1.13574 4278190080
-0.45121399 0.76464802 1.13574 4278190080
-0.45410201 0.76521802 1.13574 4278190080
-0.45410201 0.76464802 1.13719 4278190080
-0.37207001 0.76048899 1.1123 4278190080
-0.366211 0.76304501 1.1123 4278190080
-0.35826901 0.758789 1.1123 4278190080
-0.36035201 0.76063001 1.1123 4278190080
-0.35449201 0.758789 1.1158201 4278190080
-0.29589799 0.758789 1.11682 4278190080
-0.287467 0.758789 1.1123 4278190080
-0.290039 0.758789 1.11387 4278190080
-0.28417999 0.75974298 1.1123 4278190080
-0.27832001 0.76060802 1.1123 4278190080
-0.272461 0.76190001 1.1123 4278190080
-0.26660201 0.76243502 1.1123 4278190080
-0.21972699 0.76352102 1.1123 4278190080
-0.21386699 0.76463401 1.1123 4278190080
-0.21386699 0.758789 1.11779 4278190080
-0.20800801 0.762851 1.1123 4278190080
-0.20800801 0.758789 1.11676 4278190080
-0.20214801 0.76263702 1.1123 4278190080
-0.20214801 0.758789 1.11497 4278190080
-0.194317 0.758789 1.1123 4278190080
-0.196289 0.75965101 1.1123 4278190080
-0.196289 0.758789 1.1131001 4278190080
-0.336914 0.75808299 1.12402 4278190080
-0.33105499 0.75817502 1.12402 4278190080
-0.32519501 0.758026 1.12402 4278190080
-0.24902301 0.75292999 1.1288199 4278190080
-0.243164 0.75292999 1.12862 4278190080
-0.237305 0.75630701 1.12402 4278190080
-0.237305 0.75292999 1.12659 4278190080
-0.226125 0.75292999 1.12402 4278190080
-0.231445 0.755288 1.12402 4278190080
-0.231445 0.75292999 1.12581 4278190080
-0.356756 0.76464802 1.12988 4278190080
-0.35449201 0.76594299 1.12988 4278190080
-0.35449201 0.76464802 1.13125 4278190080
-0.34287199 0.76464802 1.12988 4278190080
-0.34863299 0.76581103 1.12988 4278190080
-0.34863299 0.76464802 1.13335 4278190080
-0.34277299 0.76464802 1.13019 4278190080
-0.336914 0.76464802 1.13555 4278190080
-0.37207001 0.76075399 1.11816 4278190080
-0.366211 0.76357698 1.11816 4278190080
-0.36035201 0.764525 1.11816 4278190080
-0.351843 0.758789 1.11816 4278190080
-0.35449201 0.760391 1.11816 4278190080
-0.34863299 0.758789 1.12091 4278190080
-0.34277299 0.758789 1.1236399 4278190080
-0.319336 0.758789 1.12314 4278190080
-0.31347701 0.758789 1.12242 4278190080
-0.30761701 0.758789 1.1210999 4278190080
-0.30152401 0.758789 1.11816 4278190080
-0.30175799 0.758789 1.1183 4278190080
-0.29589799 0.76011801 1.11816 4278190080
-0.290039 0.76192802 1.11816 4278190080
-0.24902301 0.76463699 1.11816 4278190080
-0.243164 0.76381397 1.11816 4278190080
-0.237305 0.76264101 1.11816 4278190080
-0.237305 0.758789 1.12201 4278190080
-0.231445 0.762456 1.11816 4278190080
-0.231445 0.758789 1.12098 4278190080
-0.225586 0.761711 1.11816 4278190080
-0.225586 0.758789 1.12089 4278190080
-0.215092 0.758789 1.11816 4278190080
-0.21972699 0.760602 1.11816 4278190080
-0.21972699 0.758789 1.11923 4278190080
-0.51256597 0.76464802 1.1416 4278190080
-0.506836 0.76659101 1.1416 4278190080
-0.50097698 0.76764703 1.1416 4278190080
-0.49511701 0.76645899 1.1416 4278190080
-0.48925799 0.76766199 1.1416 4278190080
-0.48339799 0.76817501 1.1416 4278190080
-0.48339799 0.76464802 1.14709 4278190080
-0.477539 0.76618898 1.1416 4278190080
-0.47029901 0.76464802 1.1416 4278190080
-0.47167999 0.76528502 1.1416 4278190080
-0.46029401 0.76464802 1.1416 4278190080
-0.46582001 0.76464802 1.14334 4278190080
-0.45945501 0.76464802 1.1416 4278190080
-0.459961 0.76477897 1.1416 4278190080
-0.459961 0.76464802 1.14203 4278190080
-0.45410201 0.76464802 1.14683 4278190080
-0.37207001 0.75292999 1.13274 4278190080
-0.272461 0.75292999 1.13404 4278190080
-0.26660201 0.75292999 1.1322401 4278190080
-0.26074201 0.757209 1.12988 4278190080
-0.26074201 0.75292999 1.13139 4278190080
-0.25235099 0.75292999 1.12988 4278190080
-0.25488299 0.75473601 1.12988 4278190080
-0.25488299 0.75292999 1.13069 4278190080
-0.344587 0.76464802 1.13574 4278190080
-0.34277299 0.765315 1.13574 4278190080
-0.34277299 0.76464802 1.1364 4278190080
-0.33661601 0.76464802 1.13574 4278190080
-0.336914 0.76471502 1.13574 4278190080
-0.336914 0.76464802 1.13582 4278190080
-0.37207001 0.75993901 1.12402 4278190080
-0.366211 0.76236898 1.12402 4278190080
-0.35449201 0.76441598 1.12402 4278190080
-0.34863299 0.76099199 1.12402 4278190080
-0.339755 0.758789 1.12402 4278190080
-0.34277299 0.75914001 1.12402 4278190080
-0.336914 0.758789 1.12468 4278190080
-0.33105499 0.758789 1.12462 4278190080
-0.323185 0.758789 1.12402 4278190080
-0.32519501 0.758789 1.12484 4278190080
-0.319336 0.75949502 1.12402 4278190080
-0.31347701 0.76003999 1.12402 4278190080
-0.30761701 0.760818 1.12402 4278190080
-0.30175799 0.76293701 1.12402 4278190080
-0.290039 0.763708 1.12402 4278190080
-0.28417999 0.76325399 1.12402 4278190080
-0.27832001 0.76255202 1.12402 4278190080
-0.272461 0.76179397 1.12402 4278190080
-0.26660201 0.76218998 1.12402 4278190080
-0.26074201 0.76161599 1.12402 4278190080
-0.26074201 0.758789 1.12833 4278190080
-0.25488299 0.761733 1.12402 4278190080
-0.25488299 0.758789 1.1278 4278190080
-0.24902301 0.76085901 1.12402 4278190080
-0.24902301 0.758789 1.12739 4278190080
-0.24163 0.758789 1.12402 4278190080
-0.243164 0.759655 1.12402 4278190080
-0.243164 0.758789 1.12473 4278190080
-0.48339799 0.76464802 1.14767 4278190080
-0.47167999 0.76637203 1.14746 4278190080
-0.46138099 0.76464802 1.14746 4278190080
-0.46582001 0.76709199 1.14746 4278190080
-0.45464101 0.76464802 1.14746 4278190080
-0.45390099 0.76464802 1.14746 4278190080
-0.45410201 0.76477998 1.14746 4278190080
-0.45410201 0.76464802 1.14776 4278190080
-0.36907199 0.75292999 1.13574 4278190080
-0.366211 0.75292999 1.13855 4278190080
-0.29589799 0.75748998 1.13574 4278190080
-0.29589799 0.75292999 1.13948 4278190080
-0.290039 0.75292999 1.13808 4278190080
-0.28417999 0.75657701 1.13574 4278190080
-0.28417999 0.75292999 1.13704 4278190080
-0.27586201 0.75292999 1.13574 4278190080
-0.27832001 0.75426298 1.13574 4278190080
-0.37207001 0.76045102 1.12988 4278190080
-0.37207001 0.758789 1.1311001 4278190080
-0.366211 0.76098502 1.12988 4278190080
-0.36035201 0.76256698 1.12988 4278190080
-0.34277299 0.76460701 1.12988 4278190080
-0.336914 0.76269001 1.12988 4278190080
-0.33105499 0.762214 1.12988 4278190080
-0.32519501 0.76202703 1.12988 4278190080
-0.319336 0.76227599 1.12988 4278190080
-0.31347701 0.76303297 1.12988 4278190080
-0.30761701 0.76276398 1.12988 4278190080
-0.30175799 0.76255798 1.12988 4278190080
-0.29589799 0.76198697 1.12988 4278190080
-0.29589799 0.758789 1.13375 4278190080
-0.290039 0.76081502 1.12988 4278190080
-0.28417999 0.75976503 1.12988 4278190080
-0.28417999 0.758789 1.13273 4278190080
-0.27832001 0.75956702 1.12988 4278190080
-0.27832001 0.758789 1.13069 4278190080
-0.272461 0.75909501 1.12988 4278190080
-0.272461 0.758789 1.13019 4278190080
-0.26324701 0.758789 1.12988 4278190080
-0.26660201 0.75996399 1.12988 4278190080
-0.26660201 0.758789 1.1307 4278190080
-0.48339799 0.76756698 1.15332 4278190080
-0.46085599 0.76464802 1.15332 4278190080
-0.46582001 0.76809299 1.15332 4278190080
-0.459961 0.76464802 1.15411 4278190080
-0.36252201 0.75292999 1.1416 4278190080
-0.36035201 0.75704902 1.1416 4278190080
-0.36035201 0.75292999 1.14652 4278190080
-0.35449201 0.75735098 1.1416 4278190080
-0.34863299 0.75733101 1.1416 4278190080
-0.34277299 0.75292999 1.1473401 4278190080
-0.336914 0.758416 1.1416 4278190080
-0.33105499 0.75744402 1.1416 4278190080
-0.32519501 0.75670099 1.1416 4278190080
-0.319336 0.75648397 1.1416 4278190080
-0.319336 0.75292999 1.1453201 4278190080
-0.31347701 0.75554597 1.1416 4278190080
-0.31347701 0.75292999 1.14522 4278190080
-0.30761701 0.75511098 1.1416 4278190080
-0.30761701 0.75292999 1.1431299 4278190080
-0.29995999 0.75292999 1.1416 4278190080
-0.30175799 0.75448799 1.1416 4278190080
-0.30175799 0.75292999 1.14226 4278190080
-0.366348 0.758789 1.13574 4278190080
-0.366211 0.75893998 1.13574 4278190080
-0.366211 0.758789 1.13588 4278190080
-0.36035201 0.76041502 1.13574 4278190080
-0.36035201 0.758789 1.13998 4278190080
-0.35449201 0.760719 1.13574 4278190080
-0.35449201 0.758789 1.13937 4278190080
-0.34863299 0.76297802 1.13574 4278190080
-0.34863299 0.758789 1.13948 4278190080
-0.336914 0.758789 1.14116 4278190080
-0.33105499 0.763152 1.13574 4278190080
-0.33105499 0.758789 1.13992 4278190080
-0.32519501 0.76162201 1.13574 4278190080
-0.32519501 0.758789 1.13855 4278190080
-0.319336 0.76034403 1.13574 4278190080
-0.319336 0.758789 1.13778 4278190080
-0.31347701 0.75932002 1.13574 4278190080
-0.31347701 0.758789 1.13677 4278190080
-0.30761701 0.75882101 1.13574 4278190080
-0.30761701 0.758789 1.13581 4278190080
-0.301119 0.758789 1.13574 4278190080
-0.30175799 0.75890398 1.13574 4278190080
-0.30175799 0.758789 1.1360199 4278190080
-0.29061201 0.758789 1.13574 4278190080
-0.289464 0.758789 1.13574 4278190080
-0.290039 0.75890499 1.13574 4278190080
-0.290039 0.758789 1.13583 4278190080
-0.459961 0.76782298 1.15918 4278190080
-0.35656399 0.75292999 1.14746 4278190080
-0.35449201 0.75314498 1.14746 4278190080
-0.35449201 0.75292999 1.14781 4278190080
-0.343043 0.75292999 1.14746 4278190080
-0.34863299 0.75490898 1.14746 4278190080
-0.34863299 0.75292999 1.1487499 4278190080
-0.342453 0.75292999 1.14746 4278190080
-0.336914 0.75543898 1.14746 4278190080
-0.336914 0.75292999 1.14903 4278190080
-0.33105499 0.75401902 1.14746 4278190080
-0.33105499 0.75292999 1.14841 4278190080
-0.322804 0.75292999 1.14746 4278190080
-0.32519501 0.75428897 1.14746 4278190080
-0.32519501 0.75292999 1.1485 4278190080
-0.344666 0.758789 1.1416 4278190080
-0.338552 0.758789 1.1416 4278190080
-0.34277299 0.75973201 1.1416 4278190080
-0.34277299 0.758789 1.1436501 4278190080
-0.39550799 0.79394501 0.859743 4278190080
-0.38964799 0.79394501 0.857476 4278190080
-0.383789 0.79394501 0.858257 4278190080
-0.37792999 0.79394501 0.85805601 4278190080
-0.39550799 0.788086 0.85803902 4278190080
-0.38964799 0.788086 0.85562402 4278190080
-0.383789 0.788086 0.85536301 4278190080
-0.37792999 0.788086 0.85581398 4278190080
-0.383789 0.79980499 0.85960102 4278190080
-0.37792999 0.81152302 0.87145603 4278190080
-0.38964799 0.805664 0.86568803 4278190080
-0.383789 0.805664 0.86356503 4278190080
-0.37792999 0.81738299 0.87734401 4278190080
-0.40722701 0.79394501 0.86589098 4278190080
-0.39640701 0.79394501 0.86035198 4278190080
-0.40136701 0.79394501 0.86264098 4278190080
-0.39550799 0.795295 0.86035198 4278190080
-0.38964799 0.79976797 0.86035198 4278190080
-0.37527701 0.79394501 0.86035198 4278190080
-0.37792999 0.79667997 0.86035198 4278190080
-0.39817101 0.788086 0.86035198 4278190080
-0.40136701 0.788086 0.863428 4278190080
-0.37355301 0.788086 0.86035198 4278190080
-0.39550799 0.79980499 0.86129802 4278190080
-0.38954201 0.79980499 0.86035198 4278190080
-0.38964799 0.79980499 0.86037397 4278190080
-0.38273001 0.79980499 0.86035198 4278190080
-0.383789 0.80085403 0.86035198 4278190080
-0.37792999 0.79980499 0.86308002 4278190080
-0.38104501 0.81152302 0.87207001 4278190080
-0.376937 0.81152302 0.87207001 4278190080
-0.37792999 0.81217098 0.87207001 4278190080
-0.39062801 0.805664 0.866211 4278190080
-0.38964799 0.806086 0.866211 4278190080
-0.37898201 0.805664 0.866211 4278190080
-0.383789 0.80760801 0.866211 4278190080
-0.37792999 0.805664 0.86683297 4278190080
-0.37842199 0.81738299 0.87792999 4278190080
-0.376497 0.81738299 0.87792999 4278190080
-0.37792999 0.81861401 0.87792999 4278190080
-0.40745199 0.79394501 0.866211 4278190080
-0.40722701 0.79426301 0.866211 4278190080
-0.40136701 0.79775298 0.866211 4278190080
-0.40579 0.788086 0.866211 4278190080
-0.40722701 0.79206699 0.866211 4278190080
-0.40722701 0.788086 0.86770701 4278190080
-0.400132 0.79980499 0.866211 4278190080
-0.40136701 0.79980499 0.86821198 4278190080
-0.39550799 0.80354899 0.866211 4278190080
-0.373988 0.79980499 0.866211 4278190080
-0.37792999 0.80486101 0.866211 4278190080
-0.38079101 0.81152302 0.87792999 4278190080
-0.37853199 0.81738299 0.883789 4278190080
-0.374641 0.81738299 0.883789 4278190080
-0.39359999 0.805664 0.87207001 4278190080
-0.38964799 0.80865997 0.87207001 4278190080
-0.38964799 0.805664 0.874614 4278190080
-0.383789 0.81091702 0.87207001 4278190080
-0.373292 0.805664 0.87207001 4278190080
-0.40868801 0.79394501 0.87207001 4278190080
-0.40722701 0.79589301 0.87207001 4278190080
-0.409044 0.788086 0.87207001 4278190080
-0.413086 0.788086 0.87709898 4278190080
-0.40437001 0.79980499 0.87207001 4278190080
-0.40136701 0.800951 0.87207001 4278190080
-0.39550799 0.80432898 0.87207001 4278190080
-0.65332001 0.79394501 1.0651799 4278190080
-0.38703501 0.805664 0.87792999 4278190080
-0.383789 0.80977201 0.87792999 4278190080
-0.383789 0.805664 0.88327801 4278190080
-0.378555 0.81738299 0.88964802 4278190080
-0.38131699 0.81152302 0.883789 4278190080
-0.41211399 0.79394501 0.87792999 4278190080
-0.40722701 0.795811 0.87792999 4278190080
-0.67089802 0.788086 1.06464 4278190080
-0.665039 0.788086 1.06279 4278190080
-0.65917999 0.788086 1.06306 4278190080
-0.65332001 0.788086 1.06367 4278190080
-0.647461 0.788086 1.06476 4278190080
-0.67089802 0.79980499 1.07022 4278190080
-0.665039 0.79980499 1.06837 4278190080
-0.65917999 0.79980499 1.06708 4278190080
-0.65332001 0.79980499 1.0660501 4278190080
-0.647461 0.79980499 1.06558 4278190080
-0.64160198 0.79980499 1.06668 4278190080
-0.63574201 0.79980499 1.06963 4278190080
-0.413324 0.788086 0.87792999 4278190080
-0.413086 0.79124999 0.87792999 4278190080
-0.403983 0.79980499 0.87792999 4278190080
-0.40136701 0.80168098 0.87792999 4278190080
-0.40136701 0.79980499 0.88019198 4278190080
-0.39550799 0.801781 0.87792999 4278190080
-0.38964799 0.80377102 0.87792999 4278190080
-0.665039 0.805664 1.07004 4278190080
-0.65917999 0.805664 1.06819 4278190080
-0.65332001 0.805664 1.06669 4278190080
-0.647461 0.805664 1.06545 4278190080
-0.64160198 0.805664 1.06637 4278190080
-0.63574201 0.805664 1.06973 4278190080
-0.67089802 0.79394501 1.06794 4278190080
-0.665039 0.79394501 1.06581 4278190080
-0.65763301 0.79394501 1.06543 4278190080
-0.65917999 0.79394501 1.0655 4278190080
-0.64810997 0.79394501 1.06543 4278190080
-0.65332001 0.79567599 1.06543 4278190080
-0.647461 0.79394501 1.06546 4278190080
-0.64160198 0.79394501 1.06651 4278190080
-0.63574201 0.79394501 1.0692 4278190080
-0.378497 0.81738299 0.89550799 4278190080
-0.38316199 0.805664 0.883789 4278190080
-0.377987 0.81152302 0.88964802 4278190080
-0.41232499 0.79394501 0.883789 4278190080
-0.40722701 0.796139 0.883789 4278190080
-0.40136701 0.797306 0.883789 4278190080
-0.672988 0.788086 1.06543 4278190080
-0.67675799 0.788086 1.0676399 4278190080
-0.67089802 0.78954399 1.06543 4278190080
-0.665039 0.79332399 1.06543 4278190080
-0.65917999 0.79377103 1.06543 4278190080
-0.64483702 0.788086 1.06543 4278190080
-0.647461 0.79362202 1.06543 4278190080
-0.64160198 0.788086 1.06621 4278190080
-0.63574201 0.788086 1.06844 4278190080
-0.67237598 0.79980499 1.07129 4278190080
-0.67675799 0.79980499 1.07594 4278190080
-0.67089802 0.80202299 1.07129 4278190080
-0.63363701 0.79980499 1.07129 4278190080
-0.62988299 0.79980499 1.07445 4278190080
-0.413461 0.788086 0.883789 4278190080
-0.413086 0.791619 0.883789 4278190080
-0.66720998 0.805664 1.07129 4278190080
-0.67089802 0.805664 1.07309 4278190080
-0.63374901 0.805664 1.07129 4278190080
-0.62988299 0.805664 1.07506 4278190080
-0.396144 0.79980499 0.883789 4278190080
-0.39550799 0.80013102 0.883789 4278190080
-0.39550799 0.79980499 0.88415802 4278190080
-0.38964799 0.80317098 0.883789 4278190080
-0.38964799 0.79980499 0.88950002 4278190080
-0.383789 0.80526602 0.883789 4278190080
-0.67487198 0.79394501 1.07129 4278190080
-0.67675799 0.79394501 1.07321 4278190080
-0.632707 0.79394501 1.07129 4278190080
-0.62988299 0.79394501 1.07302 4278190080
-0.37913501 0.805664 0.88964802 4278190080
-0.378198 0.81738299 0.90136701 4278190080
-0.37873501 0.81152302 0.89550799 4278190080
-0.37792999 0.81152302 0.89994901 4278190080
-0.410117 0.79394501 0.88964802 4278190080
-0.40722701 0.79494703 0.88964802 4278190080
-0.40136701 0.79567099 0.88964802 4278190080
-0.39550799 0.79668403 0.88964802 4278190080
-0.38964799 0.79969299 0.88964802 4278190080
-0.67872697 0.788086 1.07129 4278190080
-0.67675799 0.791655 1.07129 4278190080
-0.630256 0.788086 1.07129 4278190080
-0.62988299 0.788086 1.07147 4278190080
-0.62402302 0.788086 1.0756299 4278190080
-0.665039 0.81152302 1.07057 4278190080
-0.65917999 0.81152302 1.06876 4278190080
-0.65332001 0.81152302 1.0675 4278190080
-0.647461 0.81152302 1.067 4278190080
-0.64160198 0.81152302 1.06726 4278190080
-0.63574201 0.81152302 1.07026 4278190080
-0.67756999 0.79980499 1.07715 4278190080
-0.67675799 0.80441099 1.07715 4278190080
-0.62776399 0.79980499 1.07715 4278190080
-0.62402302 0.79980499 1.0819 4278190080
-0.414186 0.788086 0.88964802 4278190080
-0.413086 0.790546 0.88964802 4278190080
-0.67644399 0.805664 1.07715 4278190080
-0.67675799 0.80995202 1.07715 4278190080
-0.67675799 0.805664 1.0775501 4278190080
-0.62874001 0.805664 1.07715 4278190080
-0.37915301 0.805664 0.89550799 4278190080
-0.37801901 0.81738299 0.90722698 4278190080
-0.37792999 0.81738299 0.90764898 4278190080
-0.38944399 0.79980499 0.88964802 4278190080
-0.383789 0.80138499 0.88964802 4278190080
-0.37207001 0.79394501 0.86502099 4278190080
-0.67907798 0.79394501 1.07715 4278190080
-0.62603903 0.79394501 1.07715 4278190080
-0.62402302 0.79394501 1.07876 4278190080
-0.37207001 0.788086 0.862266 4278190080
-0.40914899 0.79394501 0.89550799 4278190080
-0.40722701 0.79440898 0.89550799 4278190080
-0.40722701 0.79394501 0.89770401 4278190080
-0.40136701 0.79552102 0.89550799 4278190080
-0.40136701 0.79394501 0.89915198 4278190080
-0.39550799 0.79394501 0.90091401 4278190080
-0.38964799 0.79632902 0.89550799 4278190080
-0.38964799 0.79394501 0.90094799 4278190080
-0.37494999 0.81152302 0.90136701 4278190080
-0.37792999 0.81558502 0.90136701 4278190080
-0.67984903 0.788086 1.07715 4278190080
-0.62272298 0.788086 1.07715 4278190080
-0.62402302 0.79101199 1.07715 4278190080
-0.618164 0.788086 1.08164 4278190080
-0.67675799 0.81152302 1.07705 4278190080
-0.66621101 0.81152302 1.07129 4278190080
-0.67089802 0.81152302 1.0737799 4278190080
-0.665039 0.81557 1.07129 4278190080
-0.63457203 0.81152302 1.07129 4278190080
-0.62988299 0.81152302 1.0759701 4278190080
-0.68015701 0.79980499 1.08301 4278190080
-0.67675799 0.79980499 1.08757 4278190080
-0.62355602 0.79980499 1.08301 4278190080
-0.62402302 0.80223298 1.08301 4278190080
-0.41420701 0.788086 0.89550799 4278190080
-0.413086 0.79136503 0.89550799 4278190080
-0.37127399 0.79394501 0.866211 4278190080
-0.37207001 0.79585397 0.866211 4278190080
-0.67860597 0.79394501 1.08301 4278190080
-0.67675799 0.79394501 1.08538 4278190080
-0.621418 0.79394501 1.08301 4278190080
-0.68112397 0.805664 1.08301 4278190080
-0.625 0.805664 1.08301 4278190080
-0.62402302 0.805664 1.08525 4278190080
-0.37052 0.788086 0.866211 4278190080
-0.37207001 0.805664 0.87482601 4278190080
-0.37900299 0.805664 0.90136701 4278190080
-0.37316999 0.805664 0.90136701 4278190080
-0.37792999 0.81008297 0.90136701 4278190080
-0.37792999 0.805664 0.90337598 4278190080
-0.65917999 0.81738299 1.06952 4278190080
-0.65332001 0.81738299 1.06857 4278190080
-0.647461 0.81738299 1.06738 4278190080
-0.64160198 0.81738299 1.06821 4278190080
-0.63574201 0.81738299 1.0710599 4278190080
-0.37792999 0.82133102 0.913086 4278190080
-0.38506201 0.79980499 0.89550799 4278190080
-0.383789 0.80116302 0.89550799 4278190080
-0.383789 0.79980499 0.89774603 4278190080
-0.37207001 0.79980499 0.86948103 4278190080
-0.37792999 0.81710303 0.90722698 4278190080
-0.38931501 0.79394501 0.90136701 4278190080
-0.383789 0.79782099 0.90136701 4278190080
-0.67882401 0.788086 1.08301 4278190080
-0.67089802 0.788086 1.08777 4278190080
-0.617136 0.788086 1.08301 4278190080
-0.618164 0.789527 1.08301 4278190080
-0.67611599 0.79980499 1.08887 4278190080
-0.67675799 0.800583 1.08887 4278190080
-0.62155998 0.79980499 1.08887 4278190080
-0.67688799 0.81152302 1.07715 4278190080
-0.67675799 0.812042 1.07715 4278190080
-0.62893599 0.81152302 1.07715 4278190080
-0.369807 0.79394501 0.87207001 4278190080
-0.41467199 0.788086 0.90136701 4278190080
-0.413086 0.78966498 0.90136701 4278190080
-0.40722701 0.79278803 0.90136701 4278190080
-0.40136701 0.79273802 0.90136701 4278190080
-0.39550799 0.79371399 0.90136701 4278190080
-0.38964799 0.79370397 0.90136701 4278190080
-0.36996701 0.788086 0.87207001 4278190080
-0.36993 0.805664 0.87792999 4278190080
-0.67461902 0.79394501 1.08887 4278190080
-0.67089802 0.79394501 1.09119 4278190080
-0.665039 0.79394501 1.094 4278190080
-0.61891598 0.79394501 1.08887 4278190080
-0.681005 0.805664 1.08887 4278190080
-0.68261701 0.80915701 1.08887 4278190080
-0.67675799 0.805664 1.09368 4278190080
-0.62304503 0.805664 1.08887 4278190080
-0.67089802 0.81738299 1.07436 4278190080
-0.66396999 0.81738299 1.07129 4278190080
-0.665039 0.81738299 1.0715801 4278190080
-0.63538802 0.81738299 1.07129 4278190080
-0.63574201 0.81893599 1.07129 4278190080
-0.62988299 0.81738299 1.07661 4278190080
-0.37057701 0.79980499 0.87207001 4278190080
-0.37207001 0.80286503 0.87207001 4278190080
-0.38123599 0.79980499 0.90136701 4278190080
-0.37256801 0.79980499 0.90136701 4278190080
-0.389422 0.79394501 0.90722698 4278190080
-0.383789 0.79818398 0.90722698 4278190080
-0.37207001 0.81152302 0.87782001 4278190080
-0.679474 0.788086 1.08887 4278190080
-0.67230099 0.788086 1.08887 4278190080
-0.67675799 0.79169798 1.08887 4278190080
-0.66775602 0.788086 1.08887 4278190080
-0.67089802 0.78940499 1.08887 4278190080
-0.65917999 0.788086 1.09428 4278190080
-0.65332001 0.788086 1.0925699 4278190080
-0.61587298 0.788086 1.08887 4278190080
-0.618164 0.79251403 1.08887 4278190080
-0.367661 0.79394501 0.87792999 4278190080
-0.36833799 0.788086 0.87792999 4278190080
-0.67606503 0.79980499 1.09473 4278190080
-0.67089802 0.79980499 1.09563 4278190080
-0.665039 0.79980499 1.09619 4278190080
-0.65332001 0.79980499 1.09934 4278190080
-0.647461 0.79980499 1.0993 4278190080
-0.62111002 0.79980499 1.09473 4278190080
-0.413259 0.788086 0.90722698 4278190080
-0.413086 0.788495 0.90722698 4278190080
-0.40722701 0.79205799 0.90722698 4278190080
-0.40136701 0.79161 0.90722698 4278190080
-0.39550799 0.793845 0.90722698 4278190080
-0.38964799 0.79379398 0.90722698 4278190080
-0.68085802 0.81152302 1.08301 4278190080
-0.68261701 0.81152302 1.08608 4278190080
-0.62580103 0.81152302 1.08301 4278190080
-0.62402302 0.81152302 1.08824 4278190080
-0.36748901 0.805664 0.883789 4278190080
-0.67089802 0.79832202 1.09473 4278190080
-0.66334599 0.79394501 1.09473 4278190080
-0.665039 0.79508197 1.09473 4278190080
-0.65332001 0.79394501 1.09661 4278190080
-0.647461 0.79394501 1.09738 4278190080
-0.64160198 0.79394501 1.09796 4278190080
-0.61941898 0.79394501 1.09473 4278190080
-0.68261701 0.81091201 1.09473 4278190080
-0.67569399 0.805664 1.09473 4278190080
-0.67675799 0.80770999 1.09473 4278190080
-0.67089802 0.805664 1.0970401 4278190080
-0.622087 0.805664 1.09473 4278190080
-0.36910099 0.79980499 0.87792999 4278190080
-0.67515802 0.81738299 1.07715 4278190080
-0.67675799 0.81738299 1.0786 4278190080
-0.62946802 0.81738299 1.07715 4278190080
-0.371961 0.81152302 0.87792999 4278190080
-0.37207001 0.81171602 0.87792999 4278190080
-0.385631 0.79394501 0.913086 4278190080
-0.37283799 0.79394501 0.913086 4278190080
-0.37792999 0.79918998 0.913086 4278190080
-0.37792999 0.79394501 0.91730601 4278190080
-0.381145 0.79980499 0.90722698 4278190080
-0.37422901 0.79980499 0.90722698 4278190080
-0.37792999 0.80258799 0.90722698 4278190080
-0.37792999 0.79980499 0.91188502 4278190080
-0.36772001 0.788086 0.883789 4278190080
-0.36718801 0.79394501 0.883789 4278190080
-0.65970802 0.79980499 1.10059 4278190080
-0.665039 0.805094 1.10059 4278190080
-0.65680301 0.79980499 1.10059 4278190080
-0.65917999 0.79980499 1.10122 4278190080
-0.65332001 0.80220699 1.10059 4278190080
-0.64466703 0.79980499 1.10059 4278190080
-0.647461 0.80161297 1.10059 4278190080
-0.64160198 0.79980499 1.10274 4278190080
-0.63574201 0.79980499 1.10471 4278190080
-0.62988299 0.79980499 1.10422 4278190080
-0.62112302 0.79980499 1.10059 4278190080
-0.62402302 0.79980499 1.10262 4278190080
-0.37207001 0.82229501 0.883789 4278190080
-0.37207001 0.81738299 0.88634002 4278190080
-0.366211 0.81738299 0.887986 4278190080
-0.413086 0.788086 0.913086 4278190080
-0.413086 0.788086 0.913086 4278190080
-0.413086 0.788086 0.91308701 4278190080
-0.40722701 0.79081702 0.913086 4278190080
-0.40136701 0.79030502 0.913086 4278190080
-0.39550799 0.79127997 0.913086 4278190080
-0.38964799 0.79122001 0.913086 4278190080
-0.65917999 0.789123 1.09473 4278190080
-0.65012199 0.788086 1.09473 4278190080
-0.65332001 0.79131699 1.09473 4278190080
-0.647461 0.788086 1.09603 4278190080
-0.64160198 0.788086 1.09614 4278190080
-0.63574201 0.788086 1.09726 4278190080
-0.62988299 0.788086 1.09884 4278190080
-0.62402302 0.788086 1.10014 4278190080
-0.61604702 0.788086 1.09473 4278190080
-0.618164 0.79118001 1.09473 4278190080
-0.618164 0.788086 1.09631 4278190080
-0.36765701 0.805664 0.88964802 4278190080
-0.366211 0.80963898 0.88964802 4278190080
-0.68441403 0.81152302 1.08887 4278190080
-0.623864 0.81152302 1.08887 4278190080
-0.636316 0.79394501 1.10059 4278190080
-0.64160198 0.798042 1.10059 4278190080
-0.63574201 0.79394501 1.10087 4278190080
-0.62988299 0.79394501 1.10195 4278190080
-0.62104201 0.79394501 1.10059 4278190080
-0.62402302 0.79394501 1.10177 4278190080
-0.367569 0.79980499 0.883789 4278190080
-0.37150499 0.81152302 0.883789 4278190080
-0.37207001 0.812406 0.883789 4278190080
-0.366211 0.81152302 0.88836098 4278190080
-0.66610301 0.805664 1.10059 4278190080
-0.665039 0.805664 1.1012 4278190080
-0.64160198 0.805664 1.1062 4278190080
-0.62197101 0.805664 1.10059 4278190080
-0.68141502 0.81738299 1.08301 4278190080
-0.68261701 0.81738299 1.08415 4278190080
-0.625911 0.81738299 1.08301 4278190080
-0.62402302 0.81738299 1.08831 4278190080
-0.38643399 0.79394501 0.91894501 4278190080
-0.38017899 0.79394501 0.91894501 4278190080
-0.383789 0.79394501 0.92112499 4278190080
-0.367302 0.788086 0.88964802 4278190080
-0.36743701 0.79394501 0.88964802 4278190080
-0.36508501 0.81738299 0.88964802 4278190080
-0.65917999 0.80548501 1.10645 4278190080
-0.65332001 0.80549598 1.10645 4278190080
-0.647461 0.80514199 1.10645 4278190080
-0.63574201 0.80171299 1.10645 4278190080
-0.62988299 0.803949 1.10645 4278190080
-0.62402302 0.80495399 1.10645 4278190080
-0.37143999 0.805664 0.89550799 4278190080
-0.37207001 0.805664 0.89708298 4278190080
-0.366211 0.80908698 0.89550799 4278190080
-0.68358803 0.81152302 1.09473 4278190080
-0.68261701 0.81152302 1.0951999 4278190080
-0.67675799 0.81152302 1.09712 4278190080
-0.67089802 0.81152302 1.0992 4278190080
-0.62243098 0.81152302 1.09473 4278190080
-0.36765301 0.79980499 0.88964802 4278190080
-0.63574201 0.793383 1.10059 4278190080
-0.62988299 0.79094797 1.10059 4278190080
-0.62402302 0.78917199 1.10059 4278190080
-0.41048801 0.788086 0.91894501 4278190080
-0.40722701 0.78925699 0.91894501 4278190080
-0.40136701 0.78905803 0.91894501 4278190080
-0.40136701 0.788086 0.92077398 4278190080
-0.39550799 0.79112202 0.91894501 4278190080
-0.39550799 0.788086 0.92452401 4278190080
-0.38964799 0.791668 0.91894501 4278190080
-0.372262 0.788086 0.91894501 4278190080
-0.37792999 0.79247302 0.91894501 4278190080
-0.36558101 0.81152302 0.88964802 4278190080
-0.65933901 0.805664 1.10645 4278190080
-0.65917999 0.805664 1.10685 4278190080
-0.65332001 0.805664 1.10681 4278190080
-0.64317203 0.805664 1.10645 4278190080
-0.647461 0.805664 1.10753 4278190080
-0.64119202 0.805664 1.10645 4278190080
-0.64160198 0.80601197 1.10645 4278190080
-0.63574201 0.805664 1.10868 4278190080
-0.62988299 0.805664 1.10886 4278190080
-0.622787 0.805664 1.10645 4278190080
-0.62402302 0.805664 1.10737 4278190080
-0.68711901 0.81738299 1.08887 4278190080
-0.62384498 0.81738299 1.08887 4278190080
-0.36791101 0.788086 0.89550799 4278190080
-0.36763701 0.79394501 0.89550799 4278190080
-0.36337101 0.81738299 0.89550799 4278190080
-0.36922601 0.79980499 0.89550799 4278190080
-0.37207001 0.79980499 0.90004897 4278190080
-0.21386699 0.75292999 1.38754 4278190080
-0.66901499 0.81152302 1.10059 4278190080
-0.67089802 0.81344998 1.10059 4278190080
-0.665039 0.81152302 1.10321 4278190080
-0.62179899 0.81152302 1.10059 4278190080
-0.37207001 0.80814302 0.90136701 4278190080
-0.366211 0.810265 0.90136701 4278190080
-0.36431801 0.81152302 0.89550799 4278190080
-0.40855101 0.788086 0.92480499 4278190080
-0.40587801 0.788086 0.92480499 4278190080
-0.40722701 0.788086 0.92606997 4278190080
-0.40136701 0.788086 0.92993897 4278190080
-0.39523199 0.788086 0.92480499 4278190080
-0.38964799 0.79039001 0.92480499 4278190080
-0.38964799 0.788086 0.93010801 4278190080
-0.383789 0.79124898 0.92480499 4278190080
-0.37504399 0.788086 0.92480499 4278190080
-0.37792999 0.78941202 0.92480499 4278190080
-0.64160198 0.81150699 1.1123 4278190080
-0.63574201 0.81016397 1.1123 4278190080
-0.62988299 0.80844802 1.1123 4278190080
-0.62402302 0.810978 1.1123 4278190080
-0.36695799 0.788086 0.90136701 4278190080
-0.36902499 0.79394501 0.90136701 4278190080
-0.37207001 0.798657 0.90136701 4278190080
-0.362106 0.81738299 0.90136701 4278190080
-0.68261701 0.81738299 1.0962 4278190080
-0.62225199 0.81738299 1.09473 4278190080
-0.37207001 0.81152302 0.905334 4278190080
-0.36568499 0.81152302 0.90136701 4278190080
-0.366211 0.81152302 0.90298003 4278190080
-0.66087002 0.81152302 1.10645 4278190080
-0.65917999 0.81152302 1.11127 4278190080
-0.65332001 0.81152302 1.10984 4278190080
-0.647461 0.81152302 1.11043 4278190080
-0.62181598 0.81152302 1.10645 4278190080
-0.36831999 0.788086 0.90722698 4278190080
-0.237305 0.75292999 1.39178 4278190080
-0.231445 0.75292999 1.38833 4278190080
-0.225586 0.75292999 1.38837 4278190080
-0.216032 0.75292999 1.3877 4278190080
-0.21972699 0.75292999 1.38796 4278190080
-0.21246099 0.75292999 1.3877 4278190080
-0.21386699 0.75330102 1.3877 4278190080
-0.20800801 0.75292999 1.38826 4278190080
-0.20214801 0.75292999 1.39101 4278190080
-0.369504 0.79394501 0.90722698 4278190080
-0.37207001 0.79673398 0.90722698 4278190080
-0.37207001 0.79394501 0.91082901 4278190080
-0.402042 0.788086 0.930664 4278190080
-0.40048 0.788086 0.930664 4278190080
-0.40136701 0.78844202 0.930664 4278190080
-0.40136701 0.788086 0.93117702 4278190080
-0.38857901 0.788086 0.930664 4278190080
-0.383789 0.788086 0.93554997 4278190080
-0.37697199 0.788086 0.930664 4278190080
-0.37792999 0.78870702 0.930664 4278190080
-0.37792999 0.788086 0.93392402 4278190080
-0.37207001 0.81738299 0.91083801 4278190080
-0.362782 0.81738299 0.90722698 4278190080
-0.36035201 0.82158798 0.90722698 4278190080
-0.62121999 0.81738299 1.10059 4278190080
-0.37207001 0.81259799 0.90722698 4278190080
-0.366211 0.81326902 0.90722698 4278190080
-0.37045199 0.788086 0.913086 4278190080
-0.37207001 0.791704 0.913086 4278190080
-0.37207001 0.788086 0.91813302 4278190080
-0.36812401 0.81738299 0.913086 4278190080
-0.37207001 0.81893998 0.913086 4278190080
-0.36481199 0.81738299 0.913086 4278190080
-0.366211 0.81738299 0.91482699 4278190080
-0.36035201 0.821401 0.913086 4278190080
-0.23930401 0.75292999 1.39355 4278190080
-0.243164 0.75292999 1.39782 4278190080
-0.237305 0.75833201 1.39355 4278190080
-0.199119 0.75292999 1.39355 4278190080
-0.196289 0.75292999 1.397 4278190080
-0.65917999 0.81330103 1.1123 4278190080
-0.65332001 0.81326199 1.1123 4278190080
-0.64172101 0.81152302 1.1123 4278190080
-0.647461 0.81352699 1.1123 4278190080
-0.64160198 0.81152302 1.11236 4278190080
-0.63574201 0.81152302 1.11536 4278190080
-0.62988299 0.81152302 1.11603 4278190080
-0.62330198 0.81152302 1.1123 4278190080
-0.62402302 0.81152302 1.11327 4278190080
-0.366211 0.81617701 0.913086 4278190080
-0.37207001 0.82051897 0.91894501 4278190080
-0.366211 0.81908798 0.91894501 4278190080
-0.244743 0.75292999 1.39941 4278190080
-0.195235 0.75292999 1.39941 4278190080
-0.231445 0.758789 1.39271 4278190080
-0.225586 0.758789 1.3920701 4278190080
-0.21972699 0.758789 1.39103 4278190080
-0.21386699 0.758789 1.39012 4278190080
-0.20800801 0.758789 1.3899699 4278190080
-0.20214801 0.758789 1.39246 4278190080
-0.366211 0.82243699 0.92480499 4278190080
-0.247971 0.75292999 1.40527 4278190080
-0.24902301 0.75429702 1.40527 4278190080
-0.19292399 0.75292999 1.40527 4278190080
-0.23669501 0.758789 1.39355 4278190080
-0.237305 0.758789 1.39376 4278190080
-0.231445 0.76052701 1.39355 4278190080
-0.225586 0.76191801 1.39355 4278190080
-0.20060401 0.758789 1.39355 4278190080
-0.196289 0.758789 1.39719 4278190080
-0.19105799 0.75292999 1.41113 4278190080
-0.19043 0.75820303 1.41113 4278190080
-0.19043 0.75292999 1.4129699 4278190080
-0.12597699 0.788086 1.07112 4278190080
-0.120117 0.788086 1.0685199 4278190080
-0.114258 0.788086 1.06754 4278190080
-0.108398 0.788086 1.06794 4278190080
-0.102539 0.788086 1.06963 4278190080
-0.195003 0.758789 1.39941 4278190080
-0.196289 0.76464802 1.39706 4278190080
-0.120117 0.79394501 1.07087 4278190080
-0.114258 0.79394501 1.07024 4278190080
-0.108398 0.79394501 1.07043 4278190080
-0.18906499 0.75292999 1.41699 4278190080
-0.12616301 0.788086 1.07129 4278190080
-0.131836 0.788086 1.0769399 4278190080
-0.12597699 0.78846902 1.07129 4278190080
-0.099040598 0.788086 1.07129 4278190080
-0.102539 0.79263097 1.07129 4278190080
-0.096679702 0.788086 1.0727201 4278190080
-0.19247399 0.758789 1.40527 4278190080
-0.19043 0.758789 1.41091 4278190080
-0.121071 0.79394501 1.07129 4278190080
-0.12597699 0.79394501 1.07391 4278190080
-0.120117 0.79473197 1.07129 4278190080
-0.114258 0.79605103 1.07129 4278190080
-0.104347 0.79394501 1.07129 4278190080
-0.108398 0.79572898 1.07129 4278190080
-0.102539 0.79394501 1.07179 4278190080
-0.096679702 0.79394501 1.0740499 4278190080
-0.188051 0.75292999 1.42285 4278190080
-0.131984 0.788086 1.07715 4278190080
-0.131836 0.78856999 1.07715 4278190080
-0.091717601 0.788086 1.07715 4278190080
-0.090820298 0.788086 1.0779901 4278190080
-0.12597699 0.79980499 1.0766799 4278190080
-0.120117 0.79980499 1.0740401 4278190080
-0.114258 0.79980499 1.0732 4278190080
-0.108398 0.79980499 1.07338 4278190080
-0.102539 0.79980499 1.07409 4278190080
-0.096679702 0.79980499 1.07568 4278190080
-0.12941401 0.79394501 1.07715 4278190080
-0.131836 0.79394501 1.07947 4278190080
-0.0927331 0.79394501 1.07715 4278190080
-0.090820298 0.79394501 1.07891 4278190080
-0.19032399 0.758789 1.41113 4278190080
-0.126681 0.79980499 1.07715 4278190080
-0.131836 0.79980499 1.08163 4278190080
-0.12597699 0.800861 1.07715 4278190080
-0.094358601 0.79980499 1.07715 4278190080
-0.096679702 0.804232 1.07715 4278190080
-0.090820298 0.79980499 1.07972 4278190080
-0.13568 0.788086 1.08301 4278190080
-0.137695 0.788086 1.08688 4278190080
-0.088208102 0.788086 1.08301 4278190080
-0.134314 0.79394501 1.08301 4278190080
-0.137695 0.79394501 1.08814 4278190080
-0.088371597 0.79394501 1.08301 4278190080
-0.188142 0.758789 1.41699 4278190080
-0.13293099 0.79980499 1.08301 4278190080
-0.131836 0.80415499 1.08301 4278190080
-0.088507898 0.79980499 1.08301 4278190080
-0.138427 0.788086 1.08887 4278190080
-0.137695 0.788086 1.09184 4278190080
-0.086567998 0.788086 1.08887 4278190080
-0.090820298 0.788086 1.09456 4278190080
-0.28417999 0.75841802 1.43457 4278190080
-0.138097 0.79394501 1.08887 4278190080
-0.137695 0.79596698 1.08887 4278190080
-0.0855584 0.79394501 1.08887 4278190080
-0.0849609 0.79394501 1.0914201 4278190080
-0.13664301 0.79980499 1.08887 4278190080
-0.137695 0.79980499 1.0909801 4278190080
-0.085071199 0.79980499 1.08887 4278190080
-0.0849609 0.80334097 1.08887 4278190080
-0.0849609 0.79980499 1.08911 4278190080
-0.13625801 0.788086 1.09473 4278190080
-0.137695 0.791076 1.09473 4278190080
-0.102539 0.788086 1.09953 4278190080
-0.091095701 0.788086 1.09473 4278190080
-0.096679702 0.788086 1.09957 4278190080
-0.090820298 0.78821301 1.09473 4278190080
-0.0849609 0.79304498 1.09473 4278190080
-0.290039 0.77050799 1.45117 4278190080
-0.28417999 0.75769401 1.44043 4278190080
-0.27832001 0.75524497 1.44043 4278190080
-0.27832001 0.75292999 1.4461499 4278190080
-0.272461 0.75423402 1.44043 4278190080
-0.26260999 0.75292999 1.44043 4278190080
-0.26074201 0.75376701 1.44043 4278190080
-0.252947 0.75292999 1.44043 4278190080
-0.25488299 0.754426 1.44043 4278190080
-0.13855 0.79394501 1.09473 4278190080
-0.137695 0.79394501 1.09676 4278190080
-0.0844016 0.79394501 1.09473 4278190080
-0.0849609 0.79394501 1.09689 4278190080
-0.139376 0.79980499 1.09473 4278190080
-0.082980901 0.79980499 1.09473 4278190080
-0.28828001 0.77050799 1.45215 4278190080
-0.28417999 0.77050799 1.45678 4278190080
-0.134673 0.788086 1.10059 4278190080
-0.131836 0.788086 1.10531 4278190080
-0.120117 0.788086 1.10439 4278190080
-0.114258 0.788086 1.1013499 4278190080
-0.106543 0.788086 1.10059 4278190080
-0.108398 0.788086 1.1011699 4278190080
-0.102539 0.789231 1.10059 4278190080
-0.096679702 0.788885 1.10059 4278190080
-0.090820298 0.793015 1.10059 4278190080
-0.277715 0.75292999 1.44629 4278190080
-0.272461 0.75336498 1.44629 4278190080
-0.272461 0.75292999 1.4474699 4278190080
-0.138739 0.79980499 1.10059 4278190080
-0.137695 0.79980499 1.10469 4278190080
-0.082758501 0.79980499 1.10059 4278190080
-0.135106 0.79394501 1.10059 4278190080
-0.137695 0.79818898 1.10059 4278190080
-0.108398 0.79394501 1.10571 4278190080
-0.102539 0.79394501 1.10471 4278190080
-0.096679702 0.79394501 1.1059099 4278190080
-0.089041397 0.79394501 1.10059 4278190080
-0.090820298 0.79394501 1.10198 4278190080
-0.0849609 0.79595202 1.10059 4278190080
-0.120117 0.805664 1.07679 4278190080
-0.114258 0.805664 1.07595 4278190080
-0.108398 0.805664 1.07585 4278190080
-0.102539 0.805664 1.07647 4278190080
-0.290039 0.77084899 1.45801 4278190080
-0.283007 0.77050799 1.45801 4278190080
-0.28417999 0.77130699 1.45801 4278190080
-0.28417999 0.77050799 1.4628299 4278190080
-0.12943199 0.788086 1.10645 4278190080
-0.131836 0.789675 1.10645 4278190080
-0.124267 0.788086 1.10645 4278190080
-0.12597699 0.788086 1.10698 4278190080
-0.120117 0.791318 1.10645 4278190080
-0.114258 0.79304701 1.10645 4278190080
-0.26907501 0.75292999 1.45215 4278190080
-0.272461 0.75292999 1.45518 4278190080
-0.26660201 0.753869 1.45215 4278190080
-0.26660201 0.75292999 1.45394 4278190080
-0.24902301 0.75559902 1.45215 4278190080
-0.13719399 0.79980499 1.10645 4278190080
-0.137695 0.80059302 1.10645 4278190080
-0.137695 0.79980499 1.10855 4278190080
-0.108398 0.79980499 1.11225 4278190080
-0.102539 0.79980499 1.1112601 4278190080
-0.096679702 0.79980499 1.11143 4278190080
-0.090820298 0.79980499 1.11071 4278190080
-0.084096603 0.79980499 1.10645 4278190080
-0.0849609 0.79980499 1.10778 4278190080
-0.13490801 0.79394501 1.10645 4278190080
-0.131836 0.79394501 1.11206 4278190080
-0.120117 0.79394501 1.10936 4278190080
-0.110791 0.79394501 1.10645 4278190080
-0.114258 0.79394501 1.10717 4278190080
-0.108398 0.794967 1.10645 4278190080
-0.102539 0.79626298 1.10645 4278190080
-0.096679702 0.79439598 1.10645 4278190080
-0.090820298 0.79767501 1.10645 4278190080
-0.0849609 0.79902399 1.10645 4278190080
-0.28417999 0.758789 1.44189 4278190080
-0.120894 0.805664 1.07715 4278190080
-0.12597699 0.805664 1.07943 4278190080
-0.120117 0.80660599 1.07715 4278190080
-0.114258 0.80875403 1.07715 4278190080
-0.108398 0.80887902 1.07715 4278190080
-0.099199399 0.805664 1.07715 4278190080
-0.102539 0.80810398 1.07715 4278190080
-0.096679702 0.805664 1.07761 4278190080
-0.090820298 0.805664 1.08097 4278190080
-0.12597699 0.79332399 1.1123 4278190080
-0.27403501 0.75292999 1.45801 4278190080
-0.270358 0.75292999 1.45801 4278190080
-0.272461 0.75405002 1.45801 4278190080
-0.272461 0.75292999 1.46235 4278190080
-0.26340899 0.75292999 1.45801 4278190080
-0.13859101 0.79980499 1.1123 4278190080
-0.120117 0.79980499 1.11523 4278190080
-0.108473 0.79980499 1.1123 4278190080
-0.114258 0.79980499 1.11419 4278190080
-0.108398 0.799842 1.1123 4278190080
-0.102539 0.80073601 1.1123 4278190080
-0.096679702 0.80083001 1.1123 4278190080
-0.090820298 0.800538 1.1123 4278190080
-0.0849609 0.80262601 1.1123 4278190080
-0.137695 0.798684 1.1123 4278190080
-0.131457 0.79394501 1.1123 4278190080
-0.131836 0.79407001 1.1123 4278190080
-0.123788 0.79394501 1.1123 4278190080
-0.12597699 0.79394501 1.113 4278190080
-0.120117 0.79593498 1.1123 4278190080
-0.114258 0.79827499 1.1123 4278190080
-0.131257 0.805664 1.08301 4278190080
-0.131836 0.805664 1.08355 4278190080
-0.089001499 0.805664 1.08301 4278190080
-0.0849609 0.805664 1.08873 4278190080
-0.28073001 0.758789 1.44629 4278190080
-0.28417999 0.76278502 1.44629 4278190080
-0.138633 0.79980499 1.11816 4278190080
-0.137695 0.79980499 1.1233799 4278190080
-0.131836 0.79980499 1.1234699 4278190080
-0.123835 0.79980499 1.11816 4278190080
-0.12597699 0.79980499 1.11985 4278190080
-0.120117 0.80219501 1.11816 4278190080
-0.114258 0.80264401 1.11816 4278190080
-0.108398 0.80397201 1.11816 4278190080
-0.096679702 0.80485499 1.11816 4278190080
-0.090820298 0.80452698 1.11816 4278190080
-0.137695 0.79846102 1.11816 4278190080
-0.131836 0.795344 1.11816 4278190080
-0.12597699 0.79861498 1.11816 4278190080
-0.136188 0.805664 1.08887 4278190080
-0.137695 0.805664 1.09117 4278190080
-0.084877603 0.805664 1.08887 4278190080
-0.26118001 0.75292999 1.46387 4278190080
-0.26074201 0.75292999 1.46453 4278190080
-0.28417999 0.758789 1.45533 4278190080
-0.137695 0.799977 1.12402 4278190080
-0.131836 0.80000198 1.12402 4278190080
-0.139806 0.805664 1.09473 4278190080
-0.081935897 0.805664 1.09473 4278190080
-0.28417999 0.76464802 1.44885 4278190080
-0.272461 0.76464802 1.44963 4278190080
-0.141745 0.805664 1.10059 4278190080
-0.080544896 0.805664 1.10059 4278190080
-0.0791016 0.81061399 1.10059 4278190080
-0.28201401 0.76464802 1.45215 4278190080
-0.28417999 0.76761401 1.45215 4278190080
-0.28417999 0.76464802 1.45451 4278190080
-0.27415499 0.76464802 1.45215 4278190080
-0.27021301 0.76464802 1.45215 4278190080
-0.272461 0.76614702 1.45215 4278190080
-0.272461 0.76464802 1.45608 4278190080
-0.141541 0.805664 1.10645 4278190080
-0.079998598 0.805664 1.10645 4278190080
-0.0791016 0.80778801 1.10645 4278190080
-0.28417999 0.76963699 1.45801 4278190080
-0.12597699 0.81152302 1.08165 4278190080
-0.120117 0.81152302 1.07923 4278190080
-0.114258 0.81152302 1.07827 4278190080
-0.108398 0.81152302 1.07823 4278190080
-0.102539 0.81152302 1.0780801 4278190080
-0.096679702 0.81152302 1.07885 4278190080
-0.090820298 0.81152302 1.0817 4278190080
-0.102539 0.805664 1.1180201 4278190080
-0.080584899 0.805664 1.1123 4278190080
-0.0849609 0.805664 1.11788 4278190080
-0.0791016 0.80733502 1.1123 4278190080
-0.12808 0.81152302 1.08301 4278190080
-0.131836 0.81152302 1.08534 4278190080
-0.0893768 0.81152302 1.08301 4278190080
-0.0849609 0.81152302 1.0879 4278190080
-0.102753 0.805664 1.11816 4278190080
-0.108398 0.805664 1.12035 4278190080
-0.101809 0.805664 1.11816 4278190080
-0.102539 0.80579299 1.11816 4278190080
-0.096679702 0.805664 1.11967 4278190080
-0.085839704 0.805664 1.11816 4278190080
-0.090820298 0.805664 1.12154 4278190080
-0.0849609 0.80590999 1.11816 4278190080
-0.0791016 0.807935 1.11816 4278190080
-0.13594501 0.81152302 1.08887 4278190080
-0.137695 0.81152302 1.09105 4278190080
-0.084291697 0.81152302 1.08887 4278190080
-0.108398 0.80907899 1.12402 4278190080
-0.102539 0.809286 1.12402 4278190080
-0.096679702 0.80854303 1.12402 4278190080
-0.090820298 0.80685902 1.12402 4278190080
-0.14076 0.81152302 1.09473 4278190080
-0.143555 0.81624699 1.09473 4278190080
-0.080905601 0.81152302 1.09473 4278190080
-0.0791016 0.81152302 1.0996 4278190080
-0.078370899 0.81152302 1.10059 4278190080
-0.12597699 0.81738299 1.08231 4278190080
-0.120117 0.81738299 1.07969 4278190080
-0.114258 0.81738299 1.07924 4278190080
-0.108398 0.81738299 1.07859 4278190080
-0.102539 0.81738299 1.07814 4278190080
-0.096679702 0.81738299 1.07837 4278190080
-0.090820298 0.81738299 1.08002 4278190080
-0.131836 0.81738299 1.0851099 4278190080
-0.137548 0.81738299 1.08887 4278190080
-0.137695 0.81752503 1.08887 4278190080
-0.137695 0.81738299 1.08898 4278190080
-0.37792999 0.82324201 0.88340002 4278190080
-0.378061 0.82324201 0.883789 4278190080
-0.378914 0.82324201 0.88964802 4278190080
-0.37792999 0.82910198 0.88288897 4278190080
-0.37207001 0.82324201 0.88347298 4278190080
-0.379605 0.82324201 0.89550799 4278190080
-0.37207001 0.82910198 0.884238 4278190080
-0.366211 0.82910198 0.88885701 4278190080
-0.378883 0.82910198 0.883789 4278190080
-0.37353301 0.82910198 0.883789 4278190080
-0.37162301 0.82324201 0.883789 4278190080
-0.37207001 0.82572299 0.883789 4278190080
-0.366211 0.82324201 0.888111 4278190080
-0.36539301 0.82910198 0.88964802 4278190080
-0.38012499 0.82324201 0.90136701 4278190080
-0.380624 0.82910198 0.88964802 4278190080
-0.36503899 0.82324201 0.88964802 4278190080
-0.362028 0.82910198 0.89550799 4278190080
-0.36035201 0.82910198 0.89977002 4278190080
-0.38107401 0.82324201 0.90722698 4278190080
-0.38039601 0.82910198 0.89550799 4278190080
-0.383789 0.83494002 0.89550799 4278190080
-0.36214501 0.82324201 0.89550799 4278190080
-0.359896 0.82910198 0.90136701 4278190080
-0.37207001 0.83502901 0.883789 4278190080
-0.37207001 0.834961 0.883793 4278190080
-0.366211 0.834961 0.88863301 4278190080
-0.37869 0.82324201 0.913086 4278190080
-0.37792999 0.82324201 0.91448998 4278190080
-0.38178101 0.82910198 0.90136701 4278190080
-0.37792999 0.834961 0.88314003 4278190080
-0.37792999 0.84082001 0.88377398 4278190080
-0.647461 0.82910198 1.06489 4278190080
-0.360412 0.82324201 0.90136701 4278190080
-0.36035201 0.82373297 0.90136701 4278190080
-0.36035201 0.82324201 0.901797 4278190080
-0.365116 0.834961 0.88964802 4278190080
-0.35846999 0.82910198 0.90722698 4278190080
-0.37416601 0.82324201 0.91894501 4278190080
-0.37792999 0.82706398 0.91894501 4278190080
-0.378508 0.834961 0.883789 4278190080
-0.37209401 0.834961 0.883789 4278190080
-0.37795201 0.84082001 0.883789 4278190080
-0.37792999 0.84142798 0.883789 4278190080
-0.38169599 0.82910198 0.90722698 4278190080
-0.383789 0.831891 0.90722698 4278190080
-0.65332001 0.82324201 1.0684299 4278190080
-0.647461 0.827959 1.06543 4278190080
-0.647461 0.82324201 1.06736 4278190080
-0.64160198 0.82324201 1.06815 4278190080
-0.64964497 0.82910198 1.06543 4278190080
-0.35991099 0.82324201 0.90722698 4278190080
-0.36128399 0.834961 0.89550799 4278190080
-0.36035201 0.834961 0.89736497 4278190080
-0.358091 0.82910198 0.913086 4278190080
-0.37207001 0.84082001 0.88356102 4278190080
-0.38246301 0.834961 0.88964802 4278190080
-0.383789 0.834961 0.89539498 4278190080
-0.38964799 0.84625298 0.88964802 4278190080
-0.38297999 0.84082001 0.88964802 4278190080
-0.383789 0.84258199 0.88964802 4278190080
-0.383789 0.84082001 0.890504 4278190080
