# .PCD v0.7 - Point Cloud Data file format
VERSION 0.7
FIELDS x y z rgb
SIZE 4 4 4 4
TYPE F F F U
COUNT 1 1 1 1
WIDTH 1168
HEIGHT 1
VIEWPOINT 0 0 0 1 0 0 0
POINTS 1168
DATA ascii
0.21386699 0.071471803 1.2002 4278190080
0.23802499 0.067382798 1.2002 4278190080
0.26318899 0.067382798 1.2002 4278190080
0.26074201 0.070162803 1.2002 4278190080
0.242479 0.0556641 1.24121 4278190080
0.243164 0.057084199 1.24121 4278190080
0.27098399 0.0556641 1.24121 4278190080
0.26660201 0.058790199 1.24121 4278190080
0.47167999 0.0613341 1.06543 4278190080
0.477539 0.0597043 1.06543 4278190080
0.48339799 0.0591604 1.06543 4278190080
0.48973 0.0556641 1.06543 4278190080
0.48925799 0.055831999 1.06543 4278190080
0.49511701 0.0556641 1.07093 4278190080
0.413086 0.067236498 1.07715 4278190080
0.41894501 0.066398703 1.07715 4278190080
0.42480499 0.066360399 1.07715 4278190080
0.430664 0.065669999 1.07715 4278190080
0.43652299 0.065203302 1.07715 4278190080
0.44238299 0.064208098 1.07715 4278190080
0.44824201 0.063828103 1.07715 4278190080
0.45410201 0.063342601 1.07715 4278190080
0.463119 0.0615234 1.07715 4278190080
0.459961 0.062378999 1.07715 4278190080
0.49511701 0.0554966 1.07715 4278190080
0.50097698 0.054563001 1.07715 4278190080
0.506836 0.052977599 1.07715 4278190080
0.51841801 0.049804699 1.07715 4278190080
0.51269501 0.051885501 1.07715 4278190080
0.51855499 0.049804699 1.08131 4278190080
0.37792999 0.068978198 1.07715 4278190080
0.383789 0.069202103 1.07715 4278190080
0.38964799 0.068851799 1.07715 4278190080
0.39550799 0.068382099 1.07715 4278190080
0.40136701 0.067990497 1.07715 4278190080
0.40136701 0.067382798 1.0817 4278190080
0.40838999 0.067382798 1.07715 4278190080
0.40722701 0.067427002 1.07715 4278190080
0.40722701 0.067382798 1.07752 4278190080
0.218144 0.0791016 1.2002 4278190080
0.243277 0.0791016 1.2002 4278190080
0.255007 0.0791016 1.2002 4278190080
0.25488299 0.079654597 1.2002 4278190080
0.25488299 0.0791016 1.20052 4278190080
0.215477 0.073242202 1.2002 4278190080
0.21386699 0.073242202 1.20275 4278190080
0.239463 0.073242202 1.2002 4278190080
0.243164 0.078982599 1.2002 4278190080
0.25809801 0.073242202 1.2002 4278190080
0.24075399 0.049804699 1.24707 4278190080
0.272461 0.0541155 1.24707 4278190080
0.282114 0.049804699 1.24707 4278190080
0.27832001 0.051193401 1.24707 4278190080
0.206091 0.0615234 1.22949 4278190080
0.20800801 0.0615234 1.2313 4278190080
0.21386699 0.0615234 1.2340699 4278190080
0.240761 0.0615234 1.22949 4278190080
0.243164 0.065410599 1.22949 4278190080
0.26578501 0.0615234 1.22949 4278190080
0.26074201 0.065866098 1.22949 4278190080
0.46582001 0.061076999 1.07129 4278190080
0.47167999 0.059616901 1.07129 4278190080
0.477539 0.058697201 1.07129 4278190080
0.48339799 0.058814999 1.07129 4278190080
0.48925799 0.0569227 1.07129 4278190080
0.495516 0.0556641 1.07129 4278190080
0.49511701 0.055747699 1.07129 4278190080
0.49511701 0.0556641 1.07332 4278190080
0.242285 0.0556641 1.24707 4278190080
0.243164 0.0571476 1.24707 4278190080
0.26988101 0.0556641 1.24707 4278190080
0.26660201 0.057801001 1.24707 4278190080
0.21144 0.067382798 1.20605 4278190080
0.23994599 0.067382798 1.20605 4278190080
0.26185 0.067382798 1.20605 4278190080
0.26074201 0.0686239 1.20605 4278190080
0.49511701 0.055289902 1.08301 4278190080
0.50097698 0.053471301 1.08301 4278190080
0.506836 0.0530992 1.08301 4278190080
0.51269501 0.051215298 1.08301 4278190080
0.51867801 0.049804699 1.08301 4278190080
0.51855499 0.049828202 1.08301 4278190080
0.51855499 0.049804699 1.08327 4278190080
0.40136701 0.067229003 1.08301 4278190080
0.40722701 0.066842802 1.08301 4278190080
0.413086 0.066493303 1.08301 4278190080
0.41894501 0.065999001 1.08301 4278190080
0.42480499 0.065467797 1.08301 4278190080
0.430664 0.065061003 1.08301 4278190080
0.43652299 0.064440504 1.08301 4278190080
0.44238299 0.063743599 1.08301 4278190080
0.44824201 0.0632312 1.08301 4278190080
0.45410201 0.062692001 1.08301 4278190080
0.46179301 0.0615234 1.08301 4278190080
0.459961 0.061948199 1.08301 4278190080
0.459961 0.0615234 1.08578 4278190080
0.37792999 0.067599803 1.08301 4278190080
0.37792999 0.067382798 1.0878201 4278190080
0.383789 0.068229198 1.08301 4278190080
0.383789 0.067382798 1.0880899 4278190080
0.38964799 0.068200201 1.08301 4278190080
0.38964799 0.067382798 1.08801 4278190080
0.39801499 0.067382798 1.08301 4278190080
0.39550799 0.067524701 1.08301 4278190080
0.39550799 0.067382798 1.08441 4278190080
0.215902 0.0791016 1.20605 4278190080
0.24697401 0.0791016 1.20605 4278190080
0.25146499 0.0791016 1.20605 4278190080
0.24902301 0.082155898 1.20605 4278190080
0.21328799 0.073242202 1.20605 4278190080
0.21386699 0.075497203 1.20605 4278190080
0.24222399 0.073242202 1.20605 4278190080
0.243164 0.074610703 1.20605 4278190080
0.243164 0.073242202 1.20815 4278190080
0.257626 0.073242202 1.20605 4278190080
0.25488299 0.076523297 1.20605 4278190080
0.239894 0.049804699 1.25293 4278190080
0.272461 0.0532922 1.25293 4278190080
0.280242 0.049804699 1.25293 4278190080
0.27832001 0.0504946 1.25293 4278190080
0.27832001 0.049804699 1.2575999 4278190080
0.46582001 0.0607276 1.07715 4278190080
0.47167999 0.059080001 1.07715 4278190080
0.477539 0.0585072 1.07715 4278190080
0.48339799 0.057774201 1.07715 4278190080
0.494441 0.0556641 1.07715 4278190080
0.48925799 0.056702301 1.07715 4278190080
0.21468601 0.0615234 1.23535 4278190080
0.21386699 0.066416897 1.23535 4278190080
0.242805 0.0615234 1.23535 4278190080
0.243164 0.062215898 1.23535 4278190080
0.243164 0.0615234 1.2361 4278190080
0.26475999 0.0615234 1.23535 4278190080
0.26074201 0.065127 1.23535 4278190080
0.242172 0.0556641 1.25293 4278190080
0.243164 0.0567858 1.25293 4278190080
0.26831099 0.0556641 1.25293 4278190080
0.26660201 0.0566989 1.25293 4278190080
0.37792999 0.067344002 1.08887 4278190080
0.383789 0.067281201 1.08887 4278190080
0.38964799 0.067260399 1.08887 4278190080
0.39550799 0.067016602 1.08887 4278190080
0.40136701 0.066439502 1.08887 4278190080
0.40722701 0.066062599 1.08887 4278190080
0.413086 0.066192202 1.08887 4278190080
0.41894501 0.065450102 1.08887 4278190080
0.42480499 0.064746499 1.08887 4278190080
0.430664 0.064342 1.08887 4278190080
0.43652299 0.063939899 1.08887 4278190080
0.44238299 0.063432001 1.08887 4278190080
0.44824201 0.0622067 1.08887 4278190080
0.44824201 0.0615234 1.09395 4278190080
0.45546299 0.0615234 1.08887 4278190080
0.45410201 0.0616831 1.08887 4278190080
0.45410201 0.0615234 1.09007 4278190080
0.20987301 0.067382798 1.21191 4278190080
0.24168999 0.067382798 1.21191 4278190080
0.243164 0.070867099 1.21191 4278190080
0.243164 0.067382798 1.21701 4278190080
0.26076299 0.067382798 1.21191 4278190080
0.26074201 0.067407101 1.21191 4278190080
0.26074201 0.067382798 1.21214 4278190080
0.48339799 0.055324301 1.08887 4278190080
0.48925799 0.0551368 1.08887 4278190080
0.49511701 0.054800399 1.08887 4278190080
0.50097698 0.053217299 1.08887 4278190080
0.506836 0.052415501 1.08887 4278190080
0.51694298 0.049804699 1.08887 4278190080
0.51269501 0.050908301 1.08887 4278190080
0.21411601 0.0791016 1.21191 4278190080
0.21386699 0.0791016 1.21268 4278190080
0.248988 0.0791016 1.21191 4278190080
0.24907701 0.0791016 1.21191 4278190080
0.24902301 0.079159103 1.21191 4278190080
0.24902301 0.0791016 1.21197 4278190080
0.212029 0.073242202 1.21191 4278190080
0.21386699 0.078686498 1.21191 4278190080
0.245041 0.073242202 1.21191 4278190080
0.25624201 0.073242202 1.21191 4278190080
0.25488299 0.074780896 1.21191 4278190080
0.25488299 0.073242202 1.21615 4278190080
0.239802 0.049804699 1.25879 4278190080
0.27777901 0.049804699 1.25879 4278190080
0.272461 0.052249301 1.25879 4278190080
0.46582001 0.060370099 1.08301 4278190080
0.47167999 0.0585142 1.08301 4278190080
0.477539 0.0571661 1.08301 4278190080
0.48339799 0.056381602 1.08301 4278190080
0.48339799 0.0556641 1.0870301 4278190080
0.49407199 0.0556641 1.08301 4278190080
0.48925799 0.056911699 1.08301 4278190080
0.48925799 0.0556641 1.08735 4278190080
0.241101 0.0556641 1.25879 4278190080
0.243164 0.058082901 1.25879 4278190080
0.26074201 0.061425202 1.25879 4278190080
0.268141 0.0556641 1.25879 4278190080
0.26660201 0.056697398 1.25879 4278190080
0.21972699 0.066205002 1.24121 4278190080
0.24521001 0.0615234 1.24121 4278190080
0.26343799 0.0615234 1.24121 4278190080
0.26074201 0.064323202 1.24121 4278190080
0.37792999 0.066963203 1.09473 4278190080
0.383789 0.066599399 1.09473 4278190080
0.38964799 0.066170201 1.09473 4278190080
0.39550799 0.066179402 1.09473 4278190080
0.40136701 0.065917499 1.09473 4278190080
0.40722701 0.065678701 1.09473 4278190080
0.413086 0.065326303 1.09473 4278190080
0.41894501 0.0648048 1.09473 4278190080
0.42480499 0.063855998 1.09473 4278190080
0.430664 0.063689001 1.09473 4278190080
0.43652299 0.063139297 1.09473 4278190080
0.447837 0.0615234 1.09473 4278190080
0.44238299 0.062884703 1.09473 4278190080
0.208609 0.067382798 1.21777 4278190080
0.20800801 0.067382798 1.21913 4278190080
0.243625 0.067382798 1.21777 4278190080
0.26020899 0.067382798 1.21777 4278190080
0.25488299 0.072643198 1.21777 4278190080
0.48339799 0.054246798 1.09473 4278190080
0.48925799 0.053592399 1.09473 4278190080
0.49511701 0.053766999 1.09473 4278190080
0.50097698 0.052343 1.09473 4278190080
0.506836 0.0512968 1.09473 4278190080
0.513991 0.049804699 1.09473 4278190080
0.51269501 0.050181702 1.09473 4278190080
0.51269501 0.049804699 1.09727 4278190080
0.212934 0.0791016 1.21777 4278190080
0.21386699 0.081844002 1.21777 4278190080
0.210885 0.073242202 1.21777 4278190080
0.246803 0.073242202 1.21777 4278190080
0.25370401 0.073242202 1.21777 4278190080
0.24902301 0.075460397 1.21777 4278190080
0.24005499 0.049804699 1.26465 4278190080
0.27498901 0.049804699 1.26465 4278190080
0.272461 0.051480498 1.26465 4278190080
0.459961 0.0609602 1.08887 4278190080
0.46582001 0.059455201 1.08887 4278190080
0.47167999 0.0578725 1.08887 4278190080
0.48101699 0.0556641 1.08887 4278190080
0.477539 0.0561736 1.08887 4278190080
0.24006701 0.0556641 1.26465 4278190080
0.243164 0.059562299 1.26465 4278190080
0.26074201 0.060245499 1.26465 4278190080
0.266987 0.0556641 1.26465 4278190080
0.26660201 0.055939902 1.26465 4278190080
0.26660201 0.0556641 1.2657 4278190080
0.24572299 0.0615234 1.24707 4278190080
0.24902301 0.066598199 1.24707 4278190080
0.26216799 0.0615234 1.24707 4278190080
0.26074201 0.062783197 1.24707 4278190080
0.37792999 0.065481901 1.10059 4278190080
0.383789 0.065677002 1.10059 4278190080
0.38964799 0.065309897 1.10059 4278190080
0.39550799 0.065412 1.10059 4278190080
0.40136701 0.065120898 1.10059 4278190080
0.40722701 0.064866804 1.10059 4278190080
0.413086 0.064906403 1.10059 4278190080
0.41894501 0.064314097 1.10059 4278190080
0.42480499 0.063520797 1.10059 4278190080
0.430664 0.062988602 1.10059 4278190080
0.43652299 0.0624226 1.10059 4278190080
0.43652299 0.0615234 1.10437 4278190080
0.444814 0.0615234 1.10059 4278190080
0.44238299 0.0619183 1.10059 4278190080
0.44238299 0.0615234 1.10188 4278190080
0.206852 0.067382798 1.22363 4278190080
0.20800801 0.070677899 1.22363 4278190080
0.24462201 0.067382798 1.22363 4278190080
0.25937799 0.067382798 1.22363 4278190080
0.25488299 0.071323901 1.22363 4278190080
0.21209601 0.0791016 1.22363 4278190080
0.477539 0.054761499 1.10059 4278190080
0.48339799 0.053533699 1.10059 4278190080
0.48925799 0.0528275 1.10059 4278190080
0.49511701 0.052267302 1.10059 4278190080
0.50097698 0.0518202 1.10059 4278190080
0.510346 0.049804699 1.10059 4278190080
0.506836 0.050521102 1.10059 4278190080
0.506836 0.049804699 1.10491 4278190080
0.20950601 0.073242202 1.22363 4278190080
0.24899399 0.073242202 1.22363 4278190080
0.24909601 0.073242202 1.22363 4278190080
0.24902301 0.0732712 1.22363 4278190080
0.24902301 0.073242202 1.22411 4278190080
0.240153 0.0556641 1.27051 4278190080
0.26512301 0.0556641 1.27051 4278190080
0.26074201 0.059605401 1.27051 4278190080
0.44824201 0.061409999 1.09473 4278190080
0.45410201 0.060910899 1.09473 4278190080
0.459961 0.060007699 1.09473 4278190080
0.46582001 0.0588485 1.09473 4278190080
0.47167999 0.057445399 1.09473 4278190080
0.47914699 0.0556641 1.09473 4278190080
0.477539 0.0562726 1.09473 4278190080
0.477539 0.0556641 1.0969 4278190080
0.238631 0.049804699 1.27051 4278190080
0.237305 0.049804699 1.27309 4278190080
0.26660201 0.054237701 1.27051 4278190080
0.27294901 0.049804699 1.27051 4278190080
0.272461 0.050122 1.27051 4278190080
0.247574 0.0615234 1.25293 4278190080
0.24902301 0.066913404 1.25293 4278190080
0.26123801 0.0615234 1.25293 4278190080
0.26074201 0.062011499 1.25293 4278190080
0.26074201 0.0615234 1.2579 4278190080
0.37792999 0.064368799 1.10645 4278190080
0.383789 0.064714901 1.10645 4278190080
0.38964799 0.0648112 1.10645 4278190080
0.39550799 0.0645428 1.10645 4278190080
0.40136701 0.064095899 1.10645 4278190080
0.40722701 0.064149499 1.10645 4278190080
0.413086 0.063837901 1.10645 4278190080
0.41894501 0.063365303 1.10645 4278190080
0.42480499 0.062773898 1.10645 4278190080
0.433119 0.0615234 1.10645 4278190080
0.430664 0.061868701 1.10645 4278190080
0.430664 0.0615234 1.10821 4278190080
0.211979 0.0791016 1.22949 4278190080
0.21386699 0.0791016 1.23408 4278190080
0.20780399 0.067382798 1.22949 4278190080
0.20800801 0.067980498 1.22949 4278190080
0.20800801 0.067382798 1.23002 4278190080
0.245562 0.067382798 1.22949 4278190080
0.24902301 0.0727164 1.22949 4278190080
0.25908399 0.067382798 1.22949 4278190080
0.25488299 0.071445502 1.22949 4278190080
0.210531 0.073242202 1.22949 4278190080
0.47167999 0.055572301 1.10645 4278190080
0.477539 0.054143101 1.10645 4278190080
0.48339799 0.052770499 1.10645 4278190080
0.48925799 0.0521603 1.10645 4278190080
0.49511701 0.0514259 1.10645 4278190080
0.50528902 0.049804699 1.10645 4278190080
0.50097698 0.050483 1.10645 4278190080
0.50097698 0.049804699 1.11042 4278190080
0.240554 0.0556641 1.27637 4278190080
0.26358801 0.0556641 1.27637 4278190080
0.26074201 0.057771999 1.27637 4278190080
0.26074201 0.0556641 1.28128 4278190080
0.44824201 0.061066501 1.10059 4278190080
0.45410201 0.0598078 1.10059 4278190080
0.459961 0.059283901 1.10059 4278190080
0.46582001 0.0579767 1.10059 4278190080
0.47300699 0.0556641 1.10059 4278190080
0.47167999 0.056045301 1.10059 4278190080
0.47167999 0.0556641 1.10493 4278190080
0.23577 0.049804699 1.27637 4278190080
0.237305 0.051378001 1.27637 4278190080
0.26660201 0.0527637 1.27637 4278190080
0.27262399 0.049804699 1.27637 4278190080
0.272461 0.049906701 1.27637 4278190080
0.272461 0.049804699 1.27694 4278190080
0.246986 0.0615234 1.25879 4278190080
0.26062101 0.0615234 1.25879 4278190080
0.21498799 0.0791016 1.23535 4278190080
0.21972699 0.0791016 1.23682 4278190080
0.37792999 0.063609503 1.1123 4278190080
0.383789 0.063816004 1.1123 4278190080
0.38964799 0.063705303 1.1123 4278190080
0.39550799 0.0639036 1.1123 4278190080
0.40136701 0.063238896 1.1123 4278190080
0.40722701 0.063272201 1.1123 4278190080
0.413086 0.062794998 1.1123 4278190080
0.41894501 0.062841497 1.1123 4278190080
0.41894501 0.0615234 1.11694 4278190080
0.428065 0.0615234 1.1123 4278190080
0.42480499 0.062342901 1.1123 4278190080
0.42480499 0.0615234 1.11721 4278190080
0.213293 0.067382798 1.23535 4278190080
0.21972699 0.067382798 1.23971 4278190080
0.246409 0.067382798 1.23535 4278190080
0.24902301 0.071297497 1.23535 4278190080
0.25810301 0.067382798 1.23535 4278190080
0.25488299 0.069859304 1.23535 4278190080
0.213421 0.073242202 1.23535 4278190080
0.21386699 0.075152002 1.23535 4278190080
0.21972699 0.073242202 1.23862 4278190080
0.26044801 0.0556641 1.28223 4278190080
0.25488299 0.0609897 1.28223 4278190080
0.43652299 0.061183698 1.10645 4278190080
0.44238299 0.060486101 1.10645 4278190080
0.44824201 0.060459401 1.10645 4278190080
0.45410201 0.058883298 1.10645 4278190080
0.459961 0.058081999 1.10645 4278190080
0.470976 0.0556641 1.10645 4278190080
0.46582001 0.056555402 1.10645 4278190080
0.47167999 0.0549412 1.1123 4278190080
0.477539 0.053360201 1.1123 4278190080
0.48339799 0.051716901 1.1123 4278190080
0.48925799 0.050975598 1.1123 4278190080
0.48925799 0.049804699 1.1174999 4278190080
0.498631 0.049804699 1.1123 4278190080
0.49511701 0.050243501 1.1123 4278190080
0.49511701 0.049804699 1.11573 4278190080
0.222543 0.0791016 1.24121 4278190080
0.26074201 0.055235099 1.28223 4278190080
0.270789 0.049804699 1.28223 4278190080
0.26660201 0.0517639 1.28223 4278190080
0.26660201 0.049804699 1.28664 4278190080
0.24749701 0.0615234 1.26465 4278190080
0.25909701 0.0615234 1.26465 4278190080
0.25488299 0.067122497 1.26465 4278190080
0.37792999 0.062083799 1.11816 4278190080
0.37792999 0.0615234 1.12147 4278190080
0.383789 0.061921202 1.11816 4278190080
0.383789 0.0615234 1.12149 4278190080
0.38964799 0.062716402 1.11816 4278190080
0.38964799 0.0615234 1.1218899 4278190080
0.39550799 0.0625448 1.11816 4278190080
0.39550799 0.0615234 1.12222 4278190080
0.40136701 0.061666802 1.11816 4278190080
0.40136701 0.0615234 1.11967 4278190080
0.40722701 0.061740499 1.11816 4278190080
0.40722701 0.0615234 1.11906 4278190080
0.416558 0.0615234 1.11816 4278190080
0.413086 0.062122699 1.11816 4278190080
0.413086 0.0615234 1.12028 4278190080
0.220927 0.067382798 1.24121 4278190080
0.248089 0.067382798 1.24121 4278190080
0.24902301 0.068948403 1.24121 4278190080
0.24902301 0.067382798 1.24462 4278190080
0.25659901 0.067382798 1.24121 4278190080
0.25488299 0.068904899 1.24121 4278190080
0.221838 0.073242202 1.24121 4278190080
0.259211 0.0556641 1.28809 4278190080
0.430664 0.0609418 1.1123 4278190080
0.43652299 0.060316101 1.1123 4278190080
0.44238299 0.059747901 1.1123 4278190080
0.44824201 0.059454001 1.1123 4278190080
0.45410201 0.058162201 1.1123 4278190080
0.459961 0.056801401 1.1123 4278190080
0.46795499 0.0556641 1.1123 4278190080
0.46582001 0.056156799 1.1123 4278190080
0.46582001 0.0556641 1.11461 4278190080
0.258046 0.0615234 1.27051 4278190080
0.25488299 0.063466698 1.27051 4278190080
0.26570001 0.049804699 1.28809 4278190080
0.26074201 0.053528 1.28809 4278190080
0.46582001 0.055020198 1.11816 4278190080
0.47167999 0.053994101 1.11816 4278190080
0.477539 0.052959599 1.11816 4278190080
0.488866 0.049804699 1.11816 4278190080
0.48339799 0.0514699 1.11816 4278190080
0.25082499 0.067382798 1.24707 4278190080
0.25663701 0.067382798 1.24707 4278190080
0.25488299 0.069353297 1.24707 4278190080
0.221744 0.073242202 1.24707 4278190080
0.259756 0.0556641 1.29395 4278190080
0.41894501 0.061165102 1.11816 4278190080
0.42480499 0.061363202 1.11816 4278190080
0.430664 0.060273901 1.11816 4278190080
0.43652299 0.059916399 1.11816 4278190080
0.44238299 0.0588044 1.11816 4278190080
0.44824201 0.058423899 1.11816 4278190080
0.45410201 0.0578213 1.11816 4278190080
0.46369299 0.0556641 1.11816 4278190080
0.459961 0.056827299 1.11816 4278190080
0.459961 0.0556641 1.12309 4278190080
0.25679901 0.0615234 1.27637 4278190080
0.25488299 0.063259698 1.27637 4278190080
0.25488299 0.0615234 1.28049 4278190080
0.264597 0.049804699 1.29395 4278190080
0.26074201 0.053979401 1.29395 4278190080
0.459961 0.055432599 1.12402 4278190080
0.46582001 0.054620501 1.12402 4278190080
0.47167999 0.053323299 1.12402 4278190080
0.477539 0.052326199 1.12402 4278190080
0.48697999 0.049804699 1.12402 4278190080
0.48339799 0.050975699 1.12402 4278190080
0.25014099 0.067382798 1.25293 4278190080
0.24902301 0.067382798 1.25333 4278190080
0.25592601 0.067382798 1.25293 4278190080
0.25488299 0.068692997 1.25293 4278190080
0.25881299 0.0556641 1.2998 4278190080
0.25488299 0.058674 1.2998 4278190080
0.37792999 0.061246499 1.12402 4278190080
0.383789 0.061333299 1.12402 4278190080
0.38964799 0.061018702 1.12402 4278190080
0.39550799 0.0611398 1.12402 4278190080
0.40136701 0.061145999 1.12402 4278190080
0.40722701 0.0604899 1.12402 4278190080
0.413086 0.060597502 1.12402 4278190080
0.41894501 0.059985399 1.12402 4278190080
0.42480499 0.0600545 1.12402 4278190080
0.430664 0.059116099 1.12402 4278190080
0.43652299 0.058755599 1.12402 4278190080
0.44238299 0.0578526 1.12402 4278190080
0.44824201 0.0572257 1.12402 4278190080
0.45879999 0.0556641 1.12402 4278190080
0.45410201 0.056759801 1.12402 4278190080
0.24902301 0.073242202 1.26349 4278190080
0.26348501 0.049804699 1.2998 4278190080
0.26074201 0.052355502 1.2998 4278190080
0.26074201 0.049804699 1.30471 4278190080
0.25488299 0.0615234 1.28431 4278190080
0.247594 0.067382798 1.25879 4278190080
0.24902301 0.069679901 1.25879 4278190080
0.25494301 0.067382798 1.25879 4278190080
0.25488299 0.067450799 1.25879 4278190080
0.25488299 0.067382798 1.26053 4278190080
0.25804001 0.0556641 1.30566 4278190080
0.25488299 0.058396298 1.30566 4278190080
0.459961 0.054997299 1.12988 4278190080
0.46582001 0.053831201 1.12988 4278190080
0.47167999 0.052893899 1.12988 4278190080
0.477539 0.0516891 1.12988 4278190080
0.48507899 0.049804699 1.12988 4278190080
0.48339799 0.050282702 1.12988 4278190080
0.48339799 0.049804699 1.1330301 4278190080
0.37792999 0.060396198 1.12988 4278190080
0.383789 0.060656399 1.12988 4278190080
0.38964799 0.0599062 1.12988 4278190080
0.39550799 0.0603997 1.12988 4278190080
0.40136701 0.0597881 1.12988 4278190080
0.40722701 0.059515499 1.12988 4278190080
0.413086 0.059762001 1.12988 4278190080
0.41894501 0.059849501 1.12988 4278190080
0.42480499 0.0590261 1.12988 4278190080
0.430664 0.058804899 1.12988 4278190080
0.43652299 0.058012601 1.12988 4278190080
0.44238299 0.0571668 1.12988 4278190080
0.44824201 0.056733001 1.12988 4278190080
0.45519501 0.0556641 1.12988 4278190080
0.45410201 0.055835798 1.12988 4278190080
0.45410201 0.0556641 1.13077 4278190080
0.248483 0.073242202 1.26465 4278190080
0.249768 0.073242202 1.26465 4278190080
0.24902301 0.073786899 1.26465 4278190080
0.26039499 0.049804699 1.30566 4278190080
0.26074201 0.049804699 1.3107899 4278190080
0.25592899 0.0615234 1.28809 4278190080
0.25488299 0.0627691 1.28809 4278190080
0.24803101 0.067382798 1.26465 4278190080
0.254576 0.067382798 1.26465 4278190080
0.257792 0.0556641 1.31152 4278190080
0.25488299 0.057837099 1.31152 4278190080
0.45410201 0.054859001 1.13574 4278190080
0.459961 0.053319201 1.13574 4278190080
0.46582001 0.052709699 1.13574 4278190080
0.47167999 0.052081801 1.13574 4278190080
0.48158601 0.049804699 1.13574 4278190080
0.477539 0.050754901 1.13574 4278190080
0.477539 0.049804699 1.14149 4278190080
0.37792999 0.0598155 1.13574 4278190080
0.383789 0.059837699 1.13574 4278190080
0.38964799 0.059532601 1.13574 4278190080
0.39550799 0.059635598 1.13574 4278190080
0.40136701 0.059144899 1.13574 4278190080
0.40722701 0.058582399 1.13574 4278190080
0.413086 0.058129702 1.13574 4278190080
0.41894501 0.058133699 1.13574 4278190080
0.42480499 0.058028799 1.13574 4278190080
0.430664 0.057951599 1.13574 4278190080
0.43652299 0.056735002 1.13574 4278190080
0.44238299 0.056729801 1.13574 4278190080
0.44238299 0.0556641 1.14147 4278190080
0.44881201 0.0556641 1.13574 4278190080
0.44824201 0.055748101 1.13574 4278190080
0.44824201 0.0556641 1.1361001 4278190080
0.254969 0.0615234 1.29395 4278190080
0.25488299 0.0615841 1.29395 4278190080
0.25488299 0.0615234 1.29407 4278190080
0.261022 0.049804699 1.31152 4278190080
0.26074201 0.049850099 1.31152 4278190080
0.24662299 0.073242202 1.27051 4278190080
0.252051 0.073242202 1.27051 4278190080
0.24902301 0.075670801 1.27051 4278190080
0.24655899 0.067382798 1.27051 4278190080
0.243164 0.067382798 1.2760201 4278190080
0.25305 0.067382798 1.27051 4278190080
0.25652799 0.0556641 1.31738 4278190080
0.25488299 0.0569175 1.31738 4278190080
0.44238299 0.0556321 1.1416 4278190080
0.44824201 0.054431599 1.1416 4278190080
0.45410201 0.053853199 1.1416 4278190080
0.459961 0.052707698 1.1416 4278190080
0.46582001 0.052133799 1.1416 4278190080
0.47744599 0.049804699 1.1416 4278190080
0.47167999 0.051235098 1.1416 4278190080
0.246841 0.073242202 1.27637 4278190080
0.25199801 0.073242202 1.27637 4278190080
0.24902301 0.073242202 1.28001 4278190080
0.37792999 0.059271701 1.1416 4278190080
0.383789 0.059088498 1.1416 4278190080
0.38964799 0.058965702 1.1416 4278190080
0.39550799 0.0585039 1.1416 4278190080
0.40136701 0.0586772 1.1416 4278190080
0.40722701 0.0574301 1.1416 4278190080
0.413086 0.057053 1.1416 4278190080
0.41894501 0.0573196 1.1416 4278190080
0.42480499 0.057043899 1.1416 4278190080
0.42480499 0.0556641 1.1472 4278190080
0.430664 0.0566305 1.1416 4278190080
0.430664 0.0556641 1.1459301 4278190080
0.44179901 0.0556641 1.1416 4278190080
0.43652299 0.055932499 1.1416 4278190080
0.43652299 0.0556641 1.14323 4278190080
0.242879 0.067382798 1.27637 4278190080
0.243164 0.067659497 1.27637 4278190080
0.253281 0.067382798 1.27637 4278190080
0.42480499 0.0556117 1.14746 4278190080
0.430664 0.055408198 1.14746 4278190080
0.43652299 0.0550722 1.14746 4278190080
0.44238299 0.0542158 1.14746 4278190080
0.44824201 0.053721402 1.14746 4278190080
0.45410201 0.052596901 1.14746 4278190080
0.459961 0.051816899 1.14746 4278190080
0.46582001 0.050872099 1.14746 4278190080
0.46582001 0.049804699 1.15283 4278190080
0.47219199 0.049804699 1.14746 4278190080
0.47167999 0.049948901 1.14746 4278190080
0.47167999 0.049804699 1.14828 4278190080
0.37792999 0.0589725 1.14746 4278190080
0.383789 0.058446199 1.14746 4278190080
0.38964799 0.058145799 1.14746 4278190080
0.39550799 0.057776701 1.14746 4278190080
0.40136701 0.057973001 1.14746 4278190080
0.40722701 0.057099201 1.14746 4278190080
0.413086 0.056798801 1.14746 4278190080
0.413086 0.0556641 1.1523 4278190080
0.424061 0.0556641 1.14746 4278190080
0.41894501 0.056142099 1.14746 4278190080
0.41894501 0.0556641 1.1508 4278190080
0.253483 0.067382798 1.28223 4278190080
0.24902301 0.071253203 1.28223 4278190080
0.290039 0.049804699 1.352 4278190080
0.413086 0.055450801 1.15332 4278190080
0.41894501 0.055378601 1.15332 4278190080
0.42480499 0.054725599 1.15332 4278190080
0.430664 0.0544766 1.15332 4278190080
0.43652299 0.054258801 1.15332 4278190080
0.44238299 0.053787 1.15332 4278190080
0.44824201 0.052613098 1.15332 4278190080
0.45410201 0.052225798 1.15332 4278190080
0.46533301 0.049804699 1.15332 4278190080
0.459961 0.050793301 1.15332 4278190080
0.459961 0.049804699 1.15913 4278190080
0.37792999 0.057909299 1.15332 4278190080
0.383789 0.057470899 1.15332 4278190080
0.38964799 0.057310801 1.15332 4278190080
0.39550799 0.057179701 1.15332 4278190080
0.40136701 0.056906901 1.15332 4278190080
0.40136701 0.0556641 1.15911 4278190080
0.41242501 0.0556641 1.15332 4278190080
0.40722701 0.057283498 1.15332 4278190080
0.40722701 0.0556641 1.15918 4278190080
0.29028499 0.049804699 1.35254 4278190080
0.459961 0.102539 0.87711698 4278190080
0.46582001 0.102539 0.87635601 4278190080
0.47167999 0.102539 0.87555498 4278190080
0.477539 0.102539 0.876809 4278190080
0.40136701 0.055645201 1.15918 4278190080
0.40722701 0.055663899 1.15918 4278190080
0.413086 0.055368301 1.15918 4278190080
0.41894501 0.054554801 1.15918 4278190080
0.42480499 0.054148301 1.15918 4278190080
0.430664 0.053587899 1.15918 4278190080
0.43652299 0.0530812 1.15918 4278190080
0.44238299 0.0529202 1.15918 4278190080
0.44824201 0.0518004 1.15918 4278190080
0.45989999 0.049804699 1.15918 4278190080
0.45410201 0.050696 1.15918 4278190080
0.45410201 0.049804699 1.16487 4278190080
0.459961 0.090820298 0.87732601 4278190080
0.46582001 0.090820298 0.87651497 4278190080
0.47167999 0.090820298 0.87582499 4278190080
0.459961 0.096679702 0.87723202 4278190080
0.46582001 0.096679702 0.87639397 4278190080
0.47167999 0.096679702 0.87563699 4278190080
0.477539 0.096679702 0.87673301 4278190080
0.37792999 0.057247199 1.15918 4278190080
0.383789 0.057360601 1.15918 4278190080
0.38964799 0.0566555 1.15918 4278190080
0.38964799 0.0556641 1.1632299 4278190080
0.40112001 0.0556641 1.15918 4278190080
0.39550799 0.056089401 1.15918 4278190080
0.39550799 0.0556641 1.1618 4278190080
0.38964799 0.055198599 1.16504 4278190080
0.39550799 0.0550537 1.16504 4278190080
0.40136701 0.054597601 1.16504 4278190080
0.40722701 0.0544618 1.16504 4278190080
0.413086 0.054920699 1.16504 4278190080
0.41894501 0.0541384 1.16504 4278190080
0.42480499 0.053065799 1.16504 4278190080
0.430664 0.0524377 1.16504 4278190080
0.43652299 0.052320398 1.16504 4278190080
0.44238299 0.051853299 1.16504 4278190080
0.45395201 0.049804699 1.16504 4278190080
0.44824201 0.050859001 1.16504 4278190080
0.42480499 0.102539 0.88330799 4278190080
0.430664 0.102539 0.88231897 4278190080
0.43652299 0.102539 0.88139701 4278190080
0.44238299 0.102539 0.88043803 4278190080
0.44824201 0.102539 0.87938398 4278190080
0.45517001 0.102539 0.87792999 4278190080
0.45410201 0.102539 0.878111 4278190080
0.47809899 0.102539 0.87792999 4278190080
0.459961 0.0849609 0.87775099 4278190080
0.46582001 0.0849609 0.87656498 4278190080
0.47167999 0.0849609 0.87667298 4278190080
0.459961 0.108398 0.87705898 4278190080
0.46582001 0.108398 0.876109 4278190080
0.47167999 0.108398 0.87532997 4278190080
0.477539 0.108398 0.87634498 4278190080
0.459961 0.114258 0.87700498 4278190080
0.46582001 0.114258 0.87599099 4278190080
0.47167999 0.114258 0.87527502 4278190080
0.477539 0.114258 0.87562603 4278190080
0.42480499 0.090820298 0.88326699 4278190080
0.430664 0.090820298 0.88209897 4278190080
0.43652299 0.090820298 0.88132501 4278190080
0.44238299 0.090820298 0.880449 4278190080
0.44824201 0.090820298 0.87931198 4278190080
0.456067 0.090820298 0.87792999 4278190080
0.45410201 0.090820298 0.87824303 4278190080
0.47700199 0.090820298 0.87792999 4278190080
0.477539 0.091562703 0.87792999 4278190080
0.477539 0.090820298 0.87813199 4278190080
0.42480499 0.096679702 0.883255 4278190080
0.430664 0.096679702 0.88222301 4278190080
0.43652299 0.096679702 0.88128299 4278190080
0.44238299 0.096679702 0.88043803 4278190080
0.44824201 0.096679702 0.87913901 4278190080
0.45488 0.096679702 0.87792999 4278190080
0.45410201 0.096679702 0.87804002 4278190080
0.47820199 0.096679702 0.87792999 4278190080
0.48339799 0.096679702 0.88369 4278190080
0.37792999 0.055278402 1.1709 4278190080
0.383789 0.0549042 1.1709 4278190080
0.38964799 0.054473501 1.1709 4278190080
0.39550799 0.053607699 1.1709 4278190080
0.40136701 0.0530577 1.1709 4278190080
0.40722701 0.052985001 1.1709 4278190080
0.413086 0.053673401 1.1709 4278190080
0.41894501 0.053242799 1.1709 4278190080
0.42480499 0.0527892 1.1709 4278190080
0.430664 0.052195501 1.1709 4278190080
0.43652299 0.0515729 1.1709 4278190080
0.44238299 0.051120199 1.1709 4278190080
0.449956 0.049804699 1.1709 4278190080
0.44824201 0.050110601 1.1709 4278190080
0.44824201 0.049804699 1.17223 4278190080
0.57714802 0.107695 0.88964802 4278190080
0.57714802 0.102539 0.894871 4278190080
0.413086 0.102539 0.88856798 4278190080
0.422416 0.102539 0.883789 4278190080
0.41894501 0.102539 0.88449699 4278190080
0.48280001 0.102539 0.883789 4278190080
0.48339799 0.105808 0.883789 4278190080
0.48339799 0.102539 0.88430399 4278190080
0.37792999 0.056115001 1.16504 4278190080
0.37792999 0.0556641 1.16826 4278190080
0.38485399 0.0556641 1.16504 4278190080
0.383789 0.055771898 1.16504 4278190080
0.383789 0.0556641 1.16579 4278190080
0.42480499 0.0849609 0.88282597 4278190080
0.430664 0.0849609 0.88146299 4278190080
0.43652299 0.0849609 0.87973601 4278190080
0.44238299 0.0849609 0.87849802 4278190080
0.44824201 0.0849609 0.87810802 4278190080
0.45857799 0.0849609 0.87792999 4278190080
0.45410201 0.0849609 0.87851602 4278190080
0.473582 0.0849609 0.87792999 4278190080
0.477539 0.0849609 0.87991899 4278190080
0.366211 0.0901682 1.03027 4278190080
0.37207001 0.087910898 1.03027 4278190080
0.37207001 0.0849609 1.03381 4278190080
0.57714802 0.108398 0.88853502 4278190080
0.366211 0.096303202 1.02441 4278190080
0.366211 0.090820298 1.02961 4278190080
0.37207001 0.093730003 1.02441 4278190080
0.37207001 0.090820298 1.02695 4278190080
0.42480499 0.108398 0.88339102 4278190080
0.430664 0.108398 0.88230503 4278190080
0.43652299 0.108398 0.88125002 4278190080
0.44238299 0.108398 0.88031 4278190080
0.44824201 0.108398 0.879278 4278190080
0.455199 0.108398 0.87792999 4278190080
0.45410201 0.108398 0.87812901 4278190080
0.478533 0.108398 0.87792999 4278190080
0.48339799 0.108398 0.88324201 4278190080
0.57714802 0.102413 0.89550799 4278190080
0.56542999 0.114258 0.88857597 4278190080
0.571289 0.11954 0.883789 4278190080
0.571289 0.114258 0.88753402 4278190080
0.57714802 0.114555 0.883789 4278190080
0.57714802 0.114258 0.88393301 4278190080
0.58300799 0.114258 0.88769299 4278190080
0.42480499 0.114258 0.88326699 4278190080
0.430664 0.114258 0.882218 4278190080
0.43652299 0.114258 0.88126999 4278190080
0.44238299 0.114258 0.88038802 4278190080
0.44824201 0.114258 0.87933898 4278190080
0.45545599 0.114258 0.87792999 4278190080
0.45410201 0.114258 0.87820399 4278190080
0.479449 0.114258 0.87792999 4278190080
0.48339799 0.114258 0.88158 4278190080
0.413086 0.090820298 0.888026 4278190080
0.421774 0.090820298 0.883789 4278190080
0.41894501 0.090820298 0.88428998 4278190080
0.48066199 0.090820298 0.883789 4278190080
0.48339799 0.096467301 0.883789 4278190080
0.48339799 0.090820298 0.88797402 4278190080
0.56542999 0.1082 0.89550799 4278190080
0.57604998 0.102539 0.89550799 4278190080
0.571289 0.10599 0.89550799 4278190080
0.57744199 0.102539 0.89550799 4278190080
0.57714802 0.102539 0.89603901 4278190080
0.58300799 0.107254 0.89550799 4278190080
0.42186299 0.096679702 0.883789 4278190080
0.41894501 0.096679702 0.884314 4278190080
0.48345399 0.096679702 0.883789 4278190080
0.48339799 0.097722098 0.883789 4278190080
0.56542999 0.113312 0.88964802 4278190080
0.56542999 0.108398 0.89525598 4278190080
0.57570899 0.108398 0.88964802 4278190080
0.571289 0.111788 0.88964802 4278190080
0.571289 0.108398 0.892766 4278190080
0.57768798 0.108398 0.88964802 4278190080
0.58300799 0.112214 0.88964802 4278190080
0.58300799 0.108398 0.89378101 4278190080
0.37792999 0.0545444 1.17676 4278190080
0.383789 0.053555399 1.17676 4278190080
0.38964799 0.0537933 1.17676 4278190080
0.39550799 0.052823201 1.17676 4278190080
0.40136701 0.051724002 1.17676 4278190080
0.40722701 0.052328601 1.17676 4278190080
0.413086 0.051931299 1.17676 4278190080
0.41894501 0.0519148 1.17676 4278190080
0.42480499 0.0519832 1.17676 4278190080
0.430664 0.0509605 1.17676 4278190080
0.430664 0.049804699 1.18214 4278190080
0.43652299 0.050258599 1.17676 4278190080
0.43652299 0.049804699 1.17953 4278190080
0.444105 0.049804699 1.17676 4278190080
0.44238299 0.050142501 1.17676 4278190080
0.44238299 0.049804699 1.1781501 4278190080
0.41280001 0.102539 0.88964802 4278190080
0.486013 0.102539 0.88964802 4278190080
0.35449201 0.090366803 1.03613 4278190080
0.36035201 0.086906798 1.03613 4278190080
0.36035201 0.0849609 1.0385 4278190080
0.36671099 0.0849609 1.03613 4278190080
0.366211 0.085134096 1.03613 4278190080
0.366211 0.0849609 1.03632 4278190080
0.366211 0.096679702 1.02408 4278190080
0.37207001 0.096679702 1.02184 4278190080
0.413086 0.0849609 0.88788599 4278190080
0.42091301 0.0849609 0.883789 4278190080
0.41894501 0.0849609 0.88429898 4278190080
0.47907299 0.0849609 0.883789 4278190080
0.35449201 0.095691897 1.03027 4278190080
0.35449201 0.090820298 1.0355 4278190080
0.36445501 0.090820298 1.03027 4278190080
0.36035201 0.092496999 1.03027 4278190080
0.36035201 0.090820298 1.03172 4278190080
0.37207001 0.108398 1.0177 4278190080
0.56542999 0.106325 0.90136701 4278190080
0.571289 0.105649 0.90136701 4278190080
0.57714802 0.104856 0.90136701 4278190080
0.58300799 0.10601 0.90136701 4278190080
0.58384502 0.114258 0.88964802 4278190080
0.413086 0.108398 0.88948703 4278190080
0.42285699 0.108398 0.883789 4278190080
0.41894501 0.108398 0.88459498 4278190080
0.48364699 0.108398 0.883789 4278190080
0.413086 0.114258 0.88843298 4278190080
0.42230299 0.114258 0.883789 4278190080
0.41894501 0.114258 0.88452798 4278190080
0.48467001 0.114258 0.883789 4278190080
0.55957001 0.114258 0.88960803 4278190080
0.37207001 0.114258 1.01797 4278190080
0.58367801 0.108398 0.89550799 4278190080
0.41249299 0.090820298 0.88964802 4278190080
0.413086 0.096675999 0.88964802 4278190080
0.48392501 0.090820298 0.88964802 4278190080
0.41308701 0.096679702 0.88964802 4278190080
0.413086 0.096686102 0.88964802 4278190080
0.413086 0.096679702 0.88964999 4278190080
0.486018 0.096679702 0.88964802 4278190080
0.411879 0.102539 0.89550799 4278190080
0.488493 0.102539 0.89550799 4278190080
0.48925799 0.102539 0.89759099 4278190080
0.37792999 0.053672399 1.18262 4278190080
0.383789 0.052510399 1.18262 4278190080
0.38964799 0.052400801 1.18262 4278190080
0.39550799 0.0516284 1.18262 4278190080
0.40136701 0.050842799 1.18262 4278190080
0.40722701 0.050826099 1.18262 4278190080
0.40722701 0.049804699 1.18568 4278190080
0.413086 0.050726701 1.18262 4278190080
0.41894501 0.051101901 1.18262 4278190080
0.41894501 0.049804699 1.18648 4278190080
0.428193 0.049804699 1.18262 4278190080
0.42480499 0.049998801 1.18262 4278190080
0.42480499 0.049804699 1.18344 4278190080
0.35449201 0.096679702 1.0292701 4278190080
0.36541501 0.096679702 1.02441 4278190080
0.36035201 0.100632 1.02441 4278190080
0.36035201 0.096679702 1.02657 4278190080
0.36035201 0.102539 1.02337 4278190080
0.366211 0.102539 1.02096 4278190080
0.37302199 0.102539 1.01855 4278190080
0.37207001 0.10411 1.01855 4278190080
0.37207001 0.102539 1.01888 4278190080
0.34277299 0.0893998 1.04199 4278190080
0.34863299 0.087644801 1.04199 4278190080
0.34863299 0.0849609 1.04641 4278190080
0.35589701 0.0849609 1.04199 4278190080
0.35449201 0.085721001 1.04199 4278190080
0.35449201 0.0849609 1.04295 4278190080
0.34277299 0.095221803 1.03613 4278190080
0.34277299 0.090820298 1.03995 4278190080
0.35245499 0.090820298 1.03613 4278190080
0.34863299 0.092021599 1.03613 4278190080
0.34863299 0.090820298 1.0371799 4278190080
0.56542999 0.106426 0.90722698 4278190080
0.571289 0.105764 0.90722698 4278190080
0.57714802 0.106132 0.90722698 4278190080
0.58300799 0.106663 0.90722698 4278190080
0.41245899 0.0849609 0.88964802 4278190080
0.48100999 0.0849609 0.88964802 4278190080
0.48339799 0.089630596 0.88964802 4278190080
0.48339799 0.0849609 0.89484 4278190080
0.58605498 0.114258 0.89550799 4278190080
0.58886701 0.119388 0.89550799 4278190080
0.58886701 0.114258 0.90104699 4278190080
0.36035201 0.108398 1.0221699 4278190080
0.36959699 0.108398 1.01855 4278190080
0.366211 0.108398 1.01977 4278190080
0.58527601 0.108398 0.90136701 4278190080
0.58886701 0.114027 0.90136701 4278190080
0.36035201 0.114258 1.02233 4278190080
0.370276 0.114258 1.01855 4278190080
0.366211 0.114258 1.01989 4278190080
0.37207001 0.117199 1.01855 4278190080
0.411235 0.090820298 0.89550799 4278190080
0.48538399 0.090820298 0.89550799 4278190080
0.41282901 0.114258 0.88964802 4278190080
0.413086 0.119965 0.88964802 4278190080
0.487198 0.114258 0.88964802 4278190080
0.48925799 0.119868 0.88964802 4278190080
0.48925799 0.114258 0.89362502 4278190080
0.54199201 0.118715 0.88964802 4278190080
0.54199201 0.114258 0.89390701 4278190080
0.54785198 0.117225 0.88964802 4278190080
0.54785198 0.114258 0.89224899 4278190080
0.55938703 0.114258 0.88964802 4278190080
0.553711 0.115706 0.88964802 4278190080
0.553711 0.114258 0.89093399 4278190080
0.413055 0.108398 0.88964802 4278190080
0.486065 0.108398 0.88964802 4278190080
0.55957001 0.114222 0.88964802 4278190080
0.411383 0.102539 0.90136701 4278190080
0.49077299 0.102539 0.90136701 4278190080
0.553711 0.107748 0.90136701 4278190080
0.55957001 0.107188 0.90136701 4278190080
0.411598 0.096679702 0.89550799 4278190080
0.48796999 0.096679702 0.89550799 4278190080
0.37792999 0.052485701 1.18848 4278190080
0.383789 0.0518157 1.18848 4278190080
0.38964799 0.050548699 1.18848 4278190080
0.38964799 0.049804699 1.19336 4278190080
0.39550799 0.0510455 1.18848 4278190080
0.39550799 0.049804699 1.19297 4278190080
0.403036 0.049804699 1.18848 4278190080
0.40136701 0.050217502 1.18848 4278190080
0.40136701 0.049804699 1.19068 4278190080
0.41110399 0.049804699 1.18848 4278190080
0.415849 0.049804699 1.18848 4278190080
0.413086 0.0502965 1.18848 4278190080
0.413086 0.049804699 1.1897399 4278190080
0.56542999 0.107714 0.913086 4278190080
0.571289 0.10729 0.913086 4278190080
0.57714802 0.107222 0.913086 4278190080
0.58300799 0.107467 0.913086 4278190080
0.339661 0.090820298 1.04199 4278190080
0.336914 0.092801496 1.04199 4278190080
0.336914 0.090820298 1.04399 4278190080
0.34863299 0.102539 1.0282201 4278190080
0.35776699 0.102539 1.02441 4278190080
0.35449201 0.102539 1.0257601 4278190080
0.34277299 0.096679702 1.03449 4278190080
0.35189599 0.096679702 1.03027 4278190080
0.34863299 0.0989208 1.03027 4278190080
0.34863299 0.096679702 1.03158 4278190080
0.58593899 0.108398 0.90722698 4278190080
0.58886701 0.111003 0.90722698 4278190080
0.58902901 0.114258 0.90136701 4278190080
0.336914 0.088194698 1.04785 4278190080
0.336914 0.0849609 1.05221 4278190080
0.34562299 0.0849609 1.04785 4278190080
0.34277299 0.085782401 1.04785 4278190080
0.34277299 0.0849609 1.04877 4278190080
0.41037399 0.0849609 0.89550799 4278190080
0.483652 0.0849609 0.89550799 4278190080
0.34277299 0.108398 1.0295399 4278190080
0.34863299 0.108398 1.02679 4278190080
0.354718 0.108398 1.02441 4278190080
0.35449201 0.108398 1.0245 4278190080
0.40987301 0.090820298 0.90136701 4278190080
0.48673099 0.090820298 0.90136701 4278190080
0.34277299 0.114258 1.02997 4278190080
0.34863299 0.114258 1.0269099 4278190080
0.35533199 0.114258 1.02441 4278190080
0.35449201 0.114258 1.02476 4278190080
0.410649 0.102539 0.90722698 4278190080
0.491606 0.102539 0.90722698 4278190080
0.48925799 0.102539 0.910218 4278190080
0.54199201 0.108024 0.90722698 4278190080
0.54785198 0.107842 0.90722698 4278190080
0.553711 0.107352 0.90722698 4278190080
0.55957001 0.10681 0.90722698 4278190080
0.41208899 0.114258 0.89550799 4278190080
0.49081501 0.114258 0.89550799 4278190080
0.49511701 0.119325 0.89550799 4278190080
0.51269501 0.119957 0.89550799 4278190080
0.51855499 0.118836 0.89550799 4278190080
0.51855499 0.114258 0.90112299 4278190080
0.524414 0.117349 0.89550799 4278190080
0.524414 0.114258 0.89916599 4278190080
0.53027302 0.116045 0.89550799 4278190080
0.53027302 0.114258 0.89751297 4278190080
0.537314 0.114258 0.89550799 4278190080
0.53613299 0.114638 0.89550799 4278190080
0.53613299 0.114258 0.89592099 4278190080
0.412126 0.108398 0.89550799 4278190080
0.48831901 0.108398 0.89550799 4278190080
0.48925799 0.111635 0.89550799 4278190080
0.48925799 0.108398 0.89744401 4278190080
0.54199201 0.11317 0.89550799 4278190080
0.54785198 0.112263 0.89550799 4278190080
0.553711 0.11086 0.89550799 4278190080
0.553711 0.108398 0.89891499 4278190080
0.56474 0.108398 0.89550799 4278190080
0.55957001 0.109799 0.89550799 4278190080
0.55957001 0.108398 0.89737397 4278190080
0.56542999 0.107993 0.91894501 4278190080
0.571289 0.108082 0.91894501 4278190080
0.57714802 0.107853 0.91894501 4278190080
0.585141 0.108398 0.913086 4278190080
0.58300799 0.108398 0.91852498 4278190080
0.58886701 0.110151 0.913086 4278190080
0.37792999 0.050883699 1.19434 4278190080
0.37792999 0.049804699 1.19877 4278190080
0.38891801 0.049804699 1.19434 4278190080
0.383789 0.050756302 1.19434 4278190080
0.41096601 0.096679702 0.90136701 4278190080
0.48871499 0.096679702 0.90136701 4278190080
0.48925799 0.098594099 0.90136701 4278190080
0.59124303 0.114258 0.90722698 4278190080
0.32519501 0.095970899 1.04785 4278190080
0.33249399 0.090820298 1.04785 4278190080
0.33105499 0.091779701 1.04785 4278190080
0.33105499 0.090820298 1.04881 4278190080
0.336914 0.102539 1.03416 4278190080
0.34437701 0.102539 1.03027 4278190080
0.34277299 0.105531 1.03027 4278190080
0.34277299 0.102539 1.03109 4278190080
0.33985701 0.096679702 1.03613 4278190080
0.336914 0.099306099 1.03613 4278190080
0.336914 0.096679702 1.03769 4278190080
0.33507001 0.0849609 1.05371 4278190080
0.33105499 0.087047502 1.05371 4278190080
0.33105499 0.0849609 1.0565701 4278190080
0.40925601 0.0849609 0.90136701 4278190080
0.48544699 0.0849609 0.90136701 4278190080
0.40849599 0.090820298 0.90722698 4278190080
0.48753399 0.090820298 0.90722698 4278190080
0.33105499 0.108398 1.03596 4278190080
0.34143201 0.108398 1.03027 4278190080
0.336914 0.108398 1.03282 4278190080
0.56542999 0.0849609 0.99190998 4278190080
0.571289 0.0849609 0.99163002 4278190080
0.57714802 0.0849609 0.99080998 4278190080
0.58300799 0.0849609 0.99107701 4278190080
0.58886701 0.0849609 0.99164999 4278190080
0.59472698 0.0849609 0.99218798 4278190080
0.600586 0.0849609 0.99292803 4278190080
0.60644501 0.0849609 0.99364197 4278190080
0.61230499 0.0849609 0.99468499 4278190080
0.34218201 0.114258 1.03027 4278190080
0.336914 0.114258 1.03303 4278190080
0.34277299 0.116315 1.03027 4278190080
0.56542999 0.10813 0.92480499 4278190080
0.409693 0.102539 0.913086 4278190080
0.40722701 0.102539 0.91854203 4278190080
0.48743299 0.102539 0.913086 4278190080
0.48925799 0.107188 0.913086 4278190080
0.54785198 0.108177 0.913086 4278190080
0.553711 0.107938 0.913086 4278190080
0.55957001 0.107547 0.913086 4278190080
0.41168499 0.114258 0.90136701 4278190080
0.493651 0.114258 0.90136701 4278190080
0.49511701 0.116163 0.90136701 4278190080
0.50097698 0.118235 0.90136701 4278190080
0.506836 0.117651 0.90136701 4278190080
0.506836 0.114258 0.906681 4278190080
0.51807302 0.114258 0.90136701 4278190080
0.51269501 0.116251 0.90136701 4278190080
0.51269501 0.114258 0.90450603 4278190080
0.571289 0.108398 0.92026299 4278190080
0.58206999 0.108398 0.91894501 4278190080
0.57714802 0.108398 0.92205697 4278190080
0.58300799 0.108509 0.91894501 4278190080
0.58886701 0.110888 0.91894501 4278190080
0.59254098 0.114258 0.913086 4278190080
0.382341 0.049804699 1.2002 4278190080
0.384442 0.049804699 1.2002 4278190080
0.383789 0.049940001 1.2002 4278190080
0.383789 0.049804699 1.20052 4278190080
0.40955901 0.096679702 0.90722698 4278190080
0.488446 0.096679702 0.90722698 4278190080
0.48925799 0.098258302 0.90722698 4278190080
0.319336 0.0941156 1.05371 4278190080
0.319336 0.090820298 1.05764 4278190080
0.326487 0.090820298 1.05371 4278190080
0.32519501 0.0920204 1.05371 4278190080
0.32519501 0.090820298 1.05503 4278190080
0.41155899 0.108398 0.90136701 4278190080
0.49180201 0.108398 0.90136701 4278190080
0.51855499 0.114164 0.90136701 4278190080
0.524414 0.113331 0.90136701 4278190080
0.53027302 0.11268 0.90136701 4278190080
0.53613299 0.110675 0.90136701 4278190080
0.54199201 0.109123 0.90136701 4278190080
0.54199201 0.108398 0.90322 4278190080
0.54854298 0.108398 0.90136701 4278190080
0.54785198 0.10861 0.90136701 4278190080
0.54785198 0.108398 0.90193701 4278190080
0.32519501 0.096679702 1.0470001 4278190080
0.33145499 0.096679702 1.04199 4278190080
0.33105499 0.097076699 1.04199 4278190080
0.33105499 0.096679702 1.04224 4278190080
0.333646 0.102539 1.03613 4278190080
0.33105499 0.107812 1.03613 4278190080
0.33105499 0.102539 1.03765 4278190080
0.319336 0.089450203 1.05957 4278190080
0.32819301 0.0849609 1.05957 4278190080
0.32519501 0.087215804 1.05957 4278190080
0.32519501 0.0849609 1.06285 4278190080
0.61415398 0.0849609 0.99511701 4278190080
0.61230499 0.088559203 0.99511701 4278190080
0.618164 0.0849609 0.99603498 4278190080
0.62402302 0.0849609 0.99779999 4278190080
0.62988299 0.0849609 0.99939501 4278190080
0.33081901 0.108398 1.03613 4278190080
0.32519501 0.108398 1.04006 4278190080
0.33105499 0.111035 1.03613 4278190080
0.40816 0.0849609 0.90722698 4278190080
0.40722701 0.0849609 0.912709 4278190080
0.48609701 0.0849609 0.90722698 4278190080
0.48339799 0.0849609 0.91280401 4278190080
0.407639 0.090820298 0.913086 4278190080
0.40722701 0.090820298 0.914886 4278190080
0.48458701 0.090820298 0.913086 4278190080
0.48339799 0.090820298 0.915043 4278190080
0.32519501 0.114258 1.04028 4278190080
0.331431 0.114258 1.03613 4278190080
0.33105499 0.114258 1.03633 4278190080
0.590626 0.114258 0.91894501 4278190080
0.56542999 0.090820298 0.99180901 4278190080
0.571289 0.090820298 0.991552 4278190080
0.57714802 0.090820298 0.99138403 4278190080
0.58300799 0.090820298 0.99180502 4278190080
0.58886701 0.090820298 0.99225098 4278190080
0.59472698 0.090820298 0.99274403 4278190080
