# .PCD v0.7 - Point Cloud Data file format
VERSION 0.7
FIELDS x y z rgb
SIZE 4 4 4 4
TYPE F F F U
COUNT 1 1 1 1
WIDTH 1182
HEIGHT 1
VIEWPOINT 0 0 0 1 0 0 0
POINTS 1182
DATA ascii
0.290039 0.39941299 1.04199 4278190080
0.29589799 0.40123701 1.04199 4278190080
0.320225 0.39550799 1.04199 4278190080
0.319336 0.398895 1.04199 4278190080
0.319336 0.39550799 1.04383 4278190080
0.35484001 0.39550799 1.04199 4278190080
0.35449201 0.398305 1.04199 4278190080
0.0322266 0.38890299 1.08887 4278190080
0.0380859 0.38949201 1.08887 4278190080
0.108398 0.38927999 1.08887 4278190080
0.114258 0.389189 1.08887 4278190080
0.120117 0.389052 1.08887 4278190080
0.12597699 0.38871899 1.08887 4278190080
0.131836 0.38840699 1.08887 4278190080
0.137695 0.38805601 1.08887 4278190080
0.143555 0.38787001 1.08887 4278190080
0.149414 0.387844 1.08887 4278190080
0.15527301 0.38759699 1.08887 4278190080
0.16113301 0.38740599 1.08887 4278190080
0.16699199 0.38746801 1.08887 4278190080
0.17285199 0.387281 1.08887 4278190080
0.178711 0.387182 1.08887 4278190080
0.18457 0.3876 1.08887 4278190080
0.0029296901 0.37792999 1.18009 4278190080
0.0087890597 0.37792999 1.18231 4278190080
0.31321299 0.37207001 1.10059 4278190080
0.31347701 0.37301001 1.10059 4278190080
0.31347701 0.37207001 1.10098 4278190080
0.336914 0.37207001 1.10333 4278190080
-0.0849609 0.38963601 1.04199 4278190080
-0.0791016 0.38925201 1.04199 4278190080
-0.073242202 0.389148 1.04199 4278190080
-0.067382798 0.388843 1.04199 4278190080
-0.0615234 0.38892701 1.04199 4278190080
-0.0556641 0.389489 1.04199 4278190080
0.0029296901 0.39772201 1.04199 4278190080
0.0087890597 0.397084 1.04199 4278190080
0.0146484 0.396451 1.04199 4278190080
0.020507799 0.39592099 1.04199 4278190080
0.020507799 0.39550799 1.04416 4278190080
0.026367201 0.39563701 1.04199 4278190080
0.026367201 0.39550799 1.04299 4278190080
0.0322266 0.395511 1.04199 4278190080
0.0322266 0.39550799 1.04203 4278190080
0.0380859 0.39585701 1.04199 4278190080
0.0380859 0.39550799 1.0449899 4278190080
0.043945301 0.396027 1.04199 4278190080
0.043945301 0.39550799 1.04638 4278190080
0.049804699 0.3962 1.04199 4278190080
0.0556641 0.39602801 1.04199 4278190080
0.0556641 0.39550799 1.04717 4278190080
0.0615234 0.396328 1.04199 4278190080
0.0615234 0.39550799 1.0461 4278190080
0.067382798 0.39675301 1.04199 4278190080
0.073242202 0.39682901 1.04199 4278190080
0.0791016 0.396505 1.04199 4278190080
0.0849609 0.396514 1.04199 4278190080
0.090820298 0.39654899 1.04199 4278190080
0.096679702 0.396889 1.04199 4278190080
0.102539 0.396689 1.04199 4278190080
0.108398 0.39625001 1.04199 4278190080
0.114258 0.39637199 1.04199 4278190080
0.114258 0.39550799 1.04758 4278190080
0.120117 0.39615199 1.04199 4278190080
0.120117 0.39550799 1.0459501 4278190080
0.130227 0.39550799 1.04199 4278190080
0.12597699 0.396027 1.04199 4278190080
0.12597699 0.39550799 1.04504 4278190080
0.0087890597 0.37207001 1.22949 4278190080
0.0163633 0.37207001 1.22363 4278190080
0.0146484 0.37207001 1.22641 4278190080
0.19043 0.38780501 1.09473 4278190080
0.196289 0.38801101 1.09473 4278190080
0.20214801 0.38841999 1.09473 4278190080
0.20800801 0.388785 1.09473 4278190080
0.31155601 0.383789 1.09473 4278190080
0.31347701 0.383789 1.09925 4278190080
0.34189501 0.383789 1.09473 4278190080
-0.131836 0.39355001 1.00684 4278190080
-0.12597699 0.393002 1.00684 4278190080
-0.120117 0.391956 1.00684 4278190080
-0.114258 0.39109299 1.00684 4278190080
-0.108398 0.390526 1.00684 4278190080
-0.102539 0.39018801 1.00684 4278190080
-0.102539 0.38964799 1.01003 4278190080
-0.096679702 0.390499 1.00684 4278190080
-0.090820298 0.39111599 1.00684 4278190080
-0.0849609 0.39165401 1.00684 4278190080
-0.0791016 0.39188299 1.00684 4278190080
-0.073242202 0.39290601 1.00684 4278190080
-0.067382798 0.39282501 1.00684 4278190080
-0.0615234 0.39284599 1.00684 4278190080
-0.0556641 0.393482 1.00684 4278190080
-0.049804699 0.39436501 1.00684 4278190080
0.21568801 0.38964799 1.08301 4278190080
0.21386699 0.38964799 1.08671 4278190080
0.21972699 0.390596 1.08301 4278190080
0.225586 0.39194801 1.08301 4278190080
0.231445 0.39274299 1.08301 4278190080
0.237305 0.39445201 1.08301 4278190080
0.307897 0.38964799 1.08301 4278190080
0.30761701 0.39035201 1.08301 4278190080
0.34649301 0.38964799 1.08301 4278190080
0.31197 0.37792999 1.09473 4278190080
0.31347701 0.37792999 1.09798 4278190080
0.340422 0.37792999 1.09473 4278190080
0.0029296901 0.39463899 1.07129 4278190080
0.0087890597 0.39463401 1.07129 4278190080
0.0146484 0.393574 1.07129 4278190080
0.020507799 0.39317799 1.07129 4278190080
0.026367201 0.39208999 1.07129 4278190080
0.0322266 0.391698 1.07129 4278190080
0.0380859 0.391938 1.07129 4278190080
0.043945301 0.39252499 1.07129 4278190080
0.049804699 0.39295101 1.07129 4278190080
0.0556641 0.39312601 1.07129 4278190080
0.0615234 0.39306399 1.07129 4278190080
0.067382798 0.393179 1.07129 4278190080
0.073242202 0.393132 1.07129 4278190080
0.0791016 0.39310199 1.07129 4278190080
0.0849609 0.39315501 1.07129 4278190080
0.090820298 0.39270401 1.07129 4278190080
0.096679702 0.39246601 1.07129 4278190080
0.102539 0.39251399 1.07129 4278190080
0.108398 0.39231101 1.07129 4278190080
0.114258 0.39183199 1.07129 4278190080
0.120117 0.39180499 1.07129 4278190080
0.12597699 0.39163399 1.07129 4278190080
0.131836 0.39126599 1.07129 4278190080
0.137695 0.39084801 1.07129 4278190080
0.143555 0.390367 1.07129 4278190080
0.143555 0.38964799 1.07531 4278190080
0.153023 0.38964799 1.07129 4278190080
0.149414 0.38995099 1.07129 4278190080
0.149414 0.38964799 1.07302 4278190080
0.32344899 0.366211 1.1123 4278190080
0.326056 0.366211 1.1123 4278190080
0.32519501 0.36875701 1.1123 4278190080
0.32519501 0.366211 1.11307 4278190080
-0.149414 0.400897 0.977539 4278190080
-0.137794 0.39550799 0.977539 4278190080
-0.143555 0.39819399 0.977539 4278190080
-0.068729803 0.39550799 0.977539 4278190080
-0.067382798 0.395733 0.977539 4278190080
-0.067382798 0.39550799 0.97958398 4278190080
-0.0615234 0.39646199 0.977539 4278190080
-0.0556641 0.396294 0.977539 4278190080
-0.049804699 0.39731199 0.977539 4278190080
-0.043945301 0.39797899 0.977539 4278190080
-0.0380859 0.39899701 0.977539 4278190080
-0.0322266 0.39996001 0.977539 4278190080
-0.026367201 0.40000299 0.977539 4278190080
-0.020507799 0.40092 0.977539 4278190080
-0.0146484 0.40127 0.977539 4278190080
-0.0087890597 0.40111899 0.977539 4278190080
0.25895 0.39550799 1.04785 4278190080
0.26074201 0.39636299 1.04785 4278190080
0.26660201 0.39756799 1.04785 4278190080
0.272461 0.39935699 1.04785 4278190080
0.27832001 0.39954999 1.04785 4278190080
0.28417999 0.39968801 1.04785 4278190080
0.290039 0.39997399 1.04785 4278190080
0.29589799 0.40062699 1.04785 4278190080
0.317157 0.39550799 1.04785 4278190080
0.35670501 0.39550799 1.04785 4278190080
0.0093280096 0.37792999 1.18262 4278190080
0.0146484 0.37792999 1.1862299 4278190080
0.026367201 0.38926101 1.09473 4278190080
0.0322266 0.38818899 1.09473 4278190080
0.0380859 0.38860801 1.09473 4278190080
0.043945301 0.388937 1.09473 4278190080
0.049804699 0.38909599 1.09473 4278190080
0.0556641 0.38953701 1.09473 4278190080
0.067382798 0.38958099 1.09473 4278190080
0.0791016 0.389525 1.09473 4278190080
0.0849609 0.38956201 1.09473 4278190080
0.090820298 0.38919899 1.09473 4278190080
0.096679702 0.38907701 1.09473 4278190080
0.102539 0.38926199 1.09473 4278190080
0.108398 0.388475 1.09473 4278190080
0.114258 0.388367 1.09473 4278190080
0.120117 0.38836399 1.09473 4278190080
0.12597699 0.38791099 1.09473 4278190080
0.131836 0.38759801 1.09473 4278190080
0.137695 0.38731101 1.09473 4278190080
0.143555 0.387086 1.09473 4278190080
0.149414 0.38703799 1.09473 4278190080
0.15527301 0.387023 1.09473 4278190080
0.16113301 0.38671601 1.09473 4278190080
0.16699199 0.38698599 1.09473 4278190080
0.17285199 0.38699901 1.09473 4278190080
0.178711 0.38699201 1.09473 4278190080
0.18457 0.38736999 1.09473 4278190080
-0.073242202 0.38941601 1.04785 4278190080
-0.067382798 0.388794 1.04785 4278190080
-0.0615234 0.38853201 1.04785 4278190080
-0.0556641 0.38930699 1.04785 4278190080
0.31764099 0.37207001 1.10645 4278190080
0.319336 0.37207001 1.10887 4278190080
0.32519501 0.37207001 1.1111 4278190080
0.334416 0.37207001 1.10645 4278190080
0.33105499 0.37207001 1.1094199 4278190080
0.0087808399 0.37207001 1.22949 4278190080
0.0029296901 0.37775999 1.22949 4278190080
0.0029296901 0.37207001 1.23129 4278190080
0.31496701 0.37792999 1.10059 4278190080
0.336914 0.37792999 1.10294 4278190080
0.0029296901 0.39711401 1.04785 4278190080
0.0087890597 0.39671099 1.04785 4278190080
0.016832899 0.39550799 1.04785 4278190080
0.0146484 0.39585701 1.04785 4278190080
0.0146484 0.39550799 1.05031 4278190080
0.047203101 0.39550799 1.04785 4278190080
0.053794499 0.39550799 1.04785 4278190080
0.049804699 0.39564499 1.04785 4278190080
0.049804699 0.39550799 1.04865 4278190080
0.065587997 0.39550799 1.04785 4278190080
0.067382798 0.39566499 1.04785 4278190080
0.067382798 0.39550799 1.04874 4278190080
0.073242202 0.39606401 1.04785 4278190080
0.073242202 0.39550799 1.05145 4278190080
0.0791016 0.39573601 1.04785 4278190080
0.0791016 0.39550799 1.04927 4278190080
0.0849609 0.39569601 1.04785 4278190080
0.0849609 0.39550799 1.04984 4278190080
0.090820298 0.39596501 1.04785 4278190080
0.090820298 0.39550799 1.05079 4278190080
0.096679702 0.39601001 1.04785 4278190080
0.096679702 0.39550799 1.05133 4278190080
0.102539 0.39611599 1.04785 4278190080
0.102539 0.39550799 1.05167 4278190080
0.110518 0.39550799 1.04785 4278190080
0.108398 0.395533 1.04785 4278190080
0.108398 0.39550799 1.04799 4278190080
0.0029296901 0.39413899 1.07715 4278190080
0.0087890597 0.393814 1.07715 4278190080
0.0146484 0.39311901 1.07715 4278190080
0.020507799 0.392257 1.07715 4278190080
0.026367201 0.39146501 1.07715 4278190080
0.0322266 0.39078701 1.07715 4278190080
0.0380859 0.39094701 1.07715 4278190080
0.043945301 0.39170501 1.07715 4278190080
0.049804699 0.39208701 1.07715 4278190080
0.0556641 0.39260399 1.07715 4278190080
0.0615234 0.39223501 1.07715 4278190080
0.067382798 0.39246199 1.07715 4278190080
0.073242202 0.39224899 1.07715 4278190080
0.0791016 0.39243901 1.07715 4278190080
0.0849609 0.39229 1.07715 4278190080
0.090820298 0.391449 1.07715 4278190080
0.096679702 0.39157799 1.07715 4278190080
0.102539 0.39148101 1.07715 4278190080
0.108398 0.39124599 1.07715 4278190080
0.114258 0.39117101 1.07715 4278190080
0.120117 0.39069799 1.07715 4278190080
0.12597699 0.39046499 1.07715 4278190080
0.12597699 0.38964799 1.08285 4278190080
0.131836 0.390205 1.07715 4278190080
0.131836 0.38964799 1.08026 4278190080
0.13891301 0.38964799 1.07715 4278190080
0.137695 0.38973501 1.07715 4278190080
0.137695 0.38964799 1.0776401 4278190080
0.19043 0.38769999 1.10059 4278190080
0.196289 0.38830599 1.10059 4278190080
0.20214801 0.38899001 1.10059 4278190080
0.31439 0.383789 1.10059 4278190080
0.31347701 0.385672 1.10059 4278190080
0.336914 0.383789 1.10285 4278190080
-0.131836 0.393803 1.0127 4278190080
-0.12597699 0.393273 1.0127 4278190080
-0.120117 0.39173299 1.0127 4278190080
-0.114258 0.39126301 1.0127 4278190080
-0.104637 0.38964799 1.0127 4278190080
-0.108398 0.39027199 1.0127 4278190080
-0.098346703 0.38964799 1.0127 4278190080
-0.102539 0.38964799 1.01607 4278190080
-0.096679702 0.38981 1.0127 4278190080
-0.096679702 0.38964799 1.01402 4278190080
-0.090820298 0.390791 1.0127 4278190080
-0.0849609 0.390522 1.0127 4278190080
-0.0791016 0.391821 1.0127 4278190080
-0.073242202 0.39230201 1.0127 4278190080
-0.067382798 0.392079 1.0127 4278190080
-0.0615234 0.391969 1.0127 4278190080
-0.0556641 0.39297199 1.0127 4278190080
-0.049804699 0.39384499 1.0127 4278190080
-0.043945301 0.39510301 1.0127 4278190080
0.213221 0.38964799 1.08887 4278190080
0.21386699 0.389918 1.08887 4278190080
0.21972699 0.391159 1.08887 4278190080
0.225586 0.39282 1.08887 4278190080
0.231445 0.39398101 1.08887 4278190080
0.237305 0.395219 1.08887 4278190080
0.30973399 0.38964799 1.08887 4278190080
0.34439299 0.38964799 1.08887 4278190080
0.34277299 0.38964799 1.09087 4278190080
0.0153321 0.37792999 1.18848 4278190080
0.25887001 0.39550799 1.05371 4278190080
0.26074201 0.39625001 1.05371 4278190080
0.26660201 0.39816201 1.05371 4278190080
0.272461 0.39982301 1.05371 4278190080
0.27832001 0.400217 1.05371 4278190080
0.28417999 0.400653 1.05371 4278190080
0.290039 0.400484 1.05371 4278190080
0.29589799 0.40123901 1.05371 4278190080
0.31378299 0.39550799 1.05371 4278190080
0.31347701 0.39653701 1.05371 4278190080
0.31347701 0.39550799 1.05422 4278190080
0.35734701 0.39550799 1.05371 4278190080
-0.149414 0.40105101 0.98339802 4278190080
-0.138686 0.39550799 0.98339802 4278190080
-0.143555 0.39821199 0.98339802 4278190080
-0.0640838 0.39550799 0.98339802 4278190080
-0.0615234 0.395825 0.98339802 4278190080
-0.0615234 0.39550799 0.98630899 4278190080
-0.0556641 0.39559799 0.98339802 4278190080
-0.0556641 0.39550799 0.98458898 4278190080
-0.049804699 0.396889 0.98339802 4278190080
-0.043945301 0.39755201 0.98339802 4278190080
-0.0380859 0.39856601 0.98339802 4278190080
-0.0322266 0.399479 0.98339802 4278190080
-0.026367201 0.39961401 0.98339802 4278190080
-0.020507799 0.40055999 0.98339802 4278190080
-0.0146484 0.400516 0.98339802 4278190080
-0.0087890597 0.40079999 0.98339802 4278190080
-0.0029296901 0.40131301 0.98339802 4278190080
0.026367201 0.38831601 1.10059 4278190080
0.0322266 0.38791201 1.10059 4278190080
0.0380859 0.38802299 1.10059 4278190080
0.043945301 0.388284 1.10059 4278190080
0.049804699 0.38846299 1.10059 4278190080
0.0556641 0.38907701 1.10059 4278190080
0.0615234 0.389263 1.10059 4278190080
0.067382798 0.38892099 1.10059 4278190080
0.073242202 0.38897499 1.10059 4278190080
0.0791016 0.38896599 1.10059 4278190080
0.0849609 0.388854 1.10059 4278190080
0.090820298 0.38830101 1.10059 4278190080
0.096679702 0.38850999 1.10059 4278190080
0.102539 0.38849401 1.10059 4278190080
0.108398 0.387683 1.10059 4278190080
0.114258 0.387593 1.10059 4278190080
0.120117 0.387162 1.10059 4278190080
0.12597699 0.38695401 1.10059 4278190080
0.131836 0.38662201 1.10059 4278190080
0.137695 0.386392 1.10059 4278190080
0.143555 0.38651699 1.10059 4278190080
0.149414 0.386222 1.10059 4278190080
0.15527301 0.38655499 1.10059 4278190080
0.16113301 0.386365 1.10059 4278190080
0.16699199 0.38612801 1.10059 4278190080
0.17285199 0.386792 1.10059 4278190080
0.178711 0.38682601 1.10059 4278190080
0.18457 0.38728601 1.10059 4278190080
-0.073242202 0.38950801 1.05371 4278190080
-0.067382798 0.389029 1.05371 4278190080
-0.0615234 0.388578 1.05371 4278190080
-0.0556641 0.38934299 1.05371 4278190080
0.31890801 0.37792999 1.10645 4278190080
0.319336 0.37792999 1.10719 4278190080
0.32519501 0.37792999 1.11088 4278190080
0.33401 0.37792999 1.10645 4278190080
0.33105499 0.37792999 1.10936 4278190080
0.0029296901 0.39656201 1.05371 4278190080
0.0029296901 0.39550799 1.05926 4278190080
0.0117105 0.39550799 1.05371 4278190080
0.0087890597 0.396014 1.05371 4278190080
0.0165598 0.37792999 1.19434 4278190080
0.19043 0.38821501 1.10645 4278190080
0.196289 0.38867 1.10645 4278190080
0.31850499 0.383789 1.10645 4278190080
0.319336 0.383789 1.10796 4278190080
0.33390599 0.383789 1.10645 4278190080
0.33105499 0.383789 1.1098 4278190080
0.0029296901 0.39388201 1.08301 4278190080
0.0087890597 0.39342701 1.08301 4278190080
0.0146484 0.39266199 1.08301 4278190080
0.020507799 0.39190099 1.08301 4278190080
0.026367201 0.390816 1.08301 4278190080
0.0322266 0.38974801 1.08301 4278190080
0.0322266 0.38964799 1.08366 4278190080
0.0380859 0.39021701 1.08301 4278190080
0.0380859 0.38964799 1.08743 4278190080
0.043945301 0.39073601 1.08301 4278190080
0.049804699 0.391067 1.08301 4278190080
0.0556641 0.39190999 1.08301 4278190080
0.0615234 0.391601 1.08301 4278190080
0.067382798 0.391653 1.08301 4278190080
0.073242202 0.39146399 1.08301 4278190080
0.0791016 0.39161599 1.08301 4278190080
0.0849609 0.39133099 1.08301 4278190080
0.090820298 0.39052501 1.08301 4278190080
0.096679702 0.39065599 1.08301 4278190080
0.102539 0.39076301 1.08301 4278190080
0.108398 0.39008299 1.08301 4278190080
0.108398 0.38964799 1.0857199 4278190080
0.114258 0.38992801 1.08301 4278190080
0.114258 0.38964799 1.0848401 4278190080
0.124991 0.38964799 1.08301 4278190080
0.120117 0.38975501 1.08301 4278190080
0.120117 0.38964799 1.08372 4278190080
0.210554 0.38964799 1.09473 4278190080
0.20800801 0.38964799 1.09947 4278190080
0.21386699 0.39116701 1.09473 4278190080
0.21972699 0.391886 1.09473 4278190080
0.225586 0.393675 1.09473 4278190080
0.231445 0.39526799 1.09473 4278190080
0.31104901 0.38964799 1.09473 4278190080
0.34022 0.38964799 1.09473 4278190080
-0.131836 0.394582 1.01855 4278190080
-0.12597699 0.39337301 1.01855 4278190080
-0.120117 0.39242801 1.01855 4278190080
-0.114258 0.39189699 1.01855 4278190080
-0.108398 0.39071801 1.01855 4278190080
-0.100474 0.38964799 1.01855 4278190080
-0.102539 0.38990799 1.01855 4278190080
-0.093507499 0.38964799 1.01855 4278190080
-0.090820298 0.39010799 1.01855 4278190080
-0.090820298 0.38964799 1.02099 4278190080
-0.0849609 0.38978201 1.01855 4278190080
-0.0849609 0.38964799 1.02001 4278190080
-0.0791016 0.39076799 1.01855 4278190080
-0.073242202 0.39151701 1.01855 4278190080
-0.067382798 0.39137 1.01855 4278190080
-0.0615234 0.39131299 1.01855 4278190080
-0.0556641 0.392409 1.01855 4278190080
-0.049804699 0.39352599 1.01855 4278190080
-0.043945301 0.39451599 1.01855 4278190080
0.026367201 0.38799 1.10645 4278190080
0.0322266 0.38771501 1.10645 4278190080
0.0380859 0.387748 1.10645 4278190080
0.043945301 0.38789999 1.10645 4278190080
0.049804699 0.38818201 1.10645 4278190080
0.0556641 0.388715 1.10645 4278190080
0.0615234 0.388969 1.10645 4278190080
0.067382798 0.38840601 1.10645 4278190080
0.073242202 0.38845199 1.10645 4278190080
0.0791016 0.38831699 1.10645 4278190080
0.0849609 0.38815999 1.10645 4278190080
0.090820298 0.387539 1.10645 4278190080
0.096679702 0.38773799 1.10645 4278190080
0.102539 0.387694 1.10645 4278190080
0.108398 0.38702199 1.10645 4278190080
0.114258 0.386857 1.10645 4278190080
0.120117 0.386619 1.10645 4278190080
0.12597699 0.38597199 1.10645 4278190080
0.131836 0.386114 1.10645 4278190080
0.137695 0.38560399 1.10645 4278190080
0.143555 0.385726 1.10645 4278190080
0.149414 0.38584399 1.10645 4278190080
0.15527301 0.385921 1.10645 4278190080
0.16113301 0.38636401 1.10645 4278190080
0.16699199 0.38608801 1.10645 4278190080
0.17285199 0.386457 1.10645 4278190080
0.178711 0.387126 1.10645 4278190080
0.18457 0.387532 1.10645 4278190080
-0.067382798 0.38937101 1.05957 4278190080
-0.0615234 0.38891101 1.05957 4278190080
-0.0556641 0.389029 1.05957 4278190080
0.25635001 0.39550799 1.05957 4278190080
0.25488299 0.39550799 1.06164 4278190080
0.26074201 0.39744401 1.05957 4278190080
0.26660201 0.39897099 1.05957 4278190080
0.272461 0.400556 1.05957 4278190080
0.27832001 0.40124401 1.05957 4278190080
0.30957201 0.39550799 1.05957 4278190080
0.30761701 0.40057099 1.05957 4278190080
0.30761701 0.39550799 1.0621901 4278190080
0.357243 0.39550799 1.05957 4278190080
-0.149414 0.40120399 0.98925799 4278190080
-0.137959 0.39550799 0.98925799 4278190080
-0.143555 0.398139 0.98925799 4278190080
-0.053673498 0.39550799 0.98925799 4278190080
-0.049804699 0.396106 0.98925799 4278190080
-0.043945301 0.39726701 0.98925799 4278190080
-0.0380859 0.39795199 0.98925799 4278190080
-0.0322266 0.39873701 0.98925799 4278190080
-0.026367201 0.39939299 0.98925799 4278190080
-0.020507799 0.400143 0.98925799 4278190080
-0.0146484 0.40024301 0.98925799 4278190080
-0.0087890597 0.40044099 0.98925799 4278190080
-0.0029296901 0.401169 0.98925799 4278190080
0.0175172 0.37792999 1.2002 4278190080
0.32519501 0.38163999 1.1123 4278190080
0.0046385499 0.39550799 1.05957 4278190080
0.0098853102 0.39550799 1.05957 4278190080
0.0087890597 0.39565599 1.05957 4278190080
0.0087890597 0.39550799 1.06353 4278190080
0.0029296901 0.393657 1.08887 4278190080
0.0087890597 0.393015 1.08887 4278190080
0.0146484 0.39230701 1.08887 4278190080
0.020507799 0.391509 1.08887 4278190080
0.0273507 0.38964799 1.08887 4278190080
0.026367201 0.389781 1.08887 4278190080
0.026367201 0.38964799 1.09032 4278190080
0.0414492 0.38964799 1.08887 4278190080
0.043945301 0.389788 1.08887 4278190080
0.043945301 0.38964799 1.08957 4278190080
0.049804699 0.389936 1.08887 4278190080
0.049804699 0.38964799 1.0904 4278190080
0.0556641 0.390443 1.08887 4278190080
0.0556641 0.38964799 1.09376 4278190080
0.0615234 0.39099199 1.08887 4278190080
0.067382798 0.39069101 1.08887 4278190080
0.067382798 0.38964799 1.09428 4278190080
0.073242202 0.39075601 1.08887 4278190080
0.0791016 0.39049301 1.08887 4278190080
0.0791016 0.38964799 1.09366 4278190080
0.0849609 0.390571 1.08887 4278190080
0.0849609 0.38964799 1.09407 4278190080
0.090820298 0.389869 1.08887 4278190080
0.090820298 0.38964799 1.09048 4278190080
0.096679702 0.38976699 1.08887 4278190080
0.096679702 0.38964799 1.08964 4278190080
0.102702 0.38964799 1.08887 4278190080
0.102539 0.38966301 1.08887 4278190080
0.102539 0.38964799 1.0890501 4278190080
0.19043 0.38868901 1.1123 4278190080
0.32425201 0.383789 1.1123 4278190080
0.32580301 0.383789 1.1123 4278190080
0.32519501 0.383789 1.11274 4278190080
0.026367201 0.388192 1.1123 4278190080
0.0322266 0.388073 1.1123 4278190080
0.0380859 0.38811499 1.1123 4278190080
0.043945301 0.387963 1.1123 4278190080
0.049804699 0.388096 1.1123 4278190080
0.0556641 0.38819399 1.1123 4278190080
0.0615234 0.388477 1.1123 4278190080
0.067382798 0.38805699 1.1123 4278190080
0.073242202 0.38820499 1.1123 4278190080
0.0791016 0.38779801 1.1123 4278190080
0.0849609 0.38773099 1.1123 4278190080
0.090820298 0.387288 1.1123 4278190080
0.096679702 0.38712999 1.1123 4278190080
0.102539 0.38705301 1.1123 4278190080
0.108398 0.38671899 1.1123 4278190080
0.114258 0.38613999 1.1123 4278190080
0.120117 0.38608399 1.1123 4278190080
0.12597699 0.385905 1.1123 4278190080
0.131836 0.38589799 1.1123 4278190080
0.137695 0.385306 1.1123 4278190080
0.143555 0.38539499 1.1123 4278190080
0.149414 0.38560501 1.1123 4278190080
0.15527301 0.38619101 1.1123 4278190080
0.16113301 0.38630199 1.1123 4278190080
0.16699199 0.386482 1.1123 4278190080
0.17285199 0.38675299 1.1123 4278190080
0.178711 0.38718101 1.1123 4278190080
0.18457 0.38823599 1.1123 4278190080
0.206598 0.38964799 1.10059 4278190080
0.20214801 0.38964799 1.10386 4278190080
0.20800801 0.38999501 1.10059 4278190080
0.21386699 0.39234099 1.10059 4278190080
0.21972699 0.393334 1.10059 4278190080
0.225586 0.394584 1.10059 4278190080
0.31240299 0.38964799 1.10059 4278190080
0.31347701 0.38964799 1.10229 4278190080
-0.0615234 0.389265 1.06543 4278190080
-0.0556641 0.38949299 1.06543 4278190080
-0.12597699 0.39392799 1.02441 4278190080
-0.120117 0.392979 1.02441 4278190080
-0.114258 0.39251801 1.02441 4278190080
-0.108398 0.39149401 1.02441 4278190080
-0.099713199 0.38964799 1.02441 4278190080
-0.102539 0.39015701 1.02441 4278190080
-0.096679702 0.38964799 1.0276901 4278190080
-0.083438203 0.38964799 1.02441 4278190080
-0.0791016 0.390569 1.02441 4278190080
-0.073242202 0.390567 1.02441 4278190080
-0.073242202 0.38964799 1.02915 4278190080
-0.067382798 0.39035901 1.02441 4278190080
-0.0615234 0.390674 1.02441 4278190080
-0.0556641 0.391835 1.02441 4278190080
-0.049804699 0.39298001 1.02441 4278190080
-0.043945301 0.39413601 1.02441 4278190080
-0.0380859 0.39547399 1.02441 4278190080
0.0178944 0.37792999 1.20605 4278190080
0.25186399 0.39550799 1.06543 4278190080
0.24902301 0.39550799 1.06964 4278190080
0.25488299 0.3973 1.06543 4278190080
0.26074201 0.398745 1.06543 4278190080
0.26660201 0.400626 1.06543 4278190080
0.30652899 0.39550799 1.06543 4278190080
0.30175799 0.40051901 1.06543 4278190080
0.35646099 0.39550799 1.06543 4278190080
0.0029296901 0.393473 1.09473 4278190080
0.0087890597 0.39260101 1.09473 4278190080
0.0146484 0.391866 1.09473 4278190080
0.0251431 0.38964799 1.09473 4278190080
0.020507799 0.390845 1.09473 4278190080
0.057645202 0.38964799 1.09473 4278190080
0.065950498 0.38964799 1.09473 4278190080
0.0615234 0.38991001 1.09473 4278190080
0.0615234 0.38964799 1.09679 4278190080
0.068403102 0.38964799 1.09473 4278190080
0.077369198 0.38964799 1.09473 4278190080
0.073242202 0.39004299 1.09473 4278190080
0.073242202 0.38964799 1.09644 4278190080
-0.13837799 0.39550799 0.99511701 4278190080
-0.143555 0.398314 0.99511701 4278190080
-0.137695 0.39550799 0.99873197 4278190080
-0.051623199 0.39550799 0.99511701 4278190080
-0.049804699 0.39581099 0.99511701 4278190080
-0.049804699 0.39550799 0.99794698 4278190080
-0.043945301 0.39659199 0.99511701 4278190080
-0.0380859 0.397771 0.99511701 4278190080
-0.0322266 0.39844999 0.99511701 4278190080
-0.026367201 0.398684 0.99511701 4278190080
-0.020507799 0.399865 0.99511701 4278190080
-0.0146484 0.399872 0.99511701 4278190080
-0.0087890597 0.400031 0.99511701 4278190080
-0.0029296901 0.40074199 0.99511701 4278190080
0.026367201 0.38905501 1.11816 4278190080
0.0322266 0.38898501 1.11816 4278190080
0.0380859 0.38858399 1.11816 4278190080
0.043945301 0.38875699 1.11816 4278190080
0.049804699 0.388484 1.11816 4278190080
0.0556641 0.38837001 1.11816 4278190080
0.0615234 0.38830301 1.11816 4278190080
0.067382798 0.3881 1.11816 4278190080
0.073242202 0.388024 1.11816 4278190080
0.0791016 0.38781899 1.11816 4278190080
0.0849609 0.387743 1.11816 4278190080
0.090820298 0.387205 1.11816 4278190080
0.096679702 0.38663501 1.11816 4278190080
0.102539 0.38678801 1.11816 4278190080
0.108398 0.38650399 1.11816 4278190080
0.114258 0.385885 1.11816 4278190080
0.120117 0.385692 1.11816 4278190080
0.12597699 0.385764 1.11816 4278190080
0.131836 0.38579199 1.11816 4278190080
0.137695 0.385479 1.11816 4278190080
0.143555 0.38554001 1.11816 4278190080
0.149414 0.385611 1.11816 4278190080
0.15527301 0.386531 1.11816 4278190080
0.16113301 0.386949 1.11816 4278190080
0.16699199 0.38676101 1.11816 4278190080
0.17285199 0.387384 1.11816 4278190080
0.178711 0.387916 1.11816 4278190080
0.18457 0.38878599 1.11816 4278190080
0.200169 0.38964799 1.10645 4278190080
0.196289 0.38964799 1.11057 4278190080
0.20214801 0.39045501 1.10645 4278190080
0.20800801 0.39199001 1.10645 4278190080
0.21386699 0.39350301 1.10645 4278190080
0.21972699 0.39523301 1.10645 4278190080
0.31684601 0.38964799 1.10645 4278190080
0.319336 0.38964799 1.11172 4278190080
0.33105499 0.38964799 1.10946 4278190080
0.0179027 0.37792999 1.21191 4278190080
-0.12597699 0.39467099 1.03027 4278190080
-0.120117 0.393648 1.03027 4278190080
-0.114258 0.39297399 1.03027 4278190080
-0.108398 0.39217699 1.03027 4278190080
-0.102539 0.39061701 1.03027 4278190080
-0.094574504 0.38964799 1.03027 4278190080
-0.096679702 0.39008901 1.03027 4278190080
-0.090820298 0.38964799 1.03373 4278190080
-0.081610203 0.38964799 1.03027 4278190080
-0.0745873 0.38964799 1.03027 4278190080
-0.0791016 0.39034 1.03027 4278190080
-0.0791016 0.38964799 1.03429 4278190080
-0.069279999 0.38964799 1.03027 4278190080
-0.067382798 0.38976401 1.03027 4278190080
-0.067382798 0.38964799 1.03118 4278190080
-0.0615234 0.38998801 1.03027 4278190080
-0.0615234 0.38964799 1.03392 4278190080
-0.0556641 0.39105999 1.03027 4278190080
-0.049804699 0.392535 1.03027 4278190080
-0.043945301 0.39359099 1.03027 4278190080
-0.0380859 0.39481601 1.03027 4278190080
-0.0322266 0.39534801 1.03027 4278190080
0.247748 0.39550799 1.07129 4278190080
0.24902301 0.39620101 1.07129 4278190080
0.25488299 0.39924401 1.07129 4278190080
0.26074201 0.40061 1.07129 4278190080
0.30581599 0.39550799 1.07129 4278190080
0.30175799 0.40091601 1.07129 4278190080
0.35616601 0.39550799 1.07129 4278190080
0.35449201 0.39550799 1.07292 4278190080
0.0029296901 0.39314401 1.10059 4278190080
0.0087890597 0.39256901 1.10059 4278190080
0.0146484 0.39190999 1.10059 4278190080
0.022386201 0.38964799 1.10059 4278190080
0.020507799 0.390223 1.10059 4278190080
0.0380859 0.38913199 1.12402 4278190080
0.049804699 0.38920999 1.12402 4278190080
0.0556641 0.38881299 1.12402 4278190080
0.0615234 0.388522 1.12402 4278190080
0.067382798 0.38818899 1.12402 4278190080
0.073242202 0.38827601 1.12402 4278190080
0.0791016 0.38787299 1.12402 4278190080
0.0849609 0.387784 1.12402 4278190080
0.090820298 0.387292 1.12402 4278190080
0.096679702 0.386839 1.12402 4278190080
0.102539 0.38675699 1.12402 4278190080
0.108398 0.386666 1.12402 4278190080
0.114258 0.38609099 1.12402 4278190080
0.120117 0.385941 1.12402 4278190080
0.12597699 0.38598999 1.12402 4278190080
0.131836 0.386078 1.12402 4278190080
0.137695 0.38588601 1.12402 4278190080
0.143555 0.386363 1.12402 4278190080
0.149414 0.386511 1.12402 4278190080
0.15527301 0.38712999 1.12402 4278190080
0.16113301 0.387514 1.12402 4278190080
0.16699199 0.38720599 1.12402 4278190080
0.17285199 0.38846701 1.12402 4278190080
0.178711 0.389088 1.12402 4278190080
-0.143555 0.39928901 1.00098 4278190080
-0.137088 0.39550799 1.00098 4278190080
-0.137695 0.39578801 1.00098 4278190080
-0.0482357 0.39550799 1.00098 4278190080
-0.043945301 0.396359 1.00098 4278190080
-0.0380859 0.39756599 1.00098 4278190080
-0.0322266 0.397771 1.00098 4278190080
-0.026367201 0.398247 1.00098 4278190080
-0.020507799 0.39923501 1.00098 4278190080
-0.0146484 0.39926401 1.00098 4278190080
-0.0087890597 0.39965299 1.00098 4278190080
-0.0029296901 0.400166 1.00098 4278190080
0.194521 0.38964799 1.1123 4278190080
0.19043 0.38964799 1.11563 4278190080
0.196289 0.39042801 1.1123 4278190080
0.20214801 0.391707 1.1123 4278190080
0.20800801 0.393134 1.1123 4278190080
0.21386699 0.39484 1.1123 4278190080
0.31992701 0.38964799 1.1123 4278190080
0.319336 0.39025 1.1123 4278190080
0.32741001 0.38964799 1.1123 4278190080
0.32519501 0.38964799 1.11429 4278190080
0.0174798 0.37792999 1.21777 4278190080
0.0029296901 0.39352101 1.10645 4278190080
0.0087890597 0.392836 1.10645 4278190080
0.0146484 0.39201799 1.10645 4278190080
0.021314399 0.38964799 1.10645 4278190080
0.020507799 0.38994399 1.10645 4278190080
0.24413601 0.39550799 1.07715 4278190080
0.243164 0.39550799 1.08023 4278190080
0.24902301 0.39865401 1.07715 4278190080
0.25488299 0.40061399 1.07715 4278190080
0.30623901 0.39550799 1.07715 4278190080
0.35142601 0.39550799 1.07715 4278190080
0.34863299 0.39550799 1.07956 4278190080
0.0556641 0.38943201 1.12988 4278190080
0.0615234 0.38901401 1.12988 4278190080
0.067382798 0.38872099 1.12988 4278190080
0.073242202 0.38865399 1.12988 4278190080
0.0791016 0.38870099 1.12988 4278190080
0.0849609 0.388082 1.12988 4278190080
0.090820298 0.38774601 1.12988 4278190080
0.096679702 0.387151 1.12988 4278190080
0.102539 0.386978 1.12988 4278190080
0.108398 0.38684899 1.12988 4278190080
0.114258 0.386637 1.12988 4278190080
0.120117 0.38633499 1.12988 4278190080
0.12597699 0.38675201 1.12988 4278190080
0.131836 0.386976 1.12988 4278190080
0.137695 0.386722 1.12988 4278190080
0.143555 0.387288 1.12988 4278190080
0.149414 0.387593 1.12988 4278190080
0.15527301 0.38810399 1.12988 4278190080
0.16113301 0.38848799 1.12988 4278190080
0.16699199 0.38872501 1.12988 4278190080
-0.12597699 0.395096 1.03613 4278190080
-0.120117 0.39466199 1.03613 4278190080
-0.114258 0.39389801 1.03613 4278190080
-0.108398 0.392831 1.03613 4278190080
-0.102539 0.39185399 1.03613 4278190080
-0.096679702 0.391471 1.03613 4278190080
-0.0885804 0.38964799 1.03613 4278190080
-0.090820298 0.39017001 1.03613 4278190080
-0.0604004 0.38964799 1.03613 4278190080
-0.0556641 0.39056501 1.03613 4278190080
-0.0556641 0.38964799 1.04091 4278190080
-0.049804699 0.392189 1.03613 4278190080
-0.043945301 0.39339399 1.03613 4278190080
-0.0380859 0.394465 1.03613 4278190080
-0.0322266 0.39511201 1.03613 4278190080
0.19043 0.390865 1.11816 4278190080
0.196289 0.39253801 1.11816 4278190080
0.20214801 0.394288 1.11816 4278190080
0.20800801 0.394999 1.11816 4278190080
-0.143555 0.399762 1.00684 4278190080
-0.136309 0.39550799 1.00684 4278190080
-0.137695 0.396308 1.00684 4278190080
-0.0446916 0.39550799 1.00684 4278190080
-0.043945301 0.39568999 1.00684 4278190080
-0.043945301 0.39550799 1.00842 4278190080
-0.0380859 0.39705199 1.00684 4278190080
-0.0322266 0.39718699 1.00684 4278190080
-0.026367201 0.39801201 1.00684 4278190080
-0.020507799 0.39879 1.00684 4278190080
-0.0146484 0.398821 1.00684 4278190080
-0.0087890597 0.399232 1.00684 4278190080
-0.0029296901 0.39999101 1.00684 4278190080
0.0029296901 0.37792999 1.22945 4278190080
0.0087890597 0.37792999 1.2280101 4278190080
0.0150197 0.37792999 1.22363 4278190080
0.0146484 0.38080099 1.22363 4278190080
0.0146484 0.37792999 1.22431 4278190080
0.0029296901 0.394032 1.1123 4278190080
0.0087890597 0.39340901 1.1123 4278190080
0.0146484 0.392488 1.1123 4278190080
0.023253299 0.38964799 1.1123 4278190080
0.020507799 0.39090201 1.1123 4278190080
0.0849609 0.389588 1.13574 4278190080
0.090820298 0.38843599 1.13574 4278190080
0.096679702 0.38807699 1.13574 4278190080
0.102539 0.387869 1.13574 4278190080
0.108398 0.38743299 1.13574 4278190080
0.114258 0.38755599 1.13574 4278190080
0.120117 0.387319 1.13574 4278190080
0.12597699 0.38765499 1.13574 4278190080
0.131836 0.387876 1.13574 4278190080
0.137695 0.38769999 1.13574 4278190080
0.143555 0.38849401 1.13574 4278190080
0.149414 0.38838801 1.13574 4278190080
0.15527301 0.38943401 1.13574 4278190080
0.24196699 0.39550799 1.08301 4278190080
0.243164 0.39621401 1.08301 4278190080
0.24902301 0.40129101 1.08301 4278190080
0.25488299 0.401077 1.08301 4278190080
0.306402 0.39550799 1.08301 4278190080
0.30761701 0.39550799 1.0869401 4278190080
0.34597501 0.39550799 1.08301 4278190080
-0.114258 0.39439601 1.04199 4278190080
-0.108398 0.39368299 1.04199 4278190080
-0.102539 0.39302599 1.04199 4278190080
-0.096679702 0.39186299 1.04199 4278190080
-0.085073702 0.38964799 1.04199 4278190080
-0.090820298 0.39060301 1.04199 4278190080
-0.0849609 0.38964799 1.0420901 4278190080
-0.0791016 0.38964799 1.0449899 4278190080
-0.055149801 0.38964799 1.04199 4278190080
-0.049804699 0.39138299 1.04199 4278190080
-0.043945301 0.39300001 1.04199 4278190080
-0.0380859 0.39426801 1.04199 4278190080
-0.0322266 0.39482599 1.04199 4278190080
-0.026367201 0.39535001 1.04199 4278190080
0.19043 0.392735 1.12402 4278190080
0.196289 0.39471999 1.12402 4278190080
-0.143555 0.40092999 1.0127 4278190080
-0.134993 0.39550799 1.0127 4278190080
-0.137695 0.39722401 1.0127 4278190080
-0.0422149 0.39550799 1.0127 4278190080
-0.0380859 0.39659899 1.0127 4278190080
-0.0322266 0.39662501 1.0127 4278190080
-0.026367201 0.39775699 1.0127 4278190080
-0.020507799 0.39832899 1.0127 4278190080
-0.0146484 0.398325 1.0127 4278190080
-0.0087890597 0.39881 1.0127 4278190080
-0.0029296901 0.399324 1.0127 4278190080
0.0029296901 0.39541799 1.11816 4278190080
0.0087890597 0.394007 1.11816 4278190080
0.0146484 0.39330301 1.11816 4278190080
0.0250376 0.38964799 1.11816 4278190080
0.020507799 0.39149401 1.11816 4278190080
0.026367201 0.38964799 1.11989 4278190080
0.0322266 0.38964799 1.12131 4278190080
0.043945301 0.38964799 1.12348 4278190080
0.18767101 0.38964799 1.11816 4278190080
0.18457 0.38964799 1.12304 4278190080
0.0029296901 0.39550799 1.11838 4278190080
0.0087890597 0.39550799 1.12191 4278190080
0.096679702 0.38934901 1.1416 4278190080
0.102539 0.38875899 1.1416 4278190080
0.108398 0.388697 1.1416 4278190080
0.114258 0.38870901 1.1416 4278190080
0.120117 0.388336 1.1416 4278190080
0.12597699 0.38935599 1.1416 4278190080
0.131836 0.389339 1.1416 4278190080
0.137695 0.38912201 1.1416 4278190080
-0.0380859 0.37792999 1.16438 4278190080
-0.0322266 0.37792999 1.16503 4278190080
0.238254 0.39550799 1.08887 4278190080
0.237305 0.39550799 1.0907201 4278190080
0.243164 0.39956099 1.08887 4278190080
0.308314 0.39550799 1.08887 4278190080
0.30761701 0.39726299 1.08887 4278190080
0.34277299 0.39862201 1.08887 4278190080
0.34277299 0.39550799 1.09014 4278190080
-0.108398 0.39506301 1.04785 4278190080
-0.102539 0.39421701 1.04785 4278190080
-0.096679702 0.39284301 1.04785 4278190080
-0.090820298 0.39176399 1.04785 4278190080
-0.0849609 0.39067501 1.04785 4278190080
-0.0753894 0.38964799 1.04785 4278190080
-0.0791016 0.390295 1.04785 4278190080
-0.054485202 0.38964799 1.04785 4278190080
-0.049804699 0.39117599 1.04785 4278190080
-0.043945301 0.39279801 1.04785 4278190080
-0.0380859 0.39404601 1.04785 4278190080
-0.0322266 0.394447 1.04785 4278190080
-0.026367201 0.39500901 1.04785 4278190080
-0.020507799 0.39507899 1.04785 4278190080
0.0029296901 0.39858401 1.12402 4278190080
0.011667 0.39550799 1.12402 4278190080
0.0087890597 0.39675999 1.12402 4278190080
0.0146484 0.39550799 1.12609 4278190080
0.0146484 0.39445999 1.12402 4278190080
0.020507799 0.39259201 1.12402 4278190080
0.026367201 0.391047 1.12402 4278190080
0.035224799 0.38964799 1.12402 4278190080
0.0322266 0.390342 1.12402 4278190080
0.043142799 0.38964799 1.12402 4278190080
0.0380859 0.38964799 1.12529 4278190080
0.044948801 0.38964799 1.12402 4278190080
0.043945301 0.38977101 1.12402 4278190080
0.049804699 0.38964799 1.12629 4278190080
0.17285199 0.38964799 1.12915 4278190080
0.183163 0.38964799 1.12402 4278190080
0.178711 0.38964799 1.1259201 4278190080
0.18457 0.389981 1.12402 4278190080
-0.0403216 0.37792999 1.16504 4278190080
-0.043945301 0.38277999 1.16504 4278190080
-0.043945301 0.37792999 1.16603 4278190080
-0.0322018 0.37792999 1.16504 4278190080
-0.026367201 0.37792999 1.16717 4278190080
-0.020507799 0.37792999 1.16992 4278190080
-0.133204 0.39550799 1.01855 4278190080
-0.137695 0.398238 1.01855 4278190080
-0.131836 0.39550799 1.02362 4278190080
-0.039798301 0.39550799 1.01855 4278190080
-0.0380859 0.395987 1.01855 4278190080
-0.0380859 0.39550799 1.02399 4278190080
-0.0322266 0.39636001 1.01855 4278190080
-0.026367201 0.39693901 1.01855 4278190080
-0.020507799 0.397843 1.01855 4278190080
-0.0146484 0.39771301 1.01855 4278190080
-0.0087890597 0.39852101 1.01855 4278190080
-0.0029296901 0.39889199 1.01855 4278190080
0.232949 0.39550799 1.09473 4278190080
0.231445 0.39550799 1.09582 4278190080
0.237305 0.39858001 1.09473 4278190080
0.31002501 0.39550799 1.09473 4278190080
0.339683 0.39550799 1.09473 4278190080
0.020507799 0.394227 1.12988 4278190080
0.026367201 0.392656 1.12988 4278190080
0.0322266 0.39215899 1.12988 4278190080
0.0380859 0.39214599 1.12988 4278190080
0.043945301 0.391572 1.12988 4278190080
0.0542778 0.38964799 1.12988 4278190080
0.049804699 0.39065 1.12988 4278190080
0.0556641 0.38964799 1.13064 4278190080
0.0615234 0.38964799 1.13477 4278190080
0.067382798 0.38964799 1.13376 4278190080
0.073242202 0.38964799 1.13494 4278190080
0.0791016 0.38964799 1.13419 4278190080
0.16113301 0.38964799 1.13555 4278190080
0.172001 0.38964799 1.12988 4278190080
0.16699199 0.38964799 1.13256 4278190080
0.17285199 0.38996899 1.12988 4278190080
0.178711 0.39176801 1.12988 4278190080
0.18457 0.39307901 1.12988 4278190080
0.0087890597 0.39976799 1.12988 4278190080
0.018154901 0.39550799 1.12988 4278190080
0.0146484 0.39811301 1.12988 4278190080
0.020507799 0.39550799 1.13176 4278190080
0.189555 0.39550799 1.12988 4278190080
0.18457 0.39550799 1.13529 4278190080
-0.102539 0.39526999 1.05371 4278190080
-0.096679702 0.39380199 1.05371 4278190080
-0.090820298 0.39247501 1.05371 4278190080
-0.0849609 0.39181101 1.05371 4278190080
-0.0738004 0.38964799 1.05371 4278190080
-0.0791016 0.39126599 1.05371 4278190080
-0.073242202 0.38964799 1.0545 4278190080
-0.054588001 0.38964799 1.05371 4278190080
-0.049804699 0.39114699 1.05371 4278190080
-0.043945301 0.39272699 1.05371 4278190080
-0.0380859 0.393803 1.05371 4278190080
-0.0322266 0.39404699 1.05371 4278190080
-0.026367201 0.39478201 1.05371 4278190080
-0.020507799 0.39482099 1.05371 4278190080
-0.0483968 0.37792999 1.1709 4278190080
-0.049804699 0.382999 1.1709 4278190080
-0.049804699 0.37792999 1.17232 4278190080
-0.018273899 0.37792999 1.1709 4278190080
-0.0146484 0.37792999 1.17258 4278190080
-0.0087890597 0.37792999 1.17545 4278190080
-0.137695 0.398983 1.02441 4278190080
-0.131336 0.39550799 1.02441 4278190080
-0.131836 0.395711 1.02441 4278190080
-0.037514798 0.39550799 1.02441 4278190080
-0.0322266 0.39581901 1.02441 4278190080
-0.0322266 0.39550799 1.02798 4278190080
-0.026367201 0.39607599 1.02441 4278190080
-0.020507799 0.397542 1.02441 4278190080
-0.0146484 0.397275 1.02441 4278190080
-0.0087890597 0.398146 1.02441 4278190080
-0.0029296901 0.39860901 1.02441 4278190080
0.228433 0.39550799 1.10059 4278190080
0.225586 0.39550799 1.10356 4278190080
0.231445 0.39875999 1.10059 4278190080
0.31121799 0.39550799 1.10059 4278190080
0.31347701 0.39550799 1.10357 4278190080
0.33764499 0.39550799 1.10059 4278190080
0.026367201 0.395322 1.13574 4278190080
0.0322266 0.394925 1.13574 4278190080
0.0380859 0.39445499 1.13574 4278190080
0.043945301 0.393399 1.13574 4278190080
0.049804699 0.393282 1.13574 4278190080
0.0556641 0.391619 1.13574 4278190080
0.0615234 0.38986999 1.13574 4278190080
0.067382798 0.39040601 1.13574 4278190080
0.073242202 0.38994801 1.13574 4278190080
0.084175304 0.38964799 1.13574 4278190080
0.0791016 0.390165 1.13574 4278190080
0.0849609 0.38964799 1.13594 4278190080
0.090820298 0.38964799 1.14057 4278190080
0.143555 0.38964799 1.1404099 4278190080
0.149414 0.38964799 1.14086 4278190080
0.160106 0.38964799 1.13574 4278190080
0.15527301 0.38964799 1.13651 4278190080
0.16113301 0.38973799 1.13574 4278190080
0.16699199 0.39170399 1.13574 4278190080
0.17285199 0.39219299 1.13574 4278190080
0.178711 0.39406499 1.13574 4278190080
0.0260482 0.39550799 1.13574 4278190080
0.020507799 0.39801601 1.13574 4278190080
0.026367201 0.39550799 1.13595 4278190080
0.0322266 0.39550799 1.1365401 4278190080
0.0380859 0.39550799 1.13675 4278190080
0.043945301 0.39550799 1.13852 4278190080
0.049804699 0.39550799 1.1387399 4278190080
0.183992 0.39550799 1.13574 4278190080
0.178711 0.39550799 1.13937 4278190080
0.18457 0.39569199 1.13574 4278190080
-0.052553099 0.37792999 1.17676 4278190080
-0.0556641 0.37792999 1.18099 4278190080
-0.0052193399 0.37792999 1.17676 4278190080
-0.0029296901 0.38276801 1.17676 4278190080
-0.0029296901 0.37792999 1.17761 4278190080
-0.096679702 0.394721 1.05957 4278190080
-0.090820298 0.39362901 1.05957 4278190080
-0.0849609 0.39284199 1.05957 4278190080
-0.0791016 0.39191201 1.05957 4278190080
-0.068718798 0.38964799 1.05957 4278190080
-0.073242202 0.39079601 1.05957 4278190080
-0.067382798 0.38964799 1.0607899 4278190080
-0.053290501 0.38964799 1.05957 4278190080
-0.049804699 0.390861 1.05957 4278190080
-0.043945301 0.39241499 1.05957 4278190080
-0.0380859 0.39340001 1.05957 4278190080
-0.0322266 0.393837 1.05957 4278190080
-0.026367201 0.39447001 1.05957 4278190080
-0.020507799 0.39432701 1.05957 4278190080
0.0029296901 0.383789 1.17862 4278190080
0.0087890597 0.383789 1.18093 4278190080
-0.043945301 0.383789 1.16483 4278190080
-0.0380859 0.383789 1.1630501 4278190080
-0.0322266 0.383789 1.16403 4278190080
0.220991 0.39550799 1.10645 4278190080
0.21972699 0.39550799 1.10765 4278190080
0.225586 0.39831901 1.10645 4278190080
0.31565899 0.39550799 1.10645 4278190080
0.31347701 0.399268 1.10645 4278190080
0.33105499 0.39550799 1.10946 4278190080
-0.137695 0.40002099 1.03027 4278190080
-0.128969 0.39550799 1.03027 4278190080
-0.131836 0.396631 1.03027 4278190080
-0.030288501 0.39550799 1.03027 4278190080
-0.026367201 0.39595199 1.03027 4278190080
-0.020507799 0.39721999 1.03027 4278190080
-0.0146484 0.396485 1.03027 4278190080
-0.0087890597 0.39772701 1.03027 4278190080
-0.0029296901 0.39807001 1.03027 4278190080
0.020507799 0.399975 1.1416 4278190080
0.026367201 0.39989999 1.1416 4278190080
0.0380859 0.39954799 1.1416 4278190080
0.043945301 0.39789999 1.1416 4278190080
0.054660399 0.39550799 1.1416 4278190080
0.049804699 0.397733 1.1416 4278190080
0.0556641 0.39550799 1.14205 4278190080
0.0615234 0.39550799 1.14388 4278190080
0.067382798 0.39550799 1.14438 4278190080
0.073242202 0.39550799 1.14433 4278190080
0.0791016 0.39550799 1.14616 4278190080
0.0849609 0.39550799 1.14711 4278190080
0.12597699 0.39550799 1.14741 4278190080
0.131836 0.39550799 1.14627 4278190080
0.137695 0.39550799 1.14591 4278190080
0.143555 0.39550799 1.14626 4278190080
0.149414 0.39550799 1.14731 4278190080
0.15527301 0.39550799 1.14412 4278190080
0.16113301 0.39550799 1.14369 4278190080
0.16699199 0.39550799 1.14323 4278190080
0.17401899 0.39550799 1.1416 4278190080
0.17285199 0.39550799 1.14193 4278190080
0.178711 0.396559 1.1416 4278190080
0.18457 0.39946201 1.1416 4278190080
0.0556641 0.394871 1.1416 4278190080
0.0615234 0.393273 1.1416 4278190080
0.067382798 0.392667 1.1416 4278190080
0.073242202 0.392831 1.1416 4278190080
0.0791016 0.39223 1.1416 4278190080
0.0849609 0.39179599 1.1416 4278190080
0.093593203 0.38964799 1.1416 4278190080
0.090820298 0.39010301 1.1416 4278190080
0.096679702 0.38964799 1.1431201 4278190080
0.102539 0.38964799 1.1440099 4278190080
0.108398 0.38964799 1.1447099 4278190080
0.114258 0.38964799 1.1460201 4278190080
0.120117 0.38964799 1.14494 4278190080
0.12597699 0.38964799 1.14281 4278190080
0.131836 0.38964799 1.14258 4278190080
0.141625 0.38964799 1.1416 4278190080
0.137695 0.38964799 1.1431201 4278190080
0.143555 0.39023101 1.1416 4278190080
0.149414 0.390551 1.1416 4278190080
0.15527301 0.392656 1.1416 4278190080
0.16113301 0.39373299 1.1416 4278190080
0.16699199 0.394227 1.1416 4278190080
0.17285199 0.395298 1.1416 4278190080
-0.057043999 0.37792999 1.18262 4278190080
-0.0615234 0.37792999 1.18791 4278190080
0.011199 0.383789 1.18262 4278190080
0.0146484 0.383789 1.1856 4278190080
-0.0441246 0.383789 1.16504 4278190080
-0.049804699 0.383789 1.1706899 4278190080
-0.0292398 0.383789 1.16504 4278190080
-0.026367201 0.38753799 1.16504 4278190080
-0.026367201 0.383789 1.16603 4278190080
-0.020507799 0.383789 1.16886 4278190080
-0.090820298 0.39502501 1.06543 4278190080
-0.0849609 0.39399999 1.06543 4278190080
-0.0791016 0.39275199 1.06543 4278190080
-0.073242202 0.392028 1.06543 4278190080
-0.062978096 0.38964799 1.06543 4278190080
-0.067382798 0.39092401 1.06543 4278190080
-0.0615234 0.38964799 1.0680701 4278190080
-0.054935701 0.38964799 1.06543 4278190080
-0.0556641 0.38964799 1.0664999 4278190080
-0.049804699 0.391087 1.06543 4278190080
-0.043945301 0.39202899 1.06543 4278190080
-0.0380859 0.39306799 1.06543 4278190080
-0.0322266 0.393785 1.06543 4278190080
-0.026367201 0.394474 1.06543 4278190080
-0.020507799 0.39425901 1.06543 4278190080
-0.0146484 0.39506701 1.06543 4278190080
-0.0029296901 0.39548099 1.06543 4278190080
0.216151 0.39550799 1.1123 4278190080
0.21386699 0.39550799 1.11374 4278190080
0.21972699 0.39812699 1.1123 4278190080
0.225586 0.40072301 1.1123 4278190080
0.31749001 0.39550799 1.1123 4278190080
0.319336 0.39550799 1.1142401 4278190080
0.327988 0.39550799 1.1123 4278190080
0.32519501 0.39550799 1.11633 4278190080
-0.0380859 0.37207001 1.1649801 4278190080
0.090820298 0.39451501 1.14746 4278190080
0.096679702 0.39224699 1.14746 4278190080
0.102539 0.39271 1.14746 4278190080
0.108398 0.39155999 1.14746 4278190080
0.114258 0.390461 1.14746 4278190080
0.120117 0.39298499 1.14746 4278190080
0.049804699 0.40093699 1.14746 4278190080
0.0556641 0.400047 1.14746 4278190080
0.0615234 0.39829701 1.14746 4278190080
0.067382798 0.39772999 1.14746 4278190080
0.073242202 0.397551 1.14746 4278190080
0.0791016 0.39627901 1.14746 4278190080
0.086590797 0.39550799 1.14746 4278190080
0.0849609 0.395769 1.14746 4278190080
0.090820298 0.39550799 1.14817 4278190080
0.096679702 0.39550799 1.14966 4278190080
0.102539 0.39550799 1.15026 4278190080
0.108398 0.39550799 1.15004 4278190080
0.114258 0.39550799 1.1509 4278190080
0.125862 0.39550799 1.14746 4278190080
0.120117 0.39550799 1.1490901 4278190080
0.12597699 0.39552701 1.14746 4278190080
0.131836 0.39614299 1.14746 4278190080
0.137695 0.39661801 1.14746 4278190080
0.143555 0.396272 1.14746 4278190080
0.149414 0.39554599 1.14746 4278190080
0.15527301 0.397295 1.14746 4278190080
0.16113301 0.397663 1.14746 4278190080
0.16699199 0.39810199 1.14746 4278190080
0.17285199 0.398233 1.14746 4278190080
0.178711 0.40005499 1.14746 4278190080
