# .PCD v0.7 - Point Cloud Data file format
VERSION 0.7
FIELDS x y z rgb
SIZE 4 4 4 4
TYPE F F F U
COUNT 1 1 1 1
WIDTH 1252
HEIGHT 1
VIEWPOINT 0 0 0 1 0 0 0
POINTS 1252
DATA ascii
1.02126 0.27832001 1.31152 4278190080
1.02246 0.27832001 1.31238 4278190080
1.0157 0.29589799 0.98339802 4278190080
1.01937 0.31347701 0.98925799 4278190080
1.0166 0.31347701 0.99209601 4278190080
1.02246 0.314197 0.98925799 4278190080
1.02832 0.31552899 0.98925799 4278190080
1.03418 0.317431 0.98925799 4278190080
1.04004 0.31924099 0.98925799 4278190080
1.06934 0.318454 0.98925799 4278190080
1.0752 0.31900501 0.98925799 4278190080
1.08105 0.31592199 0.98925799 4278190080
1.08691 0.31582701 0.98925799 4278190080
1.08691 0.31347701 0.99488002 4278190080
1.09277 0.314215 0.98925799 4278190080
1.09277 0.31347701 0.99269402 4278190080
1.09966 0.31347701 0.98925799 4278190080
1.09863 0.31431001 0.98925799 4278190080
1.09863 0.31347701 0.994317 4278190080
1.0125 0.26660201 1.2998 4278190080
1.01074 0.269005 1.2998 4278190080
1.0166 0.26660201 1.30369 4278190080
1.05762 0.26660201 1.30124 4278190080
1.06348 0.26660201 1.30176 4278190080
1.02873 0.272461 1.31738 4278190080
1.02832 0.27373001 1.31738 4278190080
1.03418 0.272461 1.32111 4278190080
1.12793 0.27832001 1.48498 4278190080
1.1387399 0.27832001 1.48145 4278190080
1.1403 0.27832001 1.48145 4278190080
1.14551 0.27832001 1.4870501 4278190080
0.93651599 0.31347701 1.13574 4278190080
1.0280401 0.290039 1.31738 4278190080
1.02832 0.29036 1.31738 4278190080
1.02832 0.290039 1.31753 4278190080
1.03418 0.29319599 1.31738 4278190080
1.03418 0.290039 1.31963 4278190080
0.930722 0.30175799 1.12988 4278190080
0.92656302 0.29589799 1.12402 4278190080
0.928711 0.30025801 1.12402 4278190080
0.928711 0.29589799 1.1295 4278190080
1.12793 0.27280799 1.4873 4278190080
1.12793 0.272461 1.48783 4278190080
1.13379 0.272461 1.48836 4278190080
1.13965 0.27486899 1.4873 4278190080
1.14551 0.27786401 1.4873 4278190080
1.03189 0.32519501 1.05957 4278190080
1.0349801 0.32519501 1.05957 4278190080
1.03418 0.32552499 1.05957 4278190080
1.03418 0.32519501 1.06057 4278190080
0.93239099 0.30761701 1.12988 4278190080
0.93457001 0.31154999 1.12988 4278190080
1.12793 0.270347 1.37598 4278190080
1.1393 0.26660201 1.37598 4278190080
1.13965 0.26660201 1.37652 4278190080
1.01228 0.30175799 0.98925799 4278190080
1.01074 0.30175799 0.99368399 4278190080
1.0209301 0.319336 1.01855 4278190080
1.0166 0.319336 1.02354 4278190080
1.02246 0.31959501 1.01855 4278190080
1.02832 0.32047099 1.01855 4278190080
1.03418 0.321435 1.01855 4278190080
1.04004 0.32131401 1.01855 4278190080
1.0459 0.320687 1.01855 4278190080
1.05387 0.319336 1.01855 4278190080
1.05176 0.320225 1.01855 4278190080
1.05176 0.319336 1.02177 4278190080
1.01036 0.26074201 1.29395 4278190080
1.01074 0.26074201 1.29434 4278190080
1.05176 0.26453301 1.29395 4278190080
1.01367 0.30761701 0.98925799 4278190080
1.01074 0.30761701 0.99469799 4278190080
1.0166 0.31070301 0.98925799 4278190080
1.10449 0.311288 0.98925799 4278190080
1.04735 0.28417999 1.3291 4278190080
1.05176 0.28417999 1.33096 4278190080
1.01241 0.29589799 0.98925799 4278190080
1.01074 0.29589799 0.99251699 4278190080
1.02738 0.27832001 1.31738 4278190080
1.02832 0.27832001 1.31811 4278190080
1.03418 0.27832001 1.32017 4278190080
1.0146101 0.31347701 0.99511701 4278190080
1.0166 0.31420901 0.99511701 4278190080
1.02246 0.315781 0.99511701 4278190080
1.02832 0.31716499 0.99511701 4278190080
1.03418 0.318313 0.99511701 4278190080
1.04004 0.318957 0.99511701 4278190080
1.06348 0.31887299 0.99511701 4278190080
1.06934 0.31852099 0.99511701 4278190080
1.0752 0.317377 0.99511701 4278190080
1.08678 0.31347701 0.99511701 4278190080
1.08105 0.31733301 0.99511701 4278190080
1.08105 0.31347701 1.00087 4278190080
1.13254 0.27832001 1.4873 4278190080
1.13667 0.27832001 1.4873 4278190080
1.13379 0.27832001 1.48905 4278190080
1.13965 0.27909601 1.4873 4278190080
1.01826 0.26660201 1.30566 4278190080
1.0166 0.26956099 1.30566 4278190080
1.02246 0.26660201 1.30949 4278190080
1.0560499 0.26660201 1.30566 4278190080
1.06563 0.26660201 1.30566 4278190080
1.06934 0.26660201 1.30979 4278190080
0.93177098 0.30175799 1.13574 4278190080
0.93988502 0.31347701 1.1416 4278190080
1.03747 0.272461 1.32324 4278190080
1.04004 0.272461 1.32467 4278190080
0.92885101 0.29589799 1.12988 4278190080
0.93378901 0.30761701 1.13574 4278190080
0.93457001 0.30922699 1.13574 4278190080
0.93457001 0.30761701 1.13859 4278190080
1.13824 0.272461 1.49316 4278190080
1.13965 0.27539301 1.49316 4278190080
1.13965 0.272461 1.4937299 4278190080
1.14551 0.27831 1.49316 4278190080
1.14551 0.272461 1.49813 4278190080
1.15137 0.272461 1.49677 4278190080
1.0101399 0.30175799 0.99511701 4278190080
1.0399899 0.290039 1.32324 4278190080
1.04004 0.290075 1.32324 4278190080
1.04004 0.290039 1.3232599 4278190080
1.0459 0.29175499 1.32324 4278190080
1.0459 0.290039 1.32614 4278190080
1.05176 0.29581499 1.32324 4278190080
1.01635 0.319336 1.02441 4278190080
1.0166 0.31944299 1.02441 4278190080
1.02246 0.32070401 1.02441 4278190080
1.02832 0.32098201 1.02441 4278190080
1.03418 0.32150501 1.02441 4278190080
1.04004 0.320786 1.02441 4278190080
1.04663 0.319336 1.02441 4278190080
1.0459 0.31945601 1.02441 4278190080
1.0459 0.319336 1.02631 4278190080
1.0092601 0.29589799 0.99511701 4278190080
1.01636 0.26074201 1.2998 4278190080
1.0166 0.26074201 1.30003 4278190080
1.01047 0.30761701 0.99511701 4278190080
1.01074 0.30784899 0.99511701 4278190080
1.08691 0.313373 0.99511701 4278190080
1.09277 0.31316799 0.99511701 4278190080
1.0552599 0.28417999 1.33496 4278190080
1.05762 0.28417999 1.33689 4278190080
1.06348 0.28948599 1.33496 4278190080
1.06348 0.28417999 1.33981 4278190080
1.06934 0.28417999 1.3407201 4278190080
1.0375 0.27832001 1.32324 4278190080
1.04004 0.27832001 1.32502 4278190080
1.0459 0.27832001 1.32895 4278190080
1.12793 0.28239301 1.49316 4278190080
0.93432999 0.30175799 1.1416 4278190080
0.93457001 0.303231 1.1416 4278190080
0.93457001 0.30175799 1.1419801 4278190080
1.01236 0.31347701 1.00098 4278190080
1.01074 0.31347701 1.0052299 4278190080
1.0166 0.31476 1.00098 4278190080
1.02246 0.316733 1.00098 4278190080
1.02832 0.31892499 1.00098 4278190080
1.03418 0.319305 1.00098 4278190080
1.06934 0.31761101 1.00098 4278190080
1.06934 0.31347701 1.00674 4278190080
1.08097 0.31347701 1.00098 4278190080
1.0752 0.317599 1.00098 4278190080
1.08105 0.31347701 1.00106 4278190080
1.0451601 0.272461 1.3291 4278190080
1.0459 0.27773601 1.3291 4278190080
1.0459 0.272461 1.32961 4278190080
1.05176 0.272461 1.33196 4278190080
0.92974502 0.29589799 1.13574 4278190080
1.00594 0.30175799 1.00098 4278190080
1.00488 0.30175799 1.00357 4278190080
1.15256 0.272461 1.49902 4278190080
1.15137 0.27362999 1.49902 4278190080
1.15723 0.272461 1.50424 4278190080
0.93547201 0.30761701 1.1416 4278190080
1.02493 0.26660201 1.31152 4278190080
1.02246 0.27142 1.31152 4278190080
1.02832 0.26660201 1.31444 4278190080
1.05742 0.26660201 1.31152 4278190080
1.05762 0.26660201 1.31171 4278190080
1.07075 0.26660201 1.31152 4278190080
1.04839 0.290039 1.3291 4278190080
1.05176 0.29215899 1.3291 4278190080
1.05176 0.290039 1.33202 4278190080
1.0051301 0.29589799 1.00098 4278190080
1.00488 0.29589799 1.00139 4278190080
1.01595 0.319336 1.03027 4278190080
1.0166 0.319498 1.03027 4278190080
1.02246 0.32172999 1.03027 4278190080
1.02832 0.32207999 1.03027 4278190080
1.03418 0.32105401 1.03027 4278190080
1.04504 0.319336 1.03027 4278190080
1.04004 0.32075101 1.03027 4278190080
1.0459 0.319336 1.03113 4278190080
1.0066 0.30761701 1.00098 4278190080
1.00488 0.30761701 1.00589 4278190080
1.01074 0.311968 1.00098 4278190080
1.04608 0.27832001 1.3291 4278190080
1.05176 0.27832001 1.33191 4278190080
1.14806 0.27832001 1.49902 4278190080
1.15137 0.27832001 1.50246 4278190080
1.02136 0.26074201 1.30566 4278190080
1.02246 0.26074201 1.3067 4278190080
1.02832 0.26074201 1.31145 4278190080
1.05762 0.26374701 1.30566 4278190080
1.06348 0.26197499 1.30566 4278190080
1.06946 0.28417999 1.34082 4278190080
1.0752 0.28417999 1.34448 4278190080
0.937307 0.30175799 1.14746 4278190080
1.0549999 0.272461 1.33496 4278190080
1.05762 0.272461 1.33731 4278190080
1.00349 0.30175799 1.00684 4278190080
0.93247497 0.29589799 1.1416 4278190080
0.93457001 0.29589799 1.14552 4278190080
1.0103 0.31347701 1.00684 4278190080
1.01074 0.31367201 1.00684 4278190080
1.0166 0.315698 1.00684 4278190080
1.02246 0.31711301 1.00684 4278190080
1.06924 0.31347701 1.00684 4278190080
1.06348 0.318542 1.00684 4278190080
1.06934 0.31347701 1.00693 4278190080
1.08105 0.31671101 1.00684 4278190080
1.15777 0.272461 1.50488 4278190080
1.15723 0.27395999 1.50488 4278190080
0.94002002 0.30761701 1.14746 4278190080
1.00186 0.29589799 1.00684 4278190080
1.03118 0.26660201 1.31738 4278190080
1.03418 0.26660201 1.3199199 4278190080
1.0626 0.26660201 1.31738 4278190080
1.06348 0.26660201 1.31824 4278190080
1.07096 0.26660201 1.31738 4278190080
1.0752 0.26660201 1.32041 4278190080
1.15528 0.27832001 1.50488 4278190080
1.15723 0.27832001 1.50818 4278190080
1.05688 0.27832001 1.33496 4278190080
1.05762 0.27832001 1.3352799 4278190080
1.06348 0.27832001 1.3391 4278190080
1.05638 0.290039 1.33496 4278190080
1.06032 0.290039 1.33496 4278190080
1.05762 0.29052901 1.33496 4278190080
1.05762 0.290039 1.33562 4278190080
0.95214802 0.32519501 1.09953 4278190080
0.95800799 0.32519501 1.0963 4278190080
0.96386701 0.32519501 1.09681 4278190080
0.96972698 0.32519501 1.09718 4278190080
0.975586 0.32519501 1.09718 4278190080
0.98144501 0.32519501 1.09568 4278190080
0.98730499 0.32519501 1.09551 4278190080
0.993164 0.32519501 1.09488 4278190080
0.99902302 0.32519501 1.09568 4278190080
1.00488 0.32519501 1.0955 4278190080
1.01074 0.32519501 1.09544 4278190080
1.0166 0.32519501 1.09832 4278190080
1.00459 0.30761701 1.00684 4278190080
1.00488 0.307897 1.00684 4278190080
1.06934 0.31338301 1.00684 4278190080
1.01138 0.319336 1.03613 4278190080
1.0166 0.320887 1.03613 4278190080
1.02246 0.322263 1.03613 4278190080
1.02832 0.32233301 1.03613 4278190080
1.03418 0.32188001 1.03613 4278190080
1.04004 0.321951 1.03613 4278190080
1.05115 0.319336 1.03613 4278190080
1.0459 0.32042 1.03613 4278190080
1.05176 0.319336 1.0388 4278190080
1.0785201 0.28417999 1.34668 4278190080
1.08105 0.28417999 1.35118 4278190080
1.02844 0.26074201 1.31152 4278190080
1.02832 0.260851 1.31152 4278190080
1.03418 0.26074201 1.31493 4278190080
1.05762 0.26614001 1.31152 4278190080
1.06348 0.26074201 1.31626 4278190080
1.06934 0.262822 1.31152 4278190080
1.06934 0.26074201 1.31481 4278190080
1.08105 0.26074201 1.31542 4278190080
1.00125 0.30175799 1.0127 4278190080
1.16001 0.272461 1.51074 4278190080
1.16309 0.272461 1.5136499 4278190080
0.93563902 0.29589799 1.14746 4278190080
1.06238 0.272461 1.34082 4278190080
1.06348 0.27542299 1.34082 4278190080
1.06348 0.272461 1.34198 4278190080
1.06934 0.272461 1.34384 4278190080
1.0076801 0.31347701 1.0127 4278190080
1.01074 0.31477201 1.0127 4278190080
1.0166 0.316897 1.0127 4278190080
1.02246 0.317958 1.0127 4278190080
1.05762 0.31858799 1.0127 4278190080
1.06348 0.318551 1.0127 4278190080
1.06934 0.31704101 1.0127 4278190080
0.99996698 0.29589799 1.0127 4278190080
0.99902302 0.29589799 1.01669 4278190080
1.03925 0.26660201 1.32324 4278190080
1.04004 0.26660201 1.32377 4278190080
1.0459 0.26660201 1.3283499 4278190080
1.0752 0.26849401 1.32324 4278190080
1.00278 0.30761701 1.0127 4278190080
1.00488 0.31004199 1.0127 4278190080
1.06469 0.27832001 1.34082 4278190080
1.06934 0.283932 1.34082 4278190080
1.06934 0.27832001 1.34403 4278190080
0.95085198 0.32519501 1.10059 4278190080
0.946289 0.32519501 1.10536 4278190080
0.95214802 0.32575199 1.10059 4278190080
0.95800799 0.32747 1.10059 4278190080
0.96386701 0.329146 1.10059 4278190080
0.96972698 0.32933399 1.10059 4278190080
0.98144501 0.33002201 1.10059 4278190080
0.993164 0.32952699 1.10059 4278190080
0.99902302 0.32969299 1.10059 4278190080
1.00488 0.32897699 1.10059 4278190080
1.01074 0.32784301 1.10059 4278190080
1.01915 0.32519501 1.10059 4278190080
1.0166 0.32632101 1.10059 4278190080
1.02246 0.32519501 1.1046799 4278190080
1.01131 0.319336 1.04199 4278190080
1.01074 0.319336 1.0443701 4278190080
1.0166 0.32132101 1.04199 4278190080
1.02246 0.32293701 1.04199 4278190080
1.02832 0.32355201 1.04199 4278190080
1.03418 0.32312 1.04199 4278190080
1.04004 0.32129601 1.04199 4278190080
1.0459 0.320232 1.04199 4278190080
1.05232 0.319336 1.04199 4278190080
1.05176 0.319502 1.04199 4278190080
1.09277 0.284558 1.35254 4278190080
1.09277 0.28417999 1.35274 4278190080
1.1697299 0.272461 1.5166 4278190080
1.1748 0.272461 1.52043 4278190080
1.0001 0.30175799 1.01855 4278190080
0.99902302 0.30175799 1.02228 4278190080
0.93972701 0.29589799 1.15332 4278190080
1.03732 0.26074201 1.31738 4278190080
1.03418 0.262977 1.31738 4278190080
1.04004 0.26074201 1.31926 4278190080
1.0624 0.26074201 1.31738 4278190080
1.06348 0.26074201 1.31938 4278190080
1.07226 0.26074201 1.31738 4278190080
1.06934 0.26074201 1.3200999 4278190080
1.07698 0.26074201 1.31738 4278190080
1.0836 0.26074201 1.31738 4278190080
1.08105 0.26197299 1.31738 4278190080
1.00525 0.31347701 1.01855 4278190080
1.00488 0.31347701 1.02053 4278190080
1.01074 0.315602 1.01855 4278190080
1.0166 0.318441 1.01855 4278190080
1.05762 0.318223 1.01855 4278190080
1.06348 0.31758499 1.01855 4278190080
0.99851298 0.29589799 1.01855 4278190080
0.99902302 0.29754001 1.01855 4278190080
1.07291 0.272461 1.34668 4278190080
1.0752 0.272461 1.35018 4278190080
1.08645 0.272461 1.34668 4278190080
1.08105 0.27779701 1.34668 4278190080
1.08105 0.272461 1.35235 4278190080
1.08105 0.290039 1.34744 4278190080
1.00192 0.30761701 1.01855 4278190080
1.00488 0.31288999 1.01855 4278190080
1.04682 0.26660201 1.3291 4278190080
1.0459 0.269131 1.3291 4278190080
1.05176 0.26660201 1.33138 4278190080
1.0674 0.26660201 1.3291 4278190080
1.06934 0.26660201 1.33255 4278190080
1.07307 0.27832001 1.34668 4278190080
1.0791301 0.27832001 1.34668 4278190080
1.0752 0.27994099 1.34668 4278190080
1.0752 0.27832001 1.34861 4278190080
1.08105 0.27947301 1.34668 4278190080
0.94525599 0.32519501 1.10645 4278190080
0.946289 0.32562801 1.10645 4278190080
0.95214802 0.32752299 1.10645 4278190080
0.95800799 0.33047599 1.10645 4278190080
1.01074 0.33065501 1.10645 4278190080
1.0166 0.32863301 1.10645 4278190080
1.02413 0.32519501 1.10645 4278190080
1.02246 0.32589301 1.10645 4278190080
1.02832 0.32519501 1.1086 4278190080
1.08814 0.28417999 1.3584 4278190080
1.08691 0.28815201 1.3584 4278190080
1.09277 0.28417999 1.36412 4278190080
0.998173 0.30175799 1.02441 4278190080
0.99902302 0.303249 1.02441 4278190080
1.00989 0.319336 1.04785 4278190080
1.01074 0.31962299 1.04785 4278190080
1.01074 0.319336 1.05243 4278190080
1.0166 0.32101399 1.04785 4278190080
1.02246 0.32305601 1.04785 4278190080
1.02832 0.32429999 1.04785 4278190080
1.03418 0.32401299 1.04785 4278190080
1.04004 0.323082 1.04785 4278190080
1.0459 0.322321 1.04785 4278190080
1.05453 0.319336 1.04785 4278190080
1.05176 0.32160601 1.04785 4278190080
0.99573398 0.29589799 1.02441 4278190080
1.04497 0.26074201 1.32324 4278190080
1.04004 0.26571101 1.32324 4278190080
1.0459 0.26074201 1.32393 4278190080
1.05176 0.26074201 1.32895 4278190080
1.07578 0.26074201 1.32324 4278190080
1.0752 0.26148701 1.32324 4278190080
1.0752 0.26074201 1.32496 4278190080
1.08434 0.26074201 1.32324 4278190080
1.08691 0.26074201 1.32636 4278190080
1.12207 0.26074201 1.32709 4278190080
1.00428 0.31347701 1.02441 4278190080
1.00488 0.31377801 1.02441 4278190080
1.01074 0.316156 1.02441 4278190080
1.05176 0.31861001 1.02441 4278190080
1.05762 0.318288 1.02441 4278190080
1.09277 0.29212201 1.35254 4278190080
1.00076 0.30761701 1.02441 4278190080
0.99902302 0.30761701 1.02969 4278190080
1.10449 0.274057 1.3584 4278190080
0.99528801 0.30175799 1.03027 4278190080
1.05672 0.26660201 1.33496 4278190080
1.05762 0.26660201 1.33595 4278190080
1.06348 0.26660201 1.33865 4278190080
1.07058 0.26660201 1.33496 4278190080
1.0752 0.26660201 1.3404 4278190080
1.08691 0.26660201 1.34067 4278190080
0.94295001 0.32519501 1.1123 4278190080
0.946289 0.32684401 1.1123 4278190080
0.95214802 0.32901499 1.1123 4278190080
1.02246 0.33020499 1.1123 4278190080
1.0318 0.32519501 1.1123 4278190080
1.02832 0.327676 1.1123 4278190080
1.03418 0.32519501 1.11683 4278190080
1.01091 0.319336 1.05371 4278190080
1.0166 0.321798 1.05371 4278190080
1.02246 0.32378399 1.05371 4278190080
1.02832 0.32475501 1.05371 4278190080
1.03418 0.324536 1.05371 4278190080
1.04004 0.32239899 1.05371 4278190080
1.0459 0.32344401 1.05371 4278190080
1.05176 0.32021001 1.05371 4278190080
1.05176 0.319336 1.05459 4278190080
1.0944099 0.28417999 1.36426 4278190080
1.09863 0.28466901 1.36426 4278190080
0.99375999 0.29589799 1.03027 4278190080
0.993164 0.29589799 1.03215 4278190080
1.10258 0.27832001 1.3584 4278190080
1.10449 0.27832001 1.35947 4278190080
1.00361 0.31347701 1.03027 4278190080
1.00488 0.31404001 1.03027 4278190080
1.01074 0.31731799 1.03027 4278190080
1.0459 0.31910899 1.03027 4278190080
1.05176 0.317202 1.03027 4278190080
1.05762 0.31656501 1.03027 4278190080
1.05202 0.26074201 1.3291 4278190080
1.05176 0.26094899 1.3291 4278190080
1.05762 0.26074201 1.3322099 4278190080
1.07148 0.26074201 1.3291 4278190080
1.06934 0.26182899 1.3291 4278190080
1.0752 0.26074201 1.33316 4278190080
1.09041 0.26074201 1.3291 4278190080
1.09277 0.26074201 1.3311501 4278190080
1.10449 0.26074201 1.3338701 4278190080
1.12045 0.26074201 1.3291 4278190080
1.12359 0.26074201 1.3291 4278190080
1.08604 0.290039 1.3584 4278190080
1.08691 0.29128799 1.3584 4278190080
1.08691 0.290039 1.35934 4278190080
0.99876899 0.30761701 1.03027 4278190080
0.99902302 0.307886 1.03027 4278190080
0.99409401 0.30175799 1.03613 4278190080
0.993164 0.30175799 1.03871 4278190080
1.09277 0.272488 1.36426 4278190080
1.09863 0.272461 1.3662699 4278190080
1.10449 0.272461 1.36701 4278190080
1.11621 0.27428299 1.36426 4278190080
1.0659699 0.26660201 1.34082 4278190080
1.06348 0.27019799 1.34082 4278190080
1.06934 0.26660201 1.3438801 4278190080
1.0761 0.26660201 1.34082 4278190080
1.0865999 0.26660201 1.34082 4278190080
1.0871201 0.26660201 1.34082 4278190080
1.08691 0.26660201 1.34132 4278190080
1.09277 0.26660201 1.34628 4278190080
0.94238502 0.32519501 1.11816 4278190080
0.946289 0.32720199 1.11816 4278190080
0.95214802 0.33020401 1.11816 4278190080
1.02832 0.3294 1.11816 4278190080
1.0347199 0.32519501 1.11816 4278190080
1.03418 0.32581699 1.11816 4278190080
1.0115499 0.319336 1.05957 4278190080
1.01074 0.319336 1.06356 4278190080
1.0166 0.32149899 1.05957 4278190080
1.02246 0.32385001 1.05957 4278190080
1.02832 0.32468799 1.05957 4278190080
1.04004 0.32255501 1.05957 4278190080
1.04656 0.319336 1.05957 4278190080
1.0459 0.32014999 1.05957 4278190080
0.99192703 0.29589799 1.03613 4278190080
0.993164 0.29906401 1.03613 4278190080
1.09817 0.28417999 1.37012 4278190080
1.09893 0.28417999 1.37012 4278190080
1.09863 0.28510299 1.37012 4278190080
1.09863 0.28417999 1.37132 4278190080
1.10449 0.28417999 1.37546 4278190080
1.09032 0.27832001 1.36426 4278190080
1.0937001 0.27832001 1.36426 4278190080
1.09277 0.28348801 1.36426 4278190080
1.09277 0.27832001 1.36737 4278190080
1.09863 0.28382301 1.36426 4278190080
1.09863 0.27832001 1.36892 4278190080
1.10449 0.27832001 1.36998 4278190080
1.11427 0.27832001 1.36426 4278190080
1.11621 0.27832001 1.3665 4278190080
1.00116 0.31347701 1.03613 4278190080
1.00488 0.31497499 1.03613 4278190080
1.01074 0.31896999 1.03613 4278190080
1.05176 0.31913999 1.03613 4278190080
0.99654102 0.30761701 1.03613 4278190080
0.99902302 0.31092799 1.03613 4278190080
1.0605201 0.26074201 1.33496 4278190080
1.05762 0.26489699 1.33496 4278190080
1.06348 0.26074201 1.33713 4278190080
1.06934 0.26074201 1.33559 4278190080
1.07592 0.26074201 1.33496 4278190080
1.0752 0.26111099 1.33496 4278190080
1.0752 0.26074201 1.34017 4278190080
1.09626 0.26074201 1.33496 4278190080
1.10237 0.26074201 1.33496 4278190080
1.09863 0.26074201 1.33723 4278190080
1.10539 0.26074201 1.33496 4278190080
1.11035 0.26074201 1.3404 4278190080
1.11891 0.26074201 1.33496 4278190080
1.12207 0.26074201 1.3377399 4278190080
1.12793 0.26074201 1.33485 4278190080
0.99176902 0.30175799 1.04199 4278190080
0.993164 0.306858 1.04199 4278190080
1.09586 0.272461 1.37012 4278190080
1.09863 0.272461 1.3732899 4278190080
1.1101201 0.272461 1.37012 4278190080
1.11035 0.272461 1.37028 4278190080
1.11621 0.272461 1.37113 4278190080
1.12207 0.272461 1.37509 4278190080
1.12793 0.26660201 1.48119 4278190080
0.99007702 0.29589799 1.04199 4278190080
1.0745 0.26660201 1.34668 4278190080
1.07607 0.26660201 1.34668 4278190080
1.0752 0.26660201 1.34773 4278190080
1.08105 0.267461 1.34668 4278190080
1.09185 0.26660201 1.34668 4278190080
1.08691 0.26660201 1.35104 4278190080
1.09317 0.26660201 1.34668 4278190080
1.09277 0.26660201 1.34753 4278190080
0.94230998 0.32519501 1.12402 4278190080
0.946289 0.32725599 1.12402 4278190080
0.95214802 0.33065701 1.12402 4278190080
1.03724 0.32519501 1.12402 4278190080
1.03418 0.32959101 1.12402 4278190080
1.04004 0.32519501 1.12587 4278190080
1.0459 0.32519501 1.1260999 4278190080
1.01036 0.319336 1.06543 4278190080
1.01074 0.31948301 1.06543 4278190080
1.01074 0.319336 1.06669 4278190080
1.0166 0.32141 1.06543 4278190080
1.02246 0.32258499 1.06543 4278190080
1.02832 0.32374799 1.06543 4278190080
1.03418 0.32359499 1.06543 4278190080
1.04004 0.32392201 1.06543 4278190080
1.04807 0.319336 1.06543 4278190080
1.0459 0.32015699 1.06543 4278190080
1.0459 0.319336 1.06863 4278190080
1.10449 0.290039 1.3736399 4278190080
1.10265 0.28417999 1.37598 4278190080
1.11035 0.28725499 1.37598 4278190080
0.99978399 0.31347701 1.04199 4278190080
0.99902302 0.31347701 1.04395 4278190080
1.00488 0.31585699 1.04199 4278190080
1.01074 0.31894901 1.04199 4278190080
1.09507 0.27832001 1.37012 4278190080
1.09863 0.27832001 1.37525 4278190080
1.10466 0.27832001 1.37012 4278190080
1.10449 0.27853701 1.37012 4278190080
1.11035 0.27832001 1.37483 4278190080
1.11621 0.27832001 1.37559 4278190080
0.99342799 0.30761701 1.04199 4278190080
0.993164 0.30761701 1.04245 4278190080
0.99902302 0.31236699 1.04199 4278190080
0.99029201 0.30175799 1.04785 4278190080
1.06934 0.263199 1.34082 4278190080
1.0752 0.26132399 1.34082 4278190080
1.08691 0.26624799 1.34082 4278190080
1.1108299 0.26074201 1.34082 4278190080
1.11621 0.26074201 1.34475 4278190080
1.12558 0.26074201 1.34082 4278190080
1.10048 0.272461 1.37598 4278190080
1.1244 0.272461 1.37598 4278190080
1.12207 0.27387199 1.37598 4278190080
0.98953003 0.29589799 1.04785 4278190080
1.13076 0.26660201 1.48145 4278190080
1.12793 0.26677901 1.48145 4278190080
1.13379 0.26660201 1.48242 4278190080
1.10035 0.28417999 1.38184 4278190080
1.01187 0.319336 1.07129 4278190080
1.01074 0.319336 1.07446 4278190080
1.0166 0.321264 1.07129 4278190080
1.02246 0.32211101 1.07129 4278190080
1.02832 0.32227501 1.07129 4278190080
1.03418 0.32239199 1.07129 4278190080
1.04366 0.319336 1.07129 4278190080
1.04004 0.320988 1.07129 4278190080
0.94415802 0.32519501 1.12988 4278190080
0.946289 0.326473 1.12988 4278190080
0.946289 0.32519501 1.13502 4278190080
0.95214802 0.329934 1.12988 4278190080
1.03418 0.33013901 1.12988 4278190080
1.04004 0.328473 1.12988 4278190080
1.0459 0.328374 1.12988 4278190080
1.1039 0.290039 1.37598 4278190080
1.1053801 0.290039 1.37598 4278190080
1.11035 0.29276299 1.37598 4278190080
1.11035 0.290039 1.3799 4278190080
1.08476 0.26660201 1.35254 4278190080
1.0883 0.26660201 1.35254 4278190080
1.08691 0.26956299 1.35254 4278190080
1.08691 0.26660201 1.35655 4278190080
1.09277 0.26660201 1.35779 4278190080
1.09916 0.27832001 1.37598 4278190080
1.09863 0.27832001 1.37767 4278190080
1.11684 0.27832001 1.37598 4278190080
0.99770701 0.31347701 1.04785 4278190080
0.99902302 0.31400201 1.04785 4278190080
1.00488 0.31658801 1.04785 4278190080
0.98934001 0.30175799 1.05371 4278190080
1.12793 0.26074201 1.35218 4278190080
1.0752 0.26593199 1.34668 4278190080
1.09277 0.26592201 1.34668 4278190080
1.09863 0.26074201 1.35203 4278190080
0.991193 0.30761701 1.04785 4278190080
0.993164 0.30911899 1.04785 4278190080
1.10191 0.272461 1.38184 4278190080
1.09863 0.276162 1.38184 4278190080
1.12207 0.27578399 1.38184 4278190080
0.98885798 0.29589799 1.05371 4278190080
1.12793 0.267804 1.4873 4278190080
1.13572 0.26660201 1.4873 4278190080
1.13379 0.270376 1.4873 4278190080
1.13965 0.26660201 1.48954 4278190080
1.09949 0.28417999 1.3877 4278190080
1.09863 0.28417999 1.38907 4278190080
1.00875 0.319336 1.07715 4278190080
1.00488 0.319336 1.0815901 4278190080
1.01074 0.31977001 1.07715 4278190080
1.0166 0.32081199 1.07715 4278190080
1.02246 0.32127401 1.07715 4278190080
1.02832 0.32226101 1.07715 4278190080
1.03418 0.32294399 1.07715 4278190080
1.04022 0.319336 1.07715 4278190080
1.04004 0.319763 1.07715 4278190080
0.94657099 0.32519501 1.13574 4278190080
0.95214802 0.32884899 1.13574 4278190080
1.03418 0.32973999 1.13574 4278190080
1.10426 0.290039 1.38184 4278190080
1.10449 0.29033399 1.38184 4278190080
0.98856997 0.30175799 1.05957 4278190080
1.12858 0.26074201 1.35254 4278190080
1.12793 0.26074201 1.35279 4278190080
1.13379 0.26074201 1.35542 4278190080
0.989712 0.30761701 1.05371 4278190080
0.993164 0.31031799 1.05371 4278190080
0.99615002 0.31347701 1.05371 4278190080
0.99902302 0.31470299 1.05371 4278190080
1.00488 0.316632 1.05371 4278190080
1.01074 0.31922001 1.05371 4278190080
1.09667 0.27832001 1.38184 4278190080
1.09863 0.28205299 1.38184 4278190080
1.09863 0.27832001 1.38617 4278190080
1.12045 0.27832001 1.38184 4278190080
1.12312 0.27832001 1.38184 4278190080
1.12207 0.27898201 1.38184 4278190080
1.12207 0.27832001 1.38299 4278190080
1.09017 0.26660201 1.3584 4278190080
1.09365 0.26660201 1.3584 4278190080
1.09277 0.267744 1.3584 4278190080
1.09277 0.26660201 1.3612 4278190080
1.09863 0.26660201 1.36283 4278190080
1.11035 0.26660201 1.36042 4278190080
1.12069 0.26660201 1.3584 4278190080
1.11621 0.26660201 1.36361 4278190080
1.12207 0.26660201 1.36079 4278190080
1.08691 0.26439601 1.35254 4278190080
1.09721 0.26074201 1.35254 4278190080
1.0998 0.26074201 1.35254 4278190080
1.09863 0.26257199 1.35254 4278190080
1.09863 0.26074201 1.35467 4278190080
1.12774 0.26074201 1.35254 4278190080
1.12207 0.26074201 1.35762 4278190080
1.10288 0.272461 1.3877 4278190080
0.98770201 0.29589799 1.05957 4278190080
0.98730499 0.29589799 1.06141 4278190080
1.14214 0.26660201 1.49316 4278190080
1.13965 0.271323 1.49316 4278190080
1.14551 0.26660201 1.49604 4278190080
0.98982602 0.30761701 1.05957 4278190080
0.993164 0.31036499 1.05957 4278190080
0.94887602 0.32519501 1.1416 4278190080
0.95214802 0.327144 1.1416 4278190080
0.95214802 0.32519501 1.14556 4278190080
0.95800799 0.33018601 1.1416 4278190080
0.96386701 0.33001101 1.1416 4278190080
0.96972698 0.33087301 1.1416 4278190080
0.993164 0.330338 1.1416 4278190080
1.03418 0.32889199 1.1416 4278190080
0.98799503 0.30175799 1.06543 4278190080
1.00283 0.319336 1.08301 4278190080
0.99902302 0.319336 1.08505 4278190080
1.00488 0.31966501 1.08301 4278190080
1.01074 0.32099399 1.08301 4278190080
1.0166 0.321161 1.08301 4278190080
1.02246 0.32062399 1.08301 4278190080
1.02832 0.321174 1.08301 4278190080
1.03418 0.32179499 1.08301 4278190080
1.0439399 0.319336 1.08301 4278190080
1.04004 0.32230201 1.08301 4278190080
1.04004 0.319336 1.08548 4278190080
1.05176 0.28417999 1.39724 4278190080
1.05762 0.28921899 1.39355 4278190080
1.05762 0.28417999 1.39615 4278190080
1.06348 0.289314 1.39355 4278190080
1.06348 0.28417999 1.39625 4278190080
1.06934 0.289536 1.39355 4278190080
1.06934 0.28417999 1.3965 4278190080
1.0752 0.28417999 1.3960299 4278190080
1.08105 0.28417999 1.39583 4278190080
1.08691 0.28417999 1.39413 4278190080
1.09307 0.28417999 1.39355 4278190080
1.09277 0.28417999 1.3937 4278190080
0.99568897 0.31347701 1.05957 4278190080
0.99902302 0.314924 1.05957 4278190080
1.00488 0.31696799 1.05957 4278190080
1.01074 0.31890199 1.05957 4278190080
1.05762 0.290039 1.3931299 4278190080
1.06348 0.290039 1.3932199 4278190080
1.06934 0.290039 1.39324 4278190080
1.10163 0.290039 1.3877 4278190080
1.09863 0.290039 1.39042 4278190080
1.10449 0.29335099 1.3877 4278190080
1.13219 0.26074201 1.3584 4278190080
1.13767 0.26074201 1.3584 4278190080
1.13965 0.26074201 1.35965 4278190080
1.14551 0.26074201 1.35985 4278190080
1.09942 0.27832001 1.3877 4278190080
1.09863 0.27832001 1.3900501 4278190080
1.09496 0.26660201 1.36426 4278190080
1.10104 0.26660201 1.36426 4278190080
1.09863 0.26970899 1.36426 4278190080
1.09863 0.26660201 1.36954 4278190080
1.10657 0.26660201 1.36426 4278190080
1.10449 0.26660201 1.36612 4278190080
1.11035 0.26825801 1.36426 4278190080
1.11747 0.26660201 1.36426 4278190080
1.11621 0.268114 1.36426 4278190080
1.12207 0.26660201 1.36815 4278190080
0.98646301 0.29589799 1.06543 4278190080
0.98730499 0.299095 1.06543 4278190080
1.10171 0.272461 1.39355 4278190080
1.09863 0.275904 1.39355 4278190080
1.09863 0.272461 1.3994 4278190080
1.09277 0.26549 1.3584 4278190080
1.09863 0.26074201 1.36422 4278190080
1.10449 0.26074201 1.36208 4278190080
1.11035 0.26074201 1.3630199 4278190080
1.11821 0.26074201 1.3584 4278190080
1.12306 0.26074201 1.3584 4278190080
0.98948503 0.30761701 1.06543 4278190080
0.993164 0.311077 1.06543 4278190080
0.98767 0.30175799 1.07129 4278190080
0.98730499 0.30175799 1.0733 4278190080
1.1509399 0.26660201 1.49902 4278190080
1.15137 0.26743501 1.49902 4278190080
1.15137 0.26660201 1.49935 4278190080
0.99319398 0.319336 1.08887 4278190080
0.993164 0.319336 1.0889 4278190080
0.99902302 0.32119599 1.08887 4278190080
1.00488 0.321152 1.08887 4278190080
1.01074 0.32155299 1.08887 4278190080
1.0166 0.32127401 1.08887 4278190080
1.02246 0.32177901 1.08887 4278190080
1.02832 0.321161 1.08887 4278190080
1.0348001 0.319336 1.08887 4278190080
1.03418 0.320133 1.08887 4278190080
1.05176 0.319336 1.09047 4278190080
1.05762 0.319336 1.09013 4278190080
0.95458102 0.32519501 1.14746 4278190080
0.95800799 0.326489 1.14746 4278190080
0.95800799 0.32519501 1.15197 4278190080
0.96386701 0.32884601 1.14746 4278190080
0.96972698 0.33021501 1.14746 4278190080
0.98730499 0.32951099 1.14746 4278190080
0.993164 0.33080599 1.14746 4278190080
0.99503702 0.31347701 1.06543 4278190080
0.99902302 0.31522799 1.06543 4278190080
1.00488 0.31696299 1.06543 4278190080
1.05176 0.318409 1.06543 4278190080
1.1325099 0.26074201 1.36426 4278190080
1.12793 0.26074201 1.3678401 4278190080
1.1475 0.26074201 1.36426 4278190080
1.15137 0.26074201 1.3664 4278190080
1.15723 0.26074201 1.36876 4278190080
0.98538703 0.29589799 1.07129 4278190080
0.98730499 0.30077901 1.07129 4278190080
1.0752 0.27832001 1.39916 4278190080
1.08105 0.27832001 1.3984801 4278190080
1.08691 0.27832001 1.39824 4278190080
1.09571 0.27832001 1.39355 4278190080
1.09277 0.27832001 1.3954901 4278190080
1.04004 0.28875801 1.39941 4278190080
1.04881 0.28417999 1.39941 4278190080
1.0459 0.285882 1.39941 4278190080
1.0459 0.28417999 1.40282 4278190080
1.04004 0.29535499 1.39355 4278190080
1.04004 0.290039 1.39763 4278190080
1.0459 0.29287499 1.39355 4278190080
1.0459 0.290039 1.39486 4278190080
1.05538 0.290039 1.39355 4278190080
1.05176 0.29341099 1.39355 4278190080
1.05176 0.290039 1.39424 4278190080
1.07067 0.290039 1.39355 4278190080
1.0752 0.29314801 1.39355 4278190080
1.0752 0.290039 1.39447 4278190080
1.08105 0.29240799 1.39355 4278190080
1.08105 0.290039 1.39422 4278190080
1.08691 0.29448599 1.39355 4278190080
1.08691 0.290039 1.39369 4278190080
1.09316 0.290039 1.39355 4278190080
1.09277 0.290039 1.3937 4278190080
1.06934 0.272461 1.4049799 4278190080
1.0752 0.277951 1.39941 4278190080
1.0752 0.272461 1.4044 4278190080
1.08105 0.27669799 1.39941 4278190080
1.08105 0.272461 1.40289 4278190080
1.08691 0.276761 1.39941 4278190080
1.08691 0.272461 1.40227 4278190080
1.0986201 0.272461 1.39941 4278190080
1.09277 0.27489001 1.39941 4278190080
1.09277 0.272461 1.4016401 4278190080
1.09883 0.26660201 1.37012 4278190080
1.09863 0.266958 1.37012 4278190080
1.11035 0.27218199 1.37012 4278190080
1.11621 0.271431 1.37012 4278190080
1.1258301 0.26660201 1.37012 4278190080
1.12207 0.26746401 1.37012 4278190080
1.0986201 0.26074201 1.36426 4278190080
1.09863 0.26074201 1.36428 4278190080
1.10449 0.26220399 1.36426 4278190080
1.1119 0.26074201 1.36426 4278190080
1.1174901 0.26074201 1.36426 4278190080
1.11621 0.26402199 1.36426 4278190080
1.11621 0.26074201 1.36629 4278190080
1.12463 0.26074201 1.36426 4278190080
1.12207 0.263993 1.36426 4278190080
0.98905998 0.30761701 1.07129 4278190080
0.993164 0.311389 1.07129 4278190080
0.98640299 0.30175799 1.07715 4278190080
0.98730499 0.303743 1.07715 4278190080
0.958776 0.32519501 1.15332 4278190080
0.96386701 0.32756001 1.15332 4278190080
0.96386701 0.32519501 1.1574301 4278190080
0.96972698 0.32987699 1.15332 4278190080
0.975586 0.330538 1.15332 4278190080
0.946289 0.319336 1.09978 4278190080
0.95214802 0.319336 1.09582 4278190080
0.95800799 0.319336 1.09562 4278190080
0.96386701 0.319336 1.09637 4278190080
0.96972698 0.319336 1.09802 4278190080
0.975586 0.319336 1.0982701 4278190080
0.98144501 0.319336 1.0973099 4278190080
0.98731202 0.319336 1.09473 4278190080
0.98730499 0.319336 1.09473 4278190080
0.993164 0.32499099 1.09473 4278190080
0.99902302 0.32426599 1.09473 4278190080
1.00488 0.32461801 1.09473 4278190080
1.01074 0.32473901 1.09473 4278190080
1.0166 0.32330599 1.09473 4278190080
1.02246 0.32199201 1.09473 4278190080
1.02832 0.32155299 1.09473 4278190080
1.03745 0.319336 1.09473 4278190080
1.03418 0.320959 1.09473 4278190080
1.04899 0.319336 1.09473 4278190080
1.05176 0.32189 1.09473 4278190080
1.05176 0.319336 1.09873 4278190080
0.99480802 0.31347701 1.07129 4278190080
0.99902302 0.315442 1.07129 4278190080
1.00488 0.31718299 1.07129 4278190080
1.01074 0.31873101 1.07129 4278190080
1.0459 0.31884101 1.07129 4278190080
1.05176 0.317164 1.07129 4278190080
1.15689 0.26660201 1.50488 4278190080
1.15723 0.26813301 1.50488 4278190080
1.15723 0.26660201 1.50526 4278190080
0.984124 0.29589799 1.07715 4278190080
1.12793 0.26533601 1.37012 4278190080
1.13379 0.263809 1.37012 4278190080
1.05176 0.28257501 1.39941 4278190080
1.05762 0.27962801 1.39941 4278190080
1.05762 0.27832001 1.40136 4278190080
1.06348 0.27907199 1.39941 4278190080
1.06348 0.27832001 1.39984 4278190080
1.07331 0.27832001 1.39941 4278190080
1.06934 0.27907199 1.39941 4278190080
1.06934 0.27832001 1.3999701 4278190080
1.04468 0.28417999 1.40527 4278190080
1.04004 0.28821099 1.40527 4278190080
1.0391099 0.290039 1.39941 4278190080
1.10215 0.26660201 1.37598 4278190080
1.10449 0.26660201 1.38002 4278190080
1.05762 0.27592301 1.40527 4278190080
1.05762 0.272461 1.40943 4278190080
1.06839 0.272461 1.40527 4278190080
1.06348 0.273727 1.40527 4278190080
1.06348 0.272461 1.4073 4278190080
0.98861402 0.30761701 1.07715 4278190080
0.98730499 0.30761701 1.0825599 4278190080
0.993164 0.313223 1.07715 4278190080
0.98566097 0.30175799 1.08301 4278190080
1.10316 0.26074201 1.37012 4278190080
1.10449 0.26074201 1.37212 4278190080
1.1617 0.26660201 1.51074 4278190080
1.16309 0.26660201 1.51171 4278190080
1.16895 0.26660201 1.51416 4278190080
0.96531999 0.32519501 1.15918 4278190080
0.96972698 0.32801899 1.15918 4278190080
0.96972698 0.32519501 1.16229 4278190080
0.975586 0.32519501 1.16345 4278190080
0.98144501 0.33012399 1.15918 4278190080
0.98144501 0.32519501 1.16284 4278190080
0.98730499 0.32997701 1.15918 4278190080
0.993164 0.33098099 1.15918 4278190080
0.99339598 0.31347701 1.07715 4278190080
0.993164 0.31347701 1.07807 4278190080
0.99902302 0.31608799 1.07715 4278190080
1.00488 0.31804201 1.07715 4278190080
1.0459 0.31684899 1.07715 4278190080
0.98325598 0.29589799 1.08301 4278190080
0.94507802 0.319336 1.10059 4278190080
0.94042999 0.319336 1.10574 4278190080
0.946289 0.320223 1.10059 4278190080
1.02246 0.32384801 1.10059 4278190080
1.02832 0.323154 1.10059 4278190080
1.03909 0.319336 1.10059 4278190080
1.03418 0.32078901 1.10059 4278190080
1.05328 0.319336 1.10059 4278190080
1.05176 0.319336 1.10258 4278190080
1.13965 0.26632899 1.37598 4278190080
1.03869 0.290039 1.40527 4278190080
1.10523 0.26660201 1.38184 4278190080
1.10449 0.26817101 1.38184 4278190080
1.0459 0.28306401 1.40527 4278190080
1.0531501 0.27832001 1.40527 4278190080
1.05176 0.278916 1.40527 4278190080
1.05176 0.27832001 1.40657 4278190080
1.12793 0.30175799 0.95202601 4278190080
1.13379 0.30175799 0.95297199 4278190080
1.05616 0.272461 1.41113 4278190080
1.05176 0.276086 1.41113 4278190080
1.04329 0.28417999 1.41113 4278190080
1.04004 0.28889999 1.41113 4278190080
0.98719102 0.30761701 1.08301 4278190080
0.98730499 0.30784801 1.08301 4278190080
0.98406202 0.30175799 1.08887 4278190080
1.1075799 0.26074201 1.37598 4278190080
1.10449 0.26424801 1.37598 4278190080
1.17109 0.26660201 1.5166 4278190080
1.1748 0.26660201 1.52047 4278190080
1.18066 0.26660201 1.52091 4278190080
1.12793 0.29589799 0.94300699 4278190080
1.13379 0.29589799 0.94473797 4278190080
1.13965 0.29589799 0.946271 4278190080
1.14551 0.29589799 0.94783199 4278190080
0.98185098 0.29589799 1.08887 4278190080
0.98144501 0.29589799 1.09144 4278190080
0.983679 0.32519501 1.16504 4278190080
0.98730499 0.326821 1.16504 4278190080
0.99142897 0.31347701 1.08301 4278190080
0.993164 0.31490701 1.08301 4278190080
0.99902302 0.31802699 1.08301 4278190080
1.0459 0.318194 1.08301 4278190080
0.94042999 0.31981599 1.10645 4278190080
1.02832 0.32418501 1.10645 4278190080
1.03517 0.319336 1.10645 4278190080
1.03418 0.320474 1.10645 4278190080
1.04734 0.319336 1.10645 4278190080
1.0459 0.319336 1.10735 4278190080
1.1079201 0.26660201 1.3877 4278190080
1.10449 0.27076301 1.3877 4278190080
1.05572 0.272461 1.41699 4278190080
1.05176 0.27727401 1.41699 4278190080
1.05762 0.272461 1.42135 4278190080
1.03944 0.290039 1.41113 4278190080
1.04004 0.290039 1.4159 4278190080
1.12793 0.30258799 0.95410198 4278190080
1.13586 0.30175799 0.95410198 4278190080
1.13379 0.30244601 0.95410198 4278190080
1.13965 0.30175799 0.95628899 4278190080
1.04467 0.28417999 1.41699 4278190080
1.04958 0.27832001 1.41113 4278190080
1.0459 0.28170499 1.41113 4278190080
0.98602998 0.30761701 1.08887 4278190080
0.98730499 0.31271401 1.08887 4278190080
0.94042999 0.30175799 1.0975 4278190080
0.946289 0.30175799 1.09659 4278190080
0.95214802 0.30175799 1.0973099 4278190080
0.95800799 0.30175799 1.09865 4278190080
0.98281598 0.30175799 1.09473 4278190080
0.98144501 0.30175799 1.09762 4278190080
1.10918 0.26074201 1.38184 4278190080
1.12793 0.29961699 0.94824201 4278190080
1.13379 0.298296 0.94824201 4278190080
1.13965 0.29690799 0.94824201 4278190080
1.14633 0.29589799 0.94824201 4278190080
1.14551 0.29614401 0.94824201 4278190080
1.15137 0.29589799 0.95188898 4278190080
1.15723 0.29589799 0.95388597 4278190080
0.94042999 0.29589799 1.0963399 4278190080
0.946289 0.29589799 1.0962 4278190080
0.95214802 0.29589799 1.09776 4278190080
0.95800799 0.29589799 1.09951 4278190080
0.98089701 0.29589799 1.09473 4278190080
0.98144501 0.297447 1.09473 4278190080
0.98756403 0.31347701 1.08887 4278190080
0.98730499 0.31347701 1.09115 4278190080
0.993164 0.31931299 1.08887 4278190080
1.04004 0.31651199 1.08887 4278190080
1.0459 0.317507 1.08887 4278190080
0.94042999 0.322164 1.1123 4278190080
1.0396399 0.319336 1.1123 4278190080
1.03418 0.324054 1.1123 4278190080
1.04038 0.319336 1.1123 4278190080
1.04004 0.319336 1.1126601 4278190080
1.0459 0.322629 1.1123 4278190080
1.10796 0.26660201 1.39355 4278190080
1.10449 0.27078399 1.39355 4278190080
1.04019 0.290039 1.41699 4278190080
1.04004 0.29044199 1.41699 4278190080
1.12793 0.30761701 0.97844303 4278190080
1.0583 0.272461 1.42285 4278190080
1.05762 0.27366501 1.42285 4278190080
0.94042999 0.30761701 1.0993299 4278190080
0.946289 0.30761701 1.09684 4278190080
0.95214802 0.30761701 1.09648 4278190080
0.95800799 0.30761701 1.09719 4278190080
0.96386701 0.30761701 1.09914 4278190080
0.98570597 0.30761701 1.09473 4278190080
1.05037 0.27832001 1.41699 4278190080
1.0459 0.28299001 1.41699 4278190080
1.05176 0.27832001 1.42064 4278190080
1.04539 0.28417999 1.42285 4278190080
1.0459 0.28417999 1.42378 4278190080
0.96346498 0.30175799 1.10059 4278190080
0.96386701 0.30229399 1.10059 4278190080
0.96386701 0.30175799 1.10074 4278190080
0.96972698 0.30175799 1.10164 4278190080
0.97862899 0.30175799 1.10059 4278190080
0.975586 0.30175799 1.10193 4278190080
0.98144501 0.30671 1.10059 4278190080
1.12793 0.304066 0.959961 4278190080
1.13379 0.3039 0.959961 4278190080
1.14281 0.30175799 0.959961 4278190080
1.13965 0.30331701 0.959961 4278190080
1.13965 0.30175799 0.96288598 4278190080
1.11023 0.26074201 1.3877 4278190080
0.96144402 0.29589799 1.10059 4278190080
0.96386701 0.29589799 1.1013401 4278190080
0.96972698 0.29589799 1.10176 4278190080
0.97721797 0.29589799 1.10059 4278190080
0.975586 0.29589799 1.10159 4278190080
1.13965 0.30025199 0.95410198 4278190080
1.14551 0.29817501 0.95410198 4278190080
1.15137 0.29692701 0.95410198 4278190080
1.15763 0.29589799 0.95410198 4278190080
1.15723 0.29605201 0.95410198 4278190080
1.16309 0.29589799 0.957555 4278190080
0.946289 0.31347701 1.09745 4278190080
0.95214802 0.31347701 1.09649 4278190080
0.95800799 0.31347701 1.09711 4278190080
0.96386701 0.31347701 1.09834 4278190080
0.96972698 0.31347701 1.09975 4278190080
0.98670298 0.31347701 1.09473 4278190080
0.98144501 0.31347701 1.09964 4278190080
0.98730499 0.31926101 1.09473 4278190080
1.04004 0.317615 1.09473 4278190080
1.0459 0.316021 1.09473 4278190080
0.94042999 0.32314199 1.11816 4278190080
1.04004 0.32293499 1.11816 4278190080
1.09863 0.27245501 1.39941 4278190080
1.10528 0.26660201 1.39941 4278190080
1.10449 0.26723099 1.39941 4278190080
1.10449 0.26660201 1.40027 4278190080
1.12793 0.30999899 0.98339802 4278190080
1.04267 0.290039 1.42285 4278190080
1.05962 0.272461 1.42871 4278190080
1.05762 0.275089 1.42871 4278190080
0.94042999 0.31022599 1.10059 4278190080
0.96931303 0.30761701 1.10059 4278190080
0.96972698 0.30843601 1.10059 4278190080
0.96972698 0.30761701 1.10072 4278190080
0.975586 0.30761701 1.10138 4278190080
0.98182398 0.30761701 1.10059 4278190080
0.98144501 0.30921099 1.10059 4278190080
0.98144501 0.30761701 1.10088 4278190080
1.0459 0.28346601 1.42285 4278190080
1.05276 0.27832001 1.42285 4278190080
1.05176 0.27899501 1.42285 4278190080
1.04918 0.28417999 1.42871 4278190080
1.0459 0.2886 1.42871 4278190080
1.11033 0.26074201 1.39355 4278190080
1.12793 0.30584699 0.96582001 4278190080
1.13574 0.30175799 0.96582001 4278190080
1.13379 0.303514 0.96582001 4278190080
1.13379 0.30175799 0.96985799 4278190080
0.94042999 0.32325101 1.12402 4278190080
1.14551 0.300201 0.959961 4278190080
1.15137 0.29793301 0.959961 4278190080
1.15723 0.29820299 0.959961 4278190080
1.16645 0.29589799 0.959961 4278190080
1.16309 0.297299 0.959961 4278190080
1.16895 0.29589799 0.96211302 4278190080
0.94248199 0.31347701 1.10059 4278190080
0.94042999 0.31347701 1.10278 4278190080
0.974832 0.31347701 1.10059 4278190080
0.97669798 0.31347701 1.10059 4278190080
0.975586 0.31385401 1.10059 4278190080
0.975586 0.31347701 1.10072 4278190080
1.04004 0.31911099 1.10059 4278190080
1.0459 0.31659901 1.10059 4278190080
1.05176 0.317682 1.10059 4278190080
1.06139 0.272461 1.43457 4278190080
1.05762 0.27728701 1.43457 4278190080
1.06348 0.272461 1.43818 4278190080
1.0449899 0.290039 1.42871 4278190080
1.0459 0.290039 1.4301 4278190080
1.06934 0.27228501 1.40527 4278190080
1.0752 0.27197799 1.40527 4278190080
1.08105 0.27107999 1.40527 4278190080
1.08691 0.27011001 1.40527 4278190080
1.08691 0.26660201 1.41054 4278190080
1.09277 0.269467 1.40527 4278190080
1.09277 0.26660201 1.4089299 4278190080
1.10034 0.26660201 1.40527 4278190080
1.09863 0.26765499 1.40527 4278190080
1.09863 0.26660201 1.4068 4278190080
1.13379 0.310949 0.98925799 4278190080
1.05434 0.27832001 1.42871 4278190080
1.05176 0.28103501 1.42871 4278190080
1.05071 0.28417999 1.43457 4278190080
1.05176 0.28417999 1.43603 4278190080
1.11008 0.26074201 1.39941 4278190080
1.16895 0.30175799 0.97484303 4278190080
1.1748 0.30175799 0.97304797 4278190080
0.94042999 0.32109901 1.12988 4278190080
1.0482399 0.290039 1.43457 4278190080
1.05176 0.290039 1.44006 4278190080
1.13965 0.30031899 0.96582001 4278190080
1.14551 0.29925701 0.96582001 4278190080
1.15137 0.29806799 0.96582001 4278190080
1.15137 0.29589799 0.96738303 4278190080
1.15723 0.29762599 0.96582001 4278190080
1.16309 0.298013 0.96582001 4278190080
1.16309 0.29589799 0.97056198 4278190080
1.17204 0.29589799 0.96582001 4278190080
1.16895 0.29793799 0.96582001 4278190080
1.06446 0.272461 1.44043 4278190080
1.06348 0.27392799 1.44043 4278190080
1.05762 0.27143699 1.41113 4278190080
1.06348 0.27038199 1.41113 4278190080
1.06934 0.26984999 1.41113 4278190080
1.0752 0.26901999 1.41113 4278190080
1.0752 0.26660201 1.41643 4278190080
1.08585 0.26660201 1.41113 4278190080
1.08105 0.268031 1.41113 4278190080
1.08105 0.26660201 1.4143699 4278190080
1.05674 0.27832001 1.43457 4278190080
1.05176 0.28289199 1.43457 4278190080
1.05762 0.27832001 1.43575 4278190080
1.05497 0.28417999 1.44043 4278190080
1.05762 0.28417999 1.44366 4278190080
1.10817 0.26074201 1.40527 4278190080
1.10449 0.26417401 1.40527 4278190080
1.10449 0.26074201 1.40933 4278190080
0.94042999 0.31961 1.13574 4278190080
0.94042999 0.319336 1.13626 4278190080
0.946289 0.32493201 1.13574 4278190080
1.12793 0.306988 0.977539 4278190080
1.16414 0.30175799 0.977539 4278190080
1.16895 0.303069 0.977539 4278190080
1.17617 0.30175799 0.977539 4278190080
1.1748 0.302863 0.977539 4278190080
1.06857 0.272461 1.44629 4278190080
1.06934 0.272461 1.44715 4278190080
1.0520101 0.290039 1.44043 4278190080
1.05176 0.29049799 1.44043 4278190080
1.13379 0.30142 0.97167999 4278190080
1.13965 0.30163601 0.97167999 4278190080
1.14729 0.29589799 0.97167999 4278190080
1.15372 0.29589799 0.97167999 4278190080
1.16246 0.29589799 0.97167999 4278190080
1.15723 0.29909 0.97167999 4278190080
1.16389 0.29589799 0.97167999 4278190080
1.17441 0.29589799 0.97167999 4278190080
1.16895 0.29978999 0.97167999 4278190080
1.05762 0.26994801 1.41699 4278190080
1.06348 0.26761401 1.41699 4278190080
1.06348 0.26660201 1.4208 4278190080
1.0703501 0.26660201 1.41699 4278190080
1.06934 0.26665899 1.41699 4278190080
1.06934 0.26660201 1.41716 4278190080
1.0602601 0.27832001 1.44043 4278190080
1.05762 0.28123501 1.44043 4278190080
1.06348 0.27832001 1.44488 4278190080
1.0601701 0.28417999 1.44629 4278190080
1.05762 0.28758499 1.44629 4278190080
1.06348 0.28417999 1.4489501 4278190080
1.06934 0.28417999 1.45178 4278190080
1.08691 0.26628399 1.41113 4278190080
1.09277 0.26523799 1.41113 4278190080
1.10219 0.26074201 1.41113 4278190080
1.09863 0.263399 1.41113 4278190080
1.09863 0.26074201 1.41681 4278190080
0.94317198 0.319336 1.1416 4278190080
0.946289 0.322662 1.1416 4278190080
0.946289 0.319336 1.14508 4278190080
0.94042999 0.30175799 1.1511101 4278190080
1.17707 0.30175799 0.98339802 4278190080
1.1748 0.303249 0.98339802 4278190080
1.07336 0.272461 1.45215 4278190080
1.0752 0.272461 1.45418 4278190080
1.05567 0.290039 1.44629 4278190080
1.05762 0.290039 1.44722 4278190080
1.06348 0.29419601 1.44629 4278190080
1.06348 0.290039 1.44831 4278190080
1.06934 0.290039 1.44813 4278190080
1.0752 0.290039 1.45004 4278190080
1.08105 0.290039 1.45135 4278190080
1.22754 0.29589799 0.98217797 4278190080
1.06222 0.26660201 1.42285 4278190080
1.06348 0.26660201 1.42489 4278190080
1.0648201 0.27832001 1.44629 4278190080
1.06348 0.27986699 1.44629 4278190080
1.06934 0.27832001 1.4505 4278190080
0.94042999 0.297598 1.15332 4278190080
0.94042999 0.29589799 1.15394 4278190080
0.94042999 0.308451 1.14746 4278190080
0.94042999 0.30761701 1.14798 4278190080
1.07057 0.28417999 1.45215 4278190080
1.0752 0.286304 1.45215 4278190080
1.0752 0.28417999 1.4531 4278190080
1.08105 0.28615099 1.45215 4278190080
1.08105 0.28417999 1.4537899 4278190080
1.0752 0.26633 1.41699 4278190080
1.08105 0.265605 1.41699 4278190080
