# .PCD v0.7 - Point Cloud Data file format
VERSION 0.7
FIELDS x y z rgb
SIZE 4 4 4 4
TYPE F F F U
COUNT 1 1 1 1
WIDTH 1166
HEIGHT 1
VIEWPOINT 0 0 0 1 0 0 0
POINTS 1166
DATA ascii
-0.506836 0.328619 1.3291 4278190080
-0.49879599 0.319336 1.3291 4278190080
-0.50097698 0.323715 1.3291 4278190080
-0.21386699 0.319336 1.26888 4278190080
-0.20800801 0.319336 1.26749 4278190080
-0.20214801 0.319336 1.26689 4278190080
-0.196289 0.32370201 1.26465 4278190080
-0.196289 0.319336 1.26645 4278190080
-0.19043 0.324296 1.26465 4278190080
-0.19043 0.319336 1.26715 4278190080
-0.72780102 0.30175799 1.07129 4278190080
-0.72363299 0.30707699 1.07129 4278190080
-0.72363299 0.30175799 1.07558 4278190080
-0.69167799 0.30175799 1.07129 4278190080
-0.22510201 0.31347701 1.28223 4278190080
-0.225586 0.31347701 1.2827801 4278190080
-0.187279 0.31347701 1.28223 4278190080
-0.55957001 0.29589799 1.30919 4278190080
-0.48339799 0.30022401 1.30566 4278190080
-0.47541499 0.29589799 1.30566 4278190080
-0.477539 0.29657099 1.30566 4278190080
-0.47167999 0.29589799 1.30876 4278190080
-0.46582001 0.29589799 1.30981 4278190080
-0.459961 0.29589799 1.31134 4278190080
-0.55957001 0.31347701 1.28917 4278190080
-0.553711 0.31347701 1.28847 4278190080
-0.54785198 0.31347701 1.29153 4278190080
-0.55588698 0.30175799 1.31152 4278190080
-0.553711 0.30175799 1.3153501 4278190080
-0.48925799 0.30705699 1.31152 4278190080
-0.48058099 0.30175799 1.31152 4278190080
-0.48339799 0.30295601 1.31152 4278190080
-0.477539 0.30175799 1.31437 4278190080
-0.71989101 0.319336 1.07129 4278190080
-0.71777302 0.320113 1.07129 4278190080
-0.711914 0.323769 1.07129 4278190080
-0.70019501 0.319336 1.07451 4278190080
-0.69086802 0.319336 1.07129 4278190080
-0.694336 0.32349101 1.07129 4278190080
-0.694336 0.319336 1.0741 4278190080
-0.233257 0.30175799 1.2998 4278190080
-0.189375 0.30175799 1.2998 4278190080
-0.50259602 0.32519501 1.33496 4278190080
-0.73120803 0.29589799 1.07715 4278190080
-0.72363299 0.300365 1.07715 4278190080
-0.70605499 0.29589799 1.0826499 4278190080
-0.69585198 0.29589799 1.07715 4278190080
-0.70019501 0.29589799 1.07976 4278190080
-0.694336 0.301 1.07715 4278190080
-0.71539903 0.32519501 1.06543 4278190080
-0.711914 0.32519501 1.07032 4278190080
-0.694336 0.32519501 1.06979 4278190080
-0.68546402 0.32519501 1.06543 4278190080
-0.68847698 0.32519501 1.06821 4278190080
-0.23601 0.29589799 1.30566 4278190080
-0.237305 0.29589799 1.30928 4278190080
-0.192038 0.29589799 1.30566 4278190080
-0.19043 0.299198 1.30566 4278190080
-0.499697 0.319336 1.33496 4278190080
-0.50097698 0.32265601 1.33496 4278190080
-0.50097698 0.319336 1.33648 4278190080
-0.231885 0.30761701 1.2998 4278190080
-0.231445 0.30890301 1.2998 4278190080
-0.18843 0.30761701 1.2998 4278190080
-0.21777201 0.319336 1.27051 4278190080
-0.21972699 0.319336 1.27117 4278190080
-0.18749399 0.319336 1.27051 4278190080
-0.722619 0.30175799 1.07715 4278190080
-0.72363299 0.30175799 1.0794801 4278190080
-0.70605499 0.30175799 1.08283 4278190080
-0.70019501 0.30175799 1.0812401 4278190080
-0.69413298 0.30175799 1.07715 4278190080
-0.694336 0.30175799 1.07734 4278190080
-0.22701199 0.31347701 1.28809 4278190080
-0.18724801 0.31347701 1.28809 4278190080
-0.55761999 0.29589799 1.31152 4278190080
-0.477539 0.29919899 1.31152 4278190080
-0.47167999 0.29719201 1.31152 4278190080
-0.46582001 0.296738 1.31152 4278190080
-0.45856899 0.29589799 1.31152 4278190080
-0.459961 0.295984 1.31152 4278190080
-0.45410201 0.29589799 1.31234 4278190080
-0.44824201 0.29589799 1.31478 4278190080
-0.44238299 0.29589799 1.31725 4278190080
-0.55957001 0.30761701 1.27563 4278190080
-0.553711 0.30761701 1.2756 4278190080
-0.55957001 0.31497899 1.29395 4278190080
-0.553711 0.315624 1.29395 4278190080
-0.543055 0.31347701 1.29395 4278190080
-0.54785198 0.31489599 1.29395 4278190080
-0.54199201 0.31347701 1.29457 4278190080
-0.53613299 0.31347701 1.2982 4278190080
-0.50367701 0.32519501 1.34082 4278190080
-0.196289 0.32519501 1.2641 4278190080
-0.19043 0.32519501 1.26423 4278190080
-0.55216002 0.30175799 1.31738 4278190080
-0.553711 0.30582699 1.31738 4278190080
-0.48339799 0.30475399 1.31738 4278190080
-0.471863 0.30175799 1.31738 4278190080
-0.477539 0.30299801 1.31738 4278190080
-0.47167999 0.30175799 1.3175 4278190080
-0.46582001 0.30175799 1.31832 4278190080
-0.459961 0.30175799 1.3193001 4278190080
-0.45410201 0.30175799 1.31918 4278190080
-0.44824201 0.30175799 1.32091 4278190080
-0.44238299 0.30175799 1.32226 4278190080
-0.23491199 0.30175799 1.30566 4278190080
-0.18951499 0.30175799 1.30566 4278190080
-0.505597 0.319336 1.34082 4278190080
-0.506836 0.319336 1.34252 4278190080
-0.70667899 0.29589799 1.08301 4278190080
-0.71129102 0.32519501 1.07129 4278190080
-0.70605499 0.32843101 1.07129 4278190080
-0.69617301 0.32519501 1.07129 4278190080
-0.233587 0.30761701 1.30566 4278190080
-0.18878201 0.30761701 1.30566 4278190080
-0.237951 0.29589799 1.31152 4278190080
-0.237305 0.29752499 1.31152 4278190080
-0.192458 0.29589799 1.31152 4278190080
-0.19043 0.301489 1.31152 4278190080
-0.741211 0.30761701 1.18651 4278190080
-0.73535198 0.30761701 1.18564 4278190080
-0.72949201 0.30761701 1.18775 4278190080
-0.72363299 0.30761701 1.18784 4278190080
-0.71777302 0.30761701 1.1874599 4278190080
-0.711914 0.30761701 1.18669 4278190080
-0.70605499 0.30761701 1.18621 4278190080
-0.70019501 0.30761701 1.18636 4278190080
-0.694336 0.30761701 1.1859601 4278190080
-0.68847698 0.30761701 1.18576 4278190080
-0.228312 0.31347701 1.29395 4278190080
-0.18737701 0.31347701 1.29395 4278190080
-0.55951297 0.29589799 1.31738 4278190080
-0.55957001 0.29589799 1.31743 4278190080
-0.553711 0.300594 1.31738 4278190080
-0.47167999 0.30164301 1.31738 4278190080
-0.46582001 0.30077001 1.31738 4278190080
-0.459961 0.29955199 1.31738 4278190080
-0.45410201 0.299582 1.31738 4278190080
-0.44824201 0.29778501 1.31738 4278190080
-0.44220999 0.29589799 1.31738 4278190080
-0.44238299 0.29598999 1.31738 4278190080
-0.43652299 0.29589799 1.32119 4278190080
-0.71777302 0.30729201 1.08301 4278190080
-0.70605499 0.30229899 1.08301 4278190080
-0.55957001 0.30811399 1.27637 4278190080
-0.551166 0.30761701 1.27637 4278190080
-0.553711 0.30801901 1.27637 4278190080
-0.54785198 0.30761701 1.2779599 4278190080
-0.221251 0.319336 1.27637 4278190080
-0.18542001 0.319336 1.27637 4278190080
-0.50615102 0.32519501 1.34668 4278190080
-0.506836 0.32519501 1.34741 4278190080
-0.18457 0.32893199 1.26465 4278190080
-0.18457 0.32519501 1.26673 4278190080
-0.55957001 0.31457201 1.2998 4278190080
-0.55957001 0.31347701 1.30103 4278190080
-0.553711 0.31738701 1.2998 4278190080
-0.54785198 0.317765 1.2998 4278190080
-0.54199201 0.31699601 1.2998 4278190080
-0.532628 0.31347701 1.2998 4278190080
-0.53613299 0.31474301 1.2998 4278190080
-0.53027302 0.31347701 1.30077 4278190080
-0.524414 0.31347701 1.30302 4278190080
-0.51855499 0.31347701 1.30483 4278190080
-0.51002198 0.319336 1.34668 4278190080
-0.506836 0.32393599 1.34668 4278190080
-0.477539 0.304858 1.32324 4278190080
-0.47167999 0.30382401 1.32324 4278190080
-0.46582001 0.303592 1.32324 4278190080
-0.459961 0.30368099 1.32324 4278190080
-0.45410201 0.30346599 1.32324 4278190080
-0.44824201 0.302809 1.32324 4278190080
-0.44175699 0.30175799 1.32324 4278190080
-0.44238299 0.30214599 1.32324 4278190080
-0.21386699 0.32519501 1.26665 4278190080
-0.20800801 0.32725501 1.26465 4278190080
-0.20800801 0.32519501 1.26539 4278190080
-0.200799 0.32519501 1.26465 4278190080
-0.20214801 0.325611 1.26465 4278190080
-0.20214801 0.32519501 1.26482 4278190080
-0.18925101 0.32519501 1.26465 4278190080
-0.23569401 0.30175799 1.31152 4278190080
-0.19033 0.30175799 1.31152 4278190080
-0.19043 0.30175799 1.31183 4278190080
-0.741211 0.31347701 1.18646 4278190080
-0.73535198 0.31347701 1.18708 4278190080
-0.71777302 0.31347701 1.18809 4278190080
-0.711914 0.31347701 1.18756 4278190080
-0.70605499 0.31347701 1.1876301 4278190080
-0.70019501 0.31347701 1.1878901 4278190080
-0.694336 0.31347701 1.18777 4278190080
-0.68847698 0.31347701 1.18732 4278190080
-0.74348998 0.30761701 1.18848 4278190080
-0.74707001 0.30761701 1.1906 4278190080
-0.72949201 0.31058601 1.18848 4278190080
-0.72363299 0.31025699 1.18848 4278190080
-0.68293297 0.30761701 1.18848 4278190080
-0.23454501 0.30761701 1.31152 4278190080
-0.18915001 0.30761701 1.31152 4278190080
-0.19043 0.30761701 1.31689 4278190080
-0.238856 0.29589799 1.31738 4278190080
-0.237305 0.30012801 1.31738 4278190080
-0.19308899 0.29589799 1.31738 4278190080
-0.229838 0.31347701 1.2998 4278190080
-0.231445 0.31347701 1.30439 4278190080
-0.187575 0.31347701 1.2998 4278190080
-0.43474299 0.29589799 1.32324 4278190080
-0.43652299 0.29673901 1.32324 4278190080
-0.430664 0.29589799 1.32636 4278190080
-0.22330301 0.319336 1.28223 4278190080
-0.225586 0.319336 1.28616 4278190080
-0.185387 0.319336 1.28223 4278190080
-0.55957001 0.31010199 1.28223 4278190080
-0.553711 0.31022701 1.28223 4278190080
-0.54358602 0.30761701 1.28223 4278190080
-0.54785198 0.30896699 1.28223 4278190080
-0.54199201 0.30761701 1.2836 4278190080
-0.55957001 0.32519501 1.35707 4278190080
-0.51230597 0.32519501 1.35254 4278190080
-0.55957001 0.319336 1.3547601 4278190080
-0.51004499 0.319336 1.35254 4278190080
-0.184045 0.32519501 1.27051 4278190080
-0.745341 0.31347701 1.18848 4278190080
-0.74707001 0.31347701 1.18957 4278190080
-0.741211 0.31874999 1.18848 4278190080
-0.73154902 0.31347701 1.18848 4278190080
-0.73535198 0.31672701 1.18848 4278190080
-0.72949201 0.31347701 1.1892101 4278190080
-0.71981299 0.31347701 1.18848 4278190080
-0.72363299 0.31347701 1.18925 4278190080
-0.71777302 0.31526899 1.18848 4278190080
-0.711914 0.317285 1.18848 4278190080
-0.70605499 0.317938 1.18848 4278190080
-0.70019501 0.31627601 1.18848 4278190080
-0.694336 0.31655601 1.18848 4278190080
-0.68524998 0.31347701 1.18848 4278190080
-0.68847698 0.316715 1.18848 4278190080
-0.217041 0.32519501 1.27051 4278190080
-0.21972699 0.32519501 1.27268 4278190080
-0.47167999 0.30743599 1.3291 4278190080
-0.46582001 0.307441 1.3291 4278190080
-0.459961 0.306375 1.3291 4278190080
-0.44824201 0.30559301 1.3291 4278190080
-0.437989 0.30175799 1.3291 4278190080
-0.44238299 0.30380899 1.3291 4278190080
-0.43652299 0.30175799 1.33075 4278190080
-0.55613703 0.31347701 1.30566 4278190080
-0.53613299 0.31825501 1.30566 4278190080
-0.53027302 0.31704199 1.30566 4278190080
-0.524414 0.315687 1.30566 4278190080
-0.51699001 0.31347701 1.30566 4278190080
-0.51855499 0.31417099 1.30566 4278190080
-0.51269501 0.31347701 1.30777 4278190080
-0.506836 0.31347701 1.31093 4278190080
-0.236635 0.30175799 1.31738 4278190080
-0.192186 0.30175799 1.31738 4278190080
-0.685754 0.30761701 1.19434 4278190080
-0.23451699 0.30761701 1.31738 4278190080
-0.19060899 0.30761701 1.31738 4278190080
-0.231868 0.31347701 1.30566 4278190080
-0.231445 0.31451201 1.30566 4278190080
-0.18786301 0.31347701 1.30566 4278190080
-0.30761701 0.29589799 1.3255399 4278190080
-0.30175799 0.29589799 1.32644 4278190080
-0.23853301 0.29589799 1.32324 4278190080
-0.237305 0.29801801 1.32324 4278190080
-0.237305 0.29589799 1.32491 4278190080
-0.19452199 0.29589799 1.32324 4278190080
-0.196289 0.29589799 1.32584 4278190080
-0.43652299 0.30025899 1.3291 4278190080
-0.42777199 0.29589799 1.3291 4278190080
-0.430664 0.296913 1.3291 4278190080
-0.42480499 0.29589799 1.33172 4278190080
-0.18457 0.32230699 1.27051 4278190080
-0.22618 0.319336 1.28809 4278190080
-0.225586 0.32170901 1.28809 4278190080
-0.18570399 0.319336 1.28809 4278190080
-0.55546498 0.319336 1.3584 4278190080
-0.51152003 0.319336 1.3584 4278190080
-0.51269501 0.319336 1.3602999 4278190080
-0.55827099 0.32519501 1.3584 4278190080
-0.55957001 0.32703599 1.3584 4278190080
-0.553711 0.32519501 1.36404 4278190080
-0.51234299 0.32519501 1.3584 4278190080
-0.51269501 0.32519501 1.35964 4278190080
-0.55957001 0.31302601 1.28809 4278190080
-0.553711 0.31324399 1.28809 4278190080
-0.54785198 0.31158799 1.28809 4278190080
-0.53618199 0.30761701 1.28809 4278190080
-0.54199201 0.309829 1.28809 4278190080
-0.53613299 0.30761701 1.28813 4278190080
-0.53027302 0.30761701 1.29163 4278190080
-0.524414 0.30761701 1.29363 4278190080
-0.183687 0.32519501 1.27637 4278190080
-0.68611503 0.31347701 1.19434 4278190080
-0.220641 0.32519501 1.27637 4278190080
-0.21972699 0.33103499 1.27637 4278190080
-0.49511701 0.30175799 1.33885 4278190080
-0.48925799 0.30175799 1.33882 4278190080
-0.44238299 0.306566 1.33496 4278190080
-0.43436399 0.30175799 1.33496 4278190080
-0.43652299 0.30302799 1.33496 4278190080
-0.430664 0.30175799 1.3399301 4278190080
-0.68664098 0.30761701 1.2002 4278190080
-0.68847698 0.30761701 1.2054501 4278190080
-0.30761701 0.30175799 1.32621 4278190080
-0.30175799 0.30175799 1.3259701 4278190080
-0.235102 0.30175799 1.32324 4278190080
-0.231445 0.30175799 1.32687 4278190080
-0.20800801 0.30175799 1.32717 4278190080
-0.20214801 0.30175799 1.32885 4278190080
-0.19483601 0.30175799 1.32324 4278190080
-0.196289 0.30175799 1.32558 4278190080
-0.55402201 0.31347701 1.31152 4278190080
-0.524414 0.31895 1.31152 4278190080
-0.51855499 0.31792599 1.31152 4278190080
-0.51269501 0.316311 1.31152 4278190080
-0.50477201 0.31347701 1.31152 4278190080
-0.506836 0.313952 1.31152 4278190080
-0.50097698 0.31347701 1.31251 4278190080
-0.49511701 0.31347701 1.3169 4278190080
-0.30761701 0.30761701 1.32794 4278190080
-0.30175799 0.30761701 1.3264101 4278190080
-0.232566 0.30761701 1.32324 4278190080
-0.231445 0.309046 1.32324 4278190080
-0.231445 0.30761701 1.32432 4278190080
-0.225586 0.30761701 1.32618 4278190080
-0.21386699 0.30761701 1.32763 4278190080
-0.20800801 0.30761701 1.32564 4278190080
-0.20214801 0.31314799 1.32324 4278190080
-0.20214801 0.30761701 1.325 4278190080
-0.194736 0.30761701 1.32324 4278190080
-0.196289 0.30761701 1.32521 4278190080
-0.18457 0.32045501 1.27637 4278190080
-0.23308399 0.31347701 1.31152 4278190080
-0.231445 0.31791601 1.31152 4278190080
-0.188446 0.31347701 1.31152 4278190080
-0.19043 0.31347701 1.31596 4278190080
-0.430664 0.29885799 1.33496 4278190080
-0.42025301 0.29589799 1.33496 4278190080
-0.42480499 0.296996 1.33496 4278190080
-0.41894501 0.29589799 1.33586 4278190080
-0.413086 0.29589799 1.34038 4278190080
-0.31070101 0.29589799 1.3291 4278190080
-0.31347701 0.29589799 1.33135 4278190080
-0.30043599 0.29589799 1.3291 4278190080
-0.233163 0.29589799 1.3291 4278190080
-0.231445 0.29804099 1.3291 4278190080
-0.231445 0.29589799 1.33025 4278190080
-0.225586 0.29589799 1.33412 4278190080
-0.21972699 0.29589799 1.33266 4278190080
-0.20800801 0.298462 1.3291 4278190080
-0.20800801 0.29589799 1.33068 4278190080
-0.20038401 0.29589799 1.3291 4278190080
-0.20214801 0.30096099 1.3291 4278190080
-0.20214801 0.29589799 1.33043 4278190080
-0.51520801 0.319336 1.36426 4278190080
-0.51855499 0.319336 1.36704 4278190080
-0.227437 0.319336 1.29395 4278190080
-0.185619 0.319336 1.29395 4278190080
-0.55359399 0.32519501 1.36426 4278190080
-0.51403701 0.32519501 1.36426 4278190080
-0.68662298 0.31347701 1.2002 4278190080
-0.68847698 0.31347701 1.2058901 4278190080
-0.183465 0.32519501 1.28223 4278190080
-0.54199201 0.31305599 1.29395 4278190080
-0.53613299 0.31088901 1.29395 4278190080
-0.53027302 0.30919799 1.29395 4278190080
-0.52351201 0.30761701 1.29395 4278190080
-0.524414 0.30783701 1.29395 4278190080
-0.51855499 0.30761701 1.29574 4278190080
-0.51269501 0.30761701 1.29795 4278190080
-0.222073 0.32519501 1.28223 4278190080
-0.68881899 0.30761701 1.20605 4278190080
-0.506836 0.30175799 1.34545 4278190080
-0.49764699 0.30175799 1.34082 4278190080
-0.50097698 0.30509701 1.34082 4278190080
-0.50097698 0.30175799 1.34269 4278190080
-0.48494101 0.30175799 1.34082 4278190080
-0.48339799 0.30745101 1.34082 4278190080
-0.48339799 0.30175799 1.34161 4278190080
-0.477539 0.30175799 1.3444 4278190080
-0.43652299 0.304483 1.34082 4278190080
-0.42971101 0.30175799 1.34082 4278190080
-0.430664 0.30214801 1.34082 4278190080
-0.42480499 0.30175799 1.34474 4278190080
-0.30954599 0.30175799 1.3291 4278190080
-0.31347701 0.30175799 1.3331 4278190080
-0.29962599 0.30175799 1.3291 4278190080
-0.228058 0.30175799 1.3291 4278190080
-0.225586 0.30318901 1.3291 4278190080
-0.21972699 0.30175799 1.3315099 4278190080
-0.211392 0.30175799 1.3291 4278190080
-0.21386699 0.304952 1.3291 4278190080
-0.21386699 0.30175799 1.3309799 4278190080
-0.18457 0.32049099 1.28223 4278190080
-0.55450797 0.31347701 1.31738 4278190080
-0.506836 0.31809601 1.31738 4278190080
-0.50097698 0.31722599 1.31738 4278190080
-0.494928 0.31347701 1.31738 4278190080
-0.49511701 0.313752 1.31738 4278190080
-0.30816099 0.30761701 1.3291 4278190080
-0.30761701 0.31003299 1.3291 4278190080
-0.29934499 0.30761701 1.3291 4278190080
-0.22061799 0.30761701 1.3291 4278190080
-0.21768799 0.30761701 1.3291 4278190080
-0.21972699 0.30761701 1.33008 4278190080
-0.49511701 0.29810899 1.34082 4278190080
-0.49511701 0.29589799 1.3421 4278190080
-0.48925799 0.298145 1.34082 4278190080
-0.48925799 0.29589799 1.34217 4278190080
-0.48339799 0.29589799 1.34433 4278190080
-0.42480499 0.29921699 1.34082 4278190080
-0.41894501 0.29748201 1.34082 4278190080
-0.41229001 0.29589799 1.34082 4278190080
-0.413086 0.296087 1.34082 4278190080
-0.40722701 0.29589799 1.3432699 4278190080
-0.52042001 0.319336 1.37012 4278190080
-0.51855499 0.32416999 1.37012 4278190080
-0.31528699 0.29589799 1.33496 4278190080
-0.29806599 0.29589799 1.33496 4278190080
-0.232338 0.31347701 1.31738 4278190080
-0.231445 0.315164 1.31738 4278190080
-0.231445 0.31347701 1.3187 4278190080
-0.20214801 0.31347701 1.32307 4278190080
-0.191414 0.31347701 1.31738 4278190080
-0.19043 0.318315 1.31738 4278190080
-0.51768601 0.32519501 1.37012 4278190080
-0.51855499 0.32797799 1.37012 4278190080
-0.51855499 0.32519501 1.37062 4278190080
-0.68856698 0.31347701 1.20605 4278190080
-0.68847698 0.31418499 1.20605 4278190080
-0.228661 0.319336 1.2998 4278190080
-0.186147 0.319336 1.2998 4278190080
-0.183621 0.32519501 1.28809 4278190080
-0.69180697 0.30761701 1.21191 4278190080
-0.694336 0.30761701 1.21578 4278190080
-0.55957001 0.30761701 1.3022799 4278190080
-0.53027302 0.31276399 1.2998 4278190080
-0.524414 0.31119299 1.2998 4278190080
-0.51855499 0.31021199 1.2998 4278190080
-0.50925398 0.30761701 1.2998 4278190080
-0.51269501 0.308734 1.2998 4278190080
-0.506836 0.30761701 1.30125 4278190080
-0.50097698 0.30761701 1.30358 4278190080
-0.49511701 0.30761701 1.30487 4278190080
-0.224263 0.32519501 1.28809 4278190080
-0.225586 0.32519501 1.29074 4278190080
-0.50795299 0.30175799 1.34668 4278190080
-0.506836 0.306472 1.34668 4278190080
-0.47234899 0.30175799 1.34668 4278190080
-0.47167999 0.30596101 1.34668 4278190080
-0.47167999 0.30175799 1.3471 4278190080
-0.46582001 0.30175799 1.34992 4278190080
-0.459961 0.30175799 1.35244 4278190080
-0.43652299 0.306308 1.34668 4278190080
-0.430664 0.30411801 1.34668 4278190080
-0.42230901 0.30175799 1.34668 4278190080
-0.42480499 0.30262899 1.34668 4278190080
-0.41894501 0.30175799 1.34948 4278190080
-0.18457 0.321547 1.28809 4278190080
-0.314289 0.30175799 1.33496 4278190080
-0.31347701 0.30455399 1.33496 4278190080
-0.29703999 0.30175799 1.33496 4278190080
-0.29589799 0.30175799 1.34075 4278190080
-0.506836 0.299622 1.34668 4278190080
-0.49849001 0.29589799 1.34668 4278190080
-0.50097698 0.29802099 1.34668 4278190080
-0.50097698 0.29589799 1.3492399 4278190080
-0.47775599 0.29589799 1.34668 4278190080
-0.477539 0.29609999 1.34668 4278190080
-0.477539 0.29589799 1.3468 4278190080
-0.47167999 0.29589799 1.35024 4278190080
-0.41894501 0.29993099 1.34668 4278190080
-0.413086 0.298255 1.34668 4278190080
-0.402661 0.29589799 1.34668 4278190080
-0.40722701 0.29728401 1.34668 4278190080
-0.40136701 0.29589799 1.34777 4278190080
-0.55716699 0.31347701 1.32324 4278190080
-0.49343401 0.31347701 1.32324 4278190080
-0.49511701 0.31535101 1.32324 4278190080
-0.31183901 0.30761701 1.33496 4278190080
-0.31347701 0.30761701 1.33662 4278190080
-0.29618999 0.30761701 1.33496 4278190080
-0.29589799 0.30891201 1.33496 4278190080
-0.29589799 0.30761701 1.33588 4278190080
-0.69157302 0.31347701 1.21191 4278190080
-0.694336 0.31347701 1.21671 4278190080
-0.31895 0.29589799 1.34082 4278190080
-0.319336 0.29589799 1.34135 4278190080
-0.296294 0.29589799 1.34082 4278190080
-0.29589799 0.30158299 1.34082 4278190080
-0.29589799 0.29589799 1.34249 4278190080
-0.229791 0.319336 1.30566 4278190080
-0.186836 0.319336 1.30566 4278190080
-0.30175799 0.31347701 1.32763 4278190080
-0.227826 0.31347701 1.32324 4278190080
-0.225586 0.31554899 1.32324 4278190080
-0.225586 0.31347701 1.32504 4278190080
-0.21386699 0.31347701 1.32573 4278190080
-0.20319299 0.31347701 1.32324 4278190080
-0.20800801 0.31558701 1.32324 4278190080
-0.20133799 0.31347701 1.32324 4278190080
-0.19516499 0.31347701 1.32324 4278190080
-0.196289 0.31510901 1.32324 4278190080
-0.196289 0.31347701 1.32433 4278190080
-0.695988 0.30761701 1.21777 4278190080
-0.70019501 0.30761701 1.22286 4278190080
-0.18383799 0.32519501 1.29395 4278190080
-0.18457 0.32519501 1.29706 4278190080
-0.226559 0.32519501 1.29395 4278190080
-0.225586 0.328545 1.29395 4278190080
-0.55647999 0.30761701 1.30566 4278190080
-0.51269501 0.311905 1.30566 4278190080
-0.506836 0.31024399 1.30566 4278190080
-0.50097698 0.30893701 1.30566 4278190080
-0.494398 0.30761701 1.30566 4278190080
-0.49511701 0.30809999 1.30566 4278190080
-0.50971502 0.30175799 1.35254 4278190080
-0.45975199 0.30175799 1.35254 4278190080
-0.459961 0.30292699 1.35254 4278190080
-0.45410201 0.30175799 1.35461 4278190080
-0.44824201 0.30175799 1.35633 4278190080
-0.430664 0.30539399 1.35254 4278190080
-0.42480499 0.304162 1.35254 4278190080
-0.41414401 0.30175799 1.35254 4278190080
-0.41894501 0.30294099 1.35254 4278190080
-0.413086 0.30175799 1.35338 4278190080
-0.40722701 0.30175799 1.35747 4278190080
-0.18457 0.322182 1.29395 4278190080
-0.31705999 0.30175799 1.34082 4278190080
-0.319336 0.30175799 1.34429 4278190080
-0.29588801 0.30175799 1.34082 4278190080
-0.69528598 0.31347701 1.21777 4278190080
-0.70019501 0.31347701 1.22298 4278190080
-0.50293303 0.29589799 1.35254 4278190080
-0.506836 0.29944101 1.35254 4278190080
-0.46871799 0.29589799 1.35254 4278190080
-0.46582001 0.29797199 1.35254 4278190080
-0.46582001 0.29589799 1.35472 4278190080
-0.459961 0.30161899 1.35254 4278190080
-0.459961 0.29589799 1.35721 4278190080
-0.45410201 0.29589799 1.35765 4278190080
-0.413086 0.30128399 1.35254 4278190080
-0.40722701 0.299146 1.35254 4278190080
-0.39829701 0.29589799 1.35254 4278190080
-0.40136701 0.29753 1.35254 4278190080
-0.39550799 0.29589799 1.35524 4278190080
-0.31552401 0.30761701 1.34082 4278190080
-0.29498401 0.30761701 1.34082 4278190080
-0.70100498 0.30761701 1.22363 4278190080
-0.70605499 0.30761701 1.2276599 4278190080
-0.23077901 0.319336 1.31152 4278190080
-0.188244 0.319336 1.31152 4278190080
-0.322689 0.29589799 1.34668 4278190080
-0.32519501 0.29589799 1.35051 4278190080
-0.29470399 0.29589799 1.34668 4278190080
-0.741211 0.29589799 1.18455 4278190080
-0.73535198 0.29589799 1.18365 4278190080
-0.72949201 0.29589799 1.18542 4278190080
-0.72363299 0.29589799 1.18551 4278190080
-0.71777302 0.29589799 1.18495 4278190080
-0.711914 0.29589799 1.18472 4278190080
-0.70605499 0.29589799 1.18367 4278190080
-0.70019501 0.29589799 1.1835901 4278190080
-0.694336 0.29589799 1.18336 4278190080
-0.68847698 0.29589799 1.18276 4278190080
-0.559241 0.31347701 1.3291 4278190080
-0.55957001 0.31457499 1.3291 4278190080
-0.55957001 0.31347701 1.32987 4278190080
-0.492414 0.31347701 1.3291 4278190080
-0.49511701 0.315956 1.3291 4278190080
-0.49511701 0.31347701 1.3341 4278190080
-0.18457 0.32739601 1.2998 4278190080
-0.30408499 0.31347701 1.3291 4278190080
-0.30761701 0.31347701 1.33064 4278190080
-0.299557 0.31347701 1.3291 4278190080
-0.29589799 0.31347701 1.3328201 4278190080
-0.741211 0.30175799 1.18555 4278190080
-0.73535198 0.30175799 1.18469 4278190080
-0.72949201 0.30175799 1.18641 4278190080
-0.72363299 0.30175799 1.18661 4278190080
-0.71777302 0.30175799 1.1863 4278190080
-0.711914 0.30175799 1.18568 4278190080
-0.70605499 0.30175799 1.1852 4278190080
-0.70019501 0.30175799 1.18449 4278190080
-0.694336 0.30175799 1.18445 4278190080
-0.68847698 0.30175799 1.1838599 4278190080
-0.68261701 0.30175799 1.18756 4278190080
-0.227742 0.32519501 1.2998 4278190080
-0.185371 0.32519501 1.2998 4278190080
-0.74707001 0.319336 1.19162 4278190080
-0.741211 0.319336 1.18879 4278190080
-0.73535198 0.319336 1.18964 4278190080
-0.72949201 0.319336 1.19067 4278190080
-0.72363299 0.319336 1.1905 4278190080
-0.71777302 0.319336 1.18943 4278190080
-0.711914 0.319336 1.18897 4278190080
-0.70605499 0.319336 1.18871 4278190080
-0.70019501 0.319336 1.18907 4278190080
-0.694336 0.319336 1.18911 4278190080
-0.68847698 0.319336 1.1894 4278190080
-0.51269501 0.30322301 1.3584 4278190080
-0.51269501 0.30175799 1.36278 4278190080
-0.44348601 0.30175799 1.3584 4278190080
-0.44238299 0.30175799 1.35888 4278190080
-0.43652299 0.30175799 1.3602 4278190080
-0.430664 0.30602399 1.3584 4278190080
-0.430664 0.30175799 1.3619 4278190080
-0.42480499 0.304912 1.3584 4278190080
-0.42480499 0.30175799 1.36341 4278190080
-0.41894501 0.30446801 1.3584 4278190080
-0.413086 0.30338499 1.3584 4278190080
-0.40641499 0.30175799 1.3584 4278190080
-0.40722701 0.30219099 1.3584 4278190080
-0.55476397 0.30761701 1.31152 4278190080
-0.50097698 0.312655 1.31152 4278190080
-0.48994499 0.30761701 1.31152 4278190080
-0.49511701 0.310651 1.31152 4278190080
-0.48925799 0.30761701 1.31236 4278190080
-0.741211 0.31347701 1.22939 4278190080
-0.70086402 0.31347701 1.22363 4278190080
-0.70605499 0.31347701 1.22707 4278190080
-0.741211 0.31154299 1.22949 4278190080
-0.71777302 0.30761701 1.23171 4278190080
-0.70861101 0.30761701 1.22949 4278190080
-0.711914 0.30761701 1.2315201 4278190080
-0.452084 0.29589799 1.3584 4278190080
-0.44824201 0.29796299 1.3584 4278190080
-0.44824201 0.29589799 1.36006 4278190080
-0.44238299 0.29589799 1.36071 4278190080
-0.43652299 0.29589799 1.36226 4278190080
-0.430664 0.29589799 1.36262 4278190080
-0.42480499 0.29589799 1.3638901 4278190080
-0.40136701 0.299182 1.3584 4278190080
-0.393089 0.29589799 1.3584 4278190080
-0.39550799 0.297598 1.3584 4278190080
-0.38964799 0.29589799 1.36309 4278190080
-0.32109499 0.30175799 1.34668 4278190080
-0.319336 0.30521101 1.34668 4278190080
-0.294422 0.30175799 1.34668 4278190080
-0.31835499 0.30761701 1.34668 4278190080
-0.319336 0.30761701 1.3481899 4278190080
-0.29380399 0.30761701 1.34668 4278190080
-0.22895899 0.319336 1.31738 4278190080
-0.225586 0.319336 1.3200901 4278190080
-0.20800801 0.319336 1.32216 4278190080
-0.20214801 0.319336 1.32126 4278190080
-0.196289 0.319336 1.32082 4278190080
-0.190263 0.319336 1.31738 4278190080
-0.19043 0.319336 1.31761 4278190080
-0.74442703 0.29589799 1.18848 4278190080
-0.74707001 0.29589799 1.19078 4278190080
-0.683029 0.29589799 1.18848 4278190080
-0.68261701 0.299559 1.18848 4278190080
-0.32741001 0.29589799 1.35254 4278190080
-0.33105499 0.29589799 1.3567801 4278190080
-0.32519501 0.29957601 1.35254 4278190080
-0.29205701 0.29589799 1.35254 4278190080
-0.290039 0.29589799 1.35584 4278190080
-0.309351 0.31347701 1.33496 4278190080
-0.31347701 0.31347701 1.3407201 4278190080
-0.29533201 0.31347701 1.33496 4278190080
-0.55957001 0.31347701 1.3404599 4278190080
-0.49606001 0.31347701 1.33496 4278190080
-0.50097698 0.31347701 1.3372 4278190080
-0.745116 0.30175799 1.18848 4278190080
-0.74707001 0.30175799 1.18979 4278190080
-0.68255901 0.30175799 1.18848 4278190080
-0.68261701 0.305195 1.18848 4278190080
-0.68261701 0.30175799 1.1885999 4278190080
-0.228587 0.32519501 1.30566 4278190080
-0.186224 0.32519501 1.30566 4278190080
-0.68461502 0.319336 1.19434 4278190080
-0.68261701 0.32430199 1.19434 4278190080
-0.42241299 0.30175799 1.36426 4278190080
-0.41894501 0.302679 1.36426 4278190080
-0.41894501 0.30175799 1.36509 4278190080
-0.413086 0.30361 1.36426 4278190080
-0.413086 0.30175799 1.36631 4278190080
-0.405056 0.30175799 1.36426 4278190080
-0.40722701 0.30240399 1.36426 4278190080
-0.40722701 0.30175799 1.36545 4278190080
-0.741211 0.30761701 1.23823 4278190080
-0.72259599 0.30761701 1.23535 4278190080
-0.72363299 0.31294799 1.23535 4278190080
-0.38964799 0.32519501 1.4162199 4278190080
-0.383789 0.32519501 1.4158 4278190080
-0.37301201 0.32519501 1.41113 4278190080
-0.37792999 0.32519501 1.41491 4278190080
-0.741337 0.31347701 1.22949 4278190080
-0.741014 0.31347701 1.22949 4278190080
-0.741211 0.31360999 1.22949 4278190080
-0.741211 0.31347701 1.22981 4278190080
-0.72363299 0.31347701 1.23526 4278190080
-0.71777302 0.31347701 1.23207 4278190080
-0.70901603 0.31347701 1.22949 4278190080
-0.711914 0.31347701 1.23149 4278190080
-0.554461 0.30761701 1.31738 4278190080
-0.48697299 0.30761701 1.31738 4278190080
-0.48925799 0.30903599 1.31738 4278190080
-0.48339799 0.30761701 1.32309 4278190080
-0.424209 0.29589799 1.36426 4278190080
-0.41894501 0.29589799 1.36711 4278190080
-0.413086 0.29589799 1.36777 4278190080
-0.40136701 0.30056101 1.36426 4278190080
-0.39550799 0.298464 1.36426 4278190080
-0.38878801 0.29589799 1.36426 4278190080
-0.38964799 0.29655001 1.36426 4278190080
-0.32447699 0.30175799 1.35254 4278190080
-0.32519501 0.30175799 1.35382 4278190080
-0.29233101 0.30175799 1.35254 4278190080
-0.290039 0.30175799 1.35671 4278190080
-0.40136701 0.319336 1.42092 4278190080
-0.39550799 0.319336 1.41954 4278190080
-0.38964799 0.32352301 1.41699 4278190080
-0.38964799 0.319336 1.4187599 4278190080
-0.383789 0.32242799 1.41699 4278190080
-0.383789 0.319336 1.41835 4278190080
-0.377354 0.319336 1.41699 4278190080
-0.37792999 0.32024899 1.41699 4278190080
-0.37792999 0.319336 1.4173599 4278190080
-0.322496 0.30761701 1.35254 4278190080
-0.32519501 0.30761701 1.35761 4278190080
-0.319336 0.31302699 1.35254 4278190080
-0.29184499 0.30761701 1.35254 4278190080
-0.290039 0.30761701 1.35692 4278190080
-0.686086 0.29589799 1.19434 4278190080
-0.74707001 0.32519501 1.19198 4278190080
-0.741211 0.32519501 1.1892 4278190080
-0.73535198 0.32519501 1.19107 4278190080
-0.72949201 0.32519501 1.19153 4278190080
-0.72363299 0.32519501 1.19198 4278190080
-0.71777302 0.32519501 1.1907099 4278190080
-0.711914 0.32519501 1.19004 4278190080
-0.70605499 0.32519501 1.19014 4278190080
-0.70019501 0.32519501 1.19033 4278190080
-0.694336 0.32519501 1.1904 4278190080
-0.68847698 0.32519501 1.19078 4278190080
-0.68261701 0.32519501 1.19322 4278190080
-0.30175799 0.319336 1.32888 4278190080
-0.221121 0.319336 1.32324 4278190080
-0.211641 0.319336 1.32324 4278190080
-0.21386699 0.32040799 1.32324 4278190080
-0.21386699 0.319336 1.32426 4278190080
-0.686571 0.319336 1.2002 4278190080
-0.228378 0.32519501 1.31152 4278190080
-0.187876 0.32519501 1.31152 4278190080
-0.333018 0.29589799 1.3584 4278190080
-0.336914 0.29589799 1.3616199 4278190080
-0.33105499 0.29966301 1.3584 4278190080
-0.289464 0.29589799 1.3584 4278190080
-0.31354499 0.31347701 1.34082 4278190080
-0.31347701 0.3136 1.34082 4278190080
-0.294164 0.31347701 1.34082 4278190080
-0.68589002 0.30175799 1.19434 4278190080
-0.559479 0.31347701 1.34082 4278190080
-0.55957001 0.31362501 1.34082 4278190080
-0.55957001 0.31347701 1.34104 4278190080
-0.506666 0.31347701 1.34082 4278190080
-0.506836 0.31347701 1.34144 4278190080
-0.459961 0.31347701 1.34396 4278190080
-0.45410201 0.31347701 1.34395 4278190080
-0.44824201 0.31347701 1.3458 4278190080
-0.74707001 0.31865099 1.23535 4278190080
-0.741211 0.31876999 1.23535 4278190080
-0.72417998 0.31347701 1.23535 4278190080
-0.40136701 0.32519501 1.41988 4278190080
-0.39443401 0.32519501 1.41699 4278190080
-0.39550799 0.32593301 1.41699 4278190080
-0.39550799 0.32519501 1.41717 4278190080
-0.74375302 0.30761701 1.24121 4278190080
-0.74707001 0.30761701 1.24518 4278190080
-0.73871303 0.30761701 1.24121 4278190080
-0.741211 0.30974701 1.24121 4278190080
-0.741211 0.30761701 1.24305 4278190080
-0.72289503 0.30761701 1.24121 4278190080
-0.72363299 0.308736 1.24121 4278190080
-0.55561799 0.30761701 1.32324 4278190080
-0.48925799 0.31022799 1.32324 4278190080
-0.48324901 0.30761701 1.32324 4278190080
-0.48339799 0.30768499 1.32324 4278190080
-0.477539 0.30761701 1.32794 4278190080
-0.45410201 0.30761701 1.3291 4278190080
-0.336914 0.30175799 1.3631999 4278190080
-0.33023101 0.30175799 1.3584 4278190080
-0.33105499 0.30175799 1.35937 4278190080
-0.289547 0.30175799 1.3584 4278190080
-0.40768501 0.29589799 1.37012 4278190080
-0.40722701 0.29635701 1.37012 4278190080
-0.40722701 0.29589799 1.37033 4278190080
-0.40136701 0.29872301 1.37012 4278190080
-0.40136701 0.29589799 1.37185 4278190080
-0.39550799 0.29805401 1.37012 4278190080
-0.39550799 0.29589799 1.37293 4278190080
-0.386087 0.29589799 1.37012 4278190080
-0.38964799 0.29731801 1.37012 4278190080
-0.383789 0.29589799 1.37456 4278190080
-0.53027302 0.319336 1.42619 4278190080
-0.524414 0.319336 1.42717 4278190080
-0.413086 0.319336 1.4278001 4278190080
-0.40700901 0.319336 1.42285 4278190080
-0.40722701 0.319336 1.42293 4278190080
-0.682482 0.32519501 1.19434 4278190080
-0.68261701 0.32519501 1.19473 4278190080
-0.68681097 0.29589799 1.2002 4278190080
-0.68847698 0.29589799 1.2036 4278190080
-0.32628 0.30761701 1.3584 4278190080
-0.33105499 0.30761701 1.36242 4278190080
-0.32519501 0.30877599 1.3584 4278190080
-0.28963199 0.30761701 1.3584 4278190080
-0.68804002 0.319336 1.20605 4278190080
-0.68847698 0.319336 1.2066801 4278190080
-0.226216 0.32519501 1.31738 4278190080
-0.225586 0.32642499 1.31738 4278190080
-0.225586 0.32519501 1.31797 4278190080
-0.21386699 0.32519501 1.32108 4278190080
-0.20800801 0.32519501 1.32164 4278190080
-0.20214801 0.32949001 1.31738 4278190080
-0.20214801 0.32519501 1.31963 4278190080
-0.196289 0.329456 1.31738 4278190080
-0.196289 0.32519501 1.31961 4278190080
-0.18996701 0.32519501 1.31738 4278190080
-0.19043 0.32768601 1.31738 4278190080
-0.19043 0.32519501 1.31787 4278190080
-0.31635901 0.31347701 1.34668 4278190080
-0.293046 0.31347701 1.34668 4278190080
-0.30190101 0.319336 1.3291 4278190080
-0.30761701 0.319336 1.3345799 4278190080
-0.300984 0.319336 1.3291 4278190080
-0.30175799 0.31975999 1.3291 4278190080
-0.29589799 0.319336 1.33145 4278190080
-0.686616 0.30175799 1.2002 4278190080
-0.68847698 0.30175799 1.20415 4278190080
-0.33943099 0.29589799 1.36426 4278190080
-0.34277299 0.29589799 1.36782 4278190080
-0.28865299 0.29589799 1.36426 4278190080
-0.508376 0.31347701 1.34668 4278190080
-0.46270001 0.31347701 1.34668 4278190080
-0.459961 0.314421 1.34668 4278190080
-0.459961 0.31347701 1.34822 4278190080
-0.45410201 0.31438899 1.34668 4278190080
-0.44773501 0.31347701 1.34668 4278190080
-0.44824201 0.31384999 1.34668 4278190080
-0.72729701 0.31347701 1.24121 4278190080
-0.53613299 0.32519501 1.42665 4278190080
-0.53027302 0.32519501 1.425 4278190080
-0.524414 0.32519501 1.42636 4278190080
-0.404744 0.32519501 1.42285 4278190080
-0.40722701 0.32994899 1.42285 4278190080
-0.40722701 0.32519501 1.42467 4278190080
-0.74577302 0.30761701 1.24707 4278190080
-0.74707001 0.30914801 1.24707 4278190080
-0.72157902 0.30761701 1.24707 4278190080
-0.72363299 0.31057701 1.24707 4278190080
-0.72363299 0.30761701 1.2505 4278190080
-0.68992501 0.29589799 1.20605 4278190080
-0.55572802 0.30761701 1.3291 4278190080
-0.48925799 0.31113499 1.3291 4278190080
-0.48339799 0.30935401 1.3291 4278190080
-0.472615 0.30761701 1.3291 4278190080
-0.477539 0.308182 1.3291 4278190080
-0.47167999 0.30761701 1.32936 4278190080
-0.46582001 0.30761701 1.32929 4278190080
-0.45411599 0.30761701 1.3291 4278190080
-0.459961 0.30761701 1.3303601 4278190080
-0.45409101 0.30761701 1.3291 4278190080
-0.45410201 0.30761999 1.3291 4278190080
-0.44824201 0.30761701 1.3314101 4278190080
-0.68516099 0.32519501 1.2002 4278190080
-0.390616 0.29589799 1.37598 4278190080
-0.38964799 0.29640099 1.37598 4278190080
-0.38964799 0.29589799 1.37643 4278190080
-0.38232601 0.29589799 1.37598 4278190080
-0.383789 0.29626301 1.37598 4278190080
-0.383789 0.29589799 1.37667 4278190080
-0.69144303 0.319336 1.21191 4278190080
-0.694336 0.319336 1.21681 4278190080
-0.54199201 0.319336 1.4323699 4278190080
-0.53306401 0.319336 1.42871 4278190080
-0.53613299 0.32201001 1.42871 4278190080
-0.53613299 0.319336 1.4304301 4278190080
-0.51888001 0.319336 1.42871 4278190080
-0.51855499 0.319336 1.42881 4278190080
-0.51269501 0.319336 1.43277 4278190080
-0.41375601 0.319336 1.42871 4278190080
-0.413086 0.32201299 1.42871 4278190080
-0.31912199 0.31347701 1.35254 4278190080
-0.319336 0.31347701 1.35291 4278190080
-0.29178801 0.31347701 1.35254 4278190080
-0.290039 0.31347701 1.35811 4278190080
-0.33812001 0.30175799 1.36426 4278190080
-0.34277299 0.30175799 1.36823 4278190080
-0.336914 0.30420199 1.36426 4278190080
-0.28847 0.30175799 1.36426 4278190080
-0.34277299 0.30761701 1.36848 4278190080
-0.33454901 0.30761701 1.36426 4278190080
-0.336914 0.30761701 1.36558 4278190080
-0.33105499 0.31072199 1.36426 4278190080
-0.28850001 0.30761701 1.36426 4278190080
-0.74707001 0.31347701 1.25176 4278190080
-0.72655302 0.31347701 1.24707 4278190080
-0.68971503 0.30175799 1.20605 4278190080
-0.30780599 0.319336 1.33496 4278190080
-0.30761701 0.31980601 1.33496 4278190080
-0.29457101 0.319336 1.33496 4278190080
-0.344129 0.29589799 1.37012 4278190080
-0.28871101 0.29589799 1.37012 4278190080
-0.50956798 0.31347701 1.35254 4278190080
-0.454292 0.31347701 1.35254 4278190080
-0.45410201 0.31361601 1.35254 4278190080
-0.45410201 0.31347701 1.35268 4278190080
-0.44653901 0.31347701 1.35254 4278190080
-0.44824201 0.31452399 1.35254 4278190080
-0.44824201 0.31347701 1.35491 4278190080
-0.30175799 0.32519501 1.33206 4278190080
-0.29589799 0.32519501 1.3321 4278190080
-0.538625 0.32519501 1.42871 4278190080
-0.54199201 0.327438 1.42871 4278190080
-0.54199201 0.32519501 1.43134 4278190080
-0.52020001 0.32519501 1.42871 4278190080
-0.51855499 0.32519501 1.4296499 4278190080
-0.51269501 0.32519501 1.43231 4278190080
-0.41894501 0.32519501 1.4344 4278190080
-0.41170901 0.32519501 1.42871 4278190080
-0.413086 0.32519501 1.42968 4278190080
-0.74632901 0.30761701 1.25293 4278190080
-0.72530401 0.30761701 1.25293 4278190080
-0.691809 0.29589799 1.21191 4278190080
-0.694336 0.29589799 1.21571 4278190080
-0.68692303 0.32519501 1.20605 4278190080
-0.68847698 0.32519501 1.2086 4278190080
-0.695189 0.319336 1.21777 4278190080
-0.70019501 0.319336 1.22359 4278190080
-0.694336 0.32306099 1.21777 4278190080
-0.50097698 0.30761701 1.33802 4278190080
-0.49511701 0.31235299 1.33496 4278190080
-0.49511701 0.30761701 1.33658 4278190080
-0.48925799 0.311351 1.33496 4278190080
-0.48925799 0.30761701 1.33769 4278190080
-0.48339799 0.31001899 1.33496 4278190080
-0.48339799 0.30761701 1.34078 4278190080
-0.477539 0.309699 1.33496 4278190080
-0.47167999 0.309677 1.33496 4278190080
-0.46582001 0.31011701 1.33496 4278190080
-0.459961 0.310287 1.33496 4278190080
-0.45410201 0.30986601 1.33496 4278190080
-0.44387299 0.30761701 1.33496 4278190080
-0.44824201 0.30980501 1.33496 4278190080
-0.44238299 0.30761701 1.33673 4278190080
-0.51127201 0.319336 1.43457 4278190080
-0.506836 0.319336 1.43901 4278190080
-0.417541 0.319336 1.43457 4278190080
-0.41894501 0.324514 1.43457 4278190080
-0.41894501 0.319336 1.43661 4278190080
-0.344165 0.30175799 1.37012 4278190080
-0.28832 0.30175799 1.37012 4278190080
-0.74621499 0.31347701 1.25293 4278190080
-0.74707001 0.31435999 1.25293 4278190080
-0.74707001 0.31347701 1.25361 4278190080
-0.72573602 0.31347701 1.25293 4278190080
-0.72949201 0.31778201 1.25293 4278190080
-0.32339999 0.31347701 1.3584 4278190080
-0.32519501 0.31347701 1.36163 4278190080
-0.289947 0.31347701 1.3584 4278190080
-0.69176197 0.30175799 1.21191 4278190080
-0.694336 0.30175799 1.21585 4278190080
-0.344271 0.30761701 1.37012 4278190080
-0.34863299 0.30761701 1.3750499 4278190080
-0.28806201 0.30761701 1.37012 4278190080
-0.31030899 0.319336 1.34082 4278190080
-0.31347701 0.319336 1.34609 4278190080
-0.29318899 0.319336 1.34082 4278190080
-0.59472698 0.36035201 0.87143201 4278190080
-0.34841999 0.29589799 1.37598 4278190080
-0.34863299 0.29589799 1.37625 4278190080
-0.288899 0.29589799 1.37598 4278190080
-0.30341801 0.32519501 1.33496 4278190080
-0.30761701 0.32519501 1.33882 4278190080
-0.293625 0.32519501 1.33496 4278190080
-0.290039 0.32994801 1.33496 4278190080
-0.559277 0.31347701 1.3584 4278190080
-0.51185298 0.31347701 1.3584 4278190080
-0.51269501 0.31347701 1.35991 4278190080
-0.74665397 0.30761701 1.25879 4278190080
-0.74707001 0.30804399 1.25879 4278190080
-0.72480798 0.30761701 1.25879 4278190080
-0.60644501 0.30761701 1.26429 4278190080
-0.600586 0.30761701 1.26028 4278190080
-0.59472698 0.30761701 1.26299 4278190080
-0.51066202 0.32519501 1.43457 4278190080
-0.51269501 0.33005801 1.43457 4278190080
-0.506836 0.32519501 1.4402601 4278190080
-0.41909701 0.32519501 1.43457 4278190080
-0.41894501 0.325688 1.43457 4278190080
-0.69598597 0.29589799 1.21777 4278190080
-0.70019501 0.29589799 1.2230901 4278190080
-0.69068801 0.32519501 1.21191 4278190080
-0.70023501 0.319336 1.22363 4278190080
-0.70605499 0.319336 1.22788 4278190080
-0.70019501 0.31944799 1.22363 4278190080
-0.55558503 0.30761701 1.34082 4278190080
-0.50322098 0.30761701 1.34082 4278190080
-0.483347 0.30761701 1.34082 4278190080
-0.477539 0.31011301 1.34082 4278190080
-0.477539 0.30761701 1.3431 4278190080
-0.47167999 0.310969 1.34082 4278190080
-0.47167999 0.30761701 1.34647 4278190080
-0.46582001 0.31155801 1.34082 4278190080
-0.459961 0.31226701 1.34082 4278190080
-0.45410201 0.31239301 1.34082 4278190080
-0.44824201 0.311196 1.34082 4278190080
-0.44069201 0.30761701 1.34082 4278190080
-0.44238299 0.308927 1.34082 4278190080
-0.34792 0.30175799 1.37598 4278190080
-0.34863299 0.304878 1.37598 4278190080
-0.34863299 0.30175799 1.37695 4278190080
-0.28811899 0.30175799 1.37598 4278190080
-0.695952 0.30175799 1.21777 4278190080
-0.70019501 0.30175799 1.22284 4278190080
-0.727391 0.31347701 1.25879 4278190080
-0.72949201 0.318048 1.25879 4278190080
-0.50569201 0.319336 1.44043 4278190080
-0.42118901 0.319336 1.44043 4278190080
-0.42480499 0.319336 1.4458801 4278190080
-0.34908399 0.30761701 1.37598 4278190080
-0.28799999 0.30761701 1.37598 4278190080
-0.34277299 0.31347701 1.3694201 4278190080
-0.336914 0.31347701 1.36789 4278190080
-0.32899901 0.31347701 1.36426 4278190080
-0.33105499 0.31347701 1.3659101 4278190080
-0.32519501 0.31761399 1.36426 4278190080
-0.288443 0.31347701 1.36426 4278190080
-0.59655201 0.36035201 0.87207001 4278190080
-0.600586 0.36035201 0.87356502 4278190080
-0.59074497 0.36035201 0.87207001 4278190080
-0.59472698 0.36142999 0.87207001 4278190080
-0.58886701 0.36035201 0.87268901 4278190080
-0.58300799 0.36035201 0.87612098 4278190080
-0.40136701 0.30175799 1.42208 4278190080
-0.39550799 0.30175799 1.42226 4278190080
-0.37792999 0.30175799 1.42226 4278190080
-0.35182399 0.29589799 1.38184 4278190080
-0.35449201 0.29589799 1.38536 4278190080
-0.28898701 0.29589799 1.38184 4278190080
-0.31386301 0.319336 1.34668 4278190080
-0.31347701 0.32015401 1.34668 4278190080
-0.29212499 0.319336 1.34668 4278190080
-0.51431799 0.31347701 1.36426 4278190080
-0.51855499 0.31347701 1.36842 4278190080
-0.600586 0.35449201 0.87058502 4278190080
-0.59472698 0.35449201 0.86751598 4278190080
-0.58886701 0.35449201 0.86852002 4278190080
-0.58300799 0.35449201 0.87145603 4278190080
-0.308725 0.32519501 1.34082 4278190080
-0.30761701 0.32786399 1.34082 4278190080
-0.29147801 0.32519501 1.34082 4278190080
-0.290039 0.32747501 1.34082 4278190080
-0.724617 0.30761701 1.26465 4278190080
-0.60665399 0.30761701 1.26465 4278190080
-0.60644501 0.30775699 1.26465 4278190080
-0.60644501 0.30761701 1.2648799 4278190080
-0.600586 0.30943701 1.26465 4278190080
-0.59332103 0.30761701 1.26465 4278190080
-0.59472698 0.30840001 1.26465 4278190080
-0.58886701 0.30761701 1.26905 4278190080
-0.59472698 0.336914 0.857638 4278190080
-0.58886701 0.336914 0.856332 4278190080
-0.58300799 0.336914 0.85786301 4278190080
-0.58886701 0.33105499 0.852377 4278190080
-0.58300799 0.33105499 0.85384703 4278190080
-0.73535198 0.29589799 1.22717 4278190080
-0.711914 0.29589799 1.22873 4278190080
-0.70087302 0.29589799 1.22363 4278190080
-0.70605499 0.29589799 1.22848 4278190080
-0.65332001 0.29589799 1.22887 4278190080
-0.647461 0.29589799 1.22856 4278190080
-0.64160198 0.29589799 1.2278399 4278190080
-0.63574201 0.29589799 1.22895 4278190080
-0.69390702 0.32519501 1.21777 4278190080
-0.694336 0.32519501 1.21823 4278190080
-0.50677502 0.32519501 1.44043 4278190080
-0.506836 0.32554001 1.44043 4278190080
-0.42295799 0.32519501 1.44043 4278190080
-0.42480499 0.32519501 1.44403 4278190080
-0.73535198 0.30175799 1.22752 4278190080
-0.70099699 0.30175799 1.22363 4278190080
-0.70605499 0.30175799 1.22802 4278190080
-0.74707001 0.319336 1.2351 4278190080
-0.741211 0.319336 1.23511 4278190080
-0.72363299 0.319336 1.23221 4278190080
-0.71777302 0.319336 1.23347 4278190080
-0.70892698 0.319336 1.22949 4278190080
-0.711914 0.319336 1.23129 4278190080
-0.72749501 0.31347701 1.26465 4278190080
-0.50650197 0.30761701 1.34668 4278190080
-0.506836 0.30896699 1.34668 4278190080
-0.506836 0.30761701 1.34729 4278190080
-0.47133699 0.30761701 1.34668 4278190080
-0.46582001 0.31142399 1.34668 4278190080
-0.46582001 0.30761701 1.34881 4278190080
-0.43809101 0.30761701 1.34668 4278190080
-0.44238299 0.310359 1.34668 4278190080
-0.43652299 0.30761701 1.34894 4278190080
-0.350743 0.30175799 1.38184 4278190080
-0.28872401 0.30175799 1.38184 4278190080
-0.50538898 0.319336 1.44629 4278190080
-0.50097698 0.319336 1.45208 4278190080
-0.42520699 0.319336 1.44629 4278190080
-0.430664 0.319336 1.45082 4278190080
-0.352034 0.30761701 1.38184 4278190080
-0.35449201 0.30761701 1.38711 4278190080
-0.28816101 0.30761701 1.38184 4278190080
-0.31703201 0.319336 1.35254 4278190080
-0.319336 0.319336 1.35728 4278190080
-0.29109499 0.319336 1.35254 4278190080
-0.290039 0.319336 1.3583601 4278190080
-0.40332901 0.30175799 1.42285 4278190080
-0.40722701 0.30175799 1.42422 4278190080
-0.392616 0.30175799 1.42285 4278190080
-0.38964799 0.30319199 1.42285 4278190080
-0.38964799 0.30175799 1.42352 4278190080
-0.379969 0.30175799 1.42285 4278190080
-0.383789 0.30317301 1.42285 4278190080
-0.383789 0.30175799 1.42383 4278190080
-0.343665 0.31347701 1.37012 4278190080
-0.34863299 0.31347701 1.37421 4278190080
-0.34277299 0.315568 1.37012 4278190080
-0.287792 0.31347701 1.37012 4278190080
-0.605564 0.36035201 0.87792999 4278190080
-0.60644501 0.36035201 0.878672 4278190080
-0.58044702 0.36035201 0.87792999 4278190080
-0.58300799 0.36267099 0.87792999 4278190080
-0.57714802 0.36035201 0.88063103 4278190080
-0.520208 0.31347701 1.37012 4278190080
-0.58886701 0.34277299 0.86023003 4278190080
-0.60194403 0.35449201 0.87207001 4278190080
-0.60644501 0.35449201 0.876086 4278190080
-0.600586 0.35762799 0.87207001 4278190080
-0.58886701 0.35956699 0.87207001 4278190080
-0.582012 0.35449201 0.87207001 4278190080
-0.58300799 0.355272 0.87207001 4278190080
-0.57714802 0.35449201 0.87582999 4278190080
-0.35637301 0.29589799 1.3877 4278190080
-0.36035201 0.29589799 1.39214 4278190080
-0.35449201 0.29971099 1.3877 4278190080
-0.28986201 0.29589799 1.3877 4278190080
-0.290039 0.29589799 1.38806 4278190080
-0.31129801 0.32519501 1.34668 4278190080
-0.31347701 0.32519501 1.35044 4278190080
-0.291004 0.32519501 1.34668 4278190080
-0.290039 0.326864 1.34668 4278190080
-0.70605499 0.32519501 1.2282799 4278190080
-0.698852 0.32519501 1.22363 4278190080
-0.70019501 0.32519501 1.225 4278190080
-0.59782797 0.336914 0.86035198 4278190080
-0.600586 0.336914 0.86266297 4278190080
-0.59472698 0.342118 0.86035198 4278190080
-0.57862002 0.336914 0.86035198 4278190080
-0.58300799 0.34048799 0.86035198 4278190080
-0.57714802 0.336914 0.86128098 4278190080
-0.571289 0.336914 0.86595303 4278190080
-0.50530398 0.32519501 1.44629 4278190080
-0.42646301 0.32519501 1.44629 4278190080
-0.430664 0.32519501 1.45153 4278190080
