# .PCD v0.7 - Point Cloud Data file format
VERSION 0.7
FIELDS x y z rgb
SIZE 4 4 4 4
TYPE F F F U
COUNT 1 1 1 1
WIDTH 1181
HEIGHT 1
VIEWPOINT 0 0 0 1 0 0 0
POINTS 1181
DATA ascii
0.058952302 0.0322266 1.25879 4278190080
0.30840099 0.0322266 1.25293 4278190080
0.31347701 0.0322266 1.2542 4278190080
0.319336 0.0322266 1.25556 4278190080
0.32519501 0.0322266 1.2566299 4278190080
0.33105499 0.0322266 1.2578501 4278190080
0.0525993 0.0380859 1.27051 4278190080
0.049804699 0.0438703 1.27051 4278190080
0.33825001 0.0146484 1.26465 4278190080
0.34277299 0.0196098 1.26465 4278190080
0.34277299 0.0146484 1.26597 4278190080
0.34863299 0.0146484 1.2682101 4278190080
0.35449201 0.0146484 1.27026 4278190080
0.34388301 0.043945301 1.25879 4278190080
0.34863299 0.043945301 1.26008 4278190080
0.35449201 0.043945301 1.2622499 4278190080
0.36035201 0.043945301 1.26464 4278190080
0.0497788 0.043945301 1.27051 4278190080
0.328444 0.026367201 1.25879 4278190080
0.33105499 0.028537 1.25879 4278190080
0.33105499 0.026367201 1.25936 4278190080
0.336914 0.026367201 1.2608401 4278190080
0.34277299 0.026367201 1.2625099 4278190080
0.34863299 0.026367201 1.2645 4278190080
0.33945701 0.0380859 1.25879 4278190080
0.34277299 0.0426942 1.25879 4278190080
0.34277299 0.0380859 1.25974 4278190080
0.34863299 0.0380859 1.26133 4278190080
0.35449201 0.0380859 1.26329 4278190080
0.059525501 0.020507799 1.27637 4278190080
0.059547201 0.026367201 1.26465 4278190080
0.061878901 0.0146484 1.27637 4278190080
0.0615234 0.0152706 1.27637 4278190080
0.343449 0.020507799 1.26465 4278190080
0.34863299 0.025910901 1.26465 4278190080
0.34863299 0.020507799 1.2663 4278190080
0.35449201 0.020507799 1.2685601 4278190080
0.057553299 0.0322266 1.26465 4278190080
0.0556641 0.035245702 1.26465 4278190080
0.0556641 0.0322266 1.26959 4278190080
0.33428001 0.0322266 1.25879 4278190080
0.336914 0.035204999 1.25879 4278190080
0.336914 0.0322266 1.25954 4278190080
0.34277299 0.0322266 1.26112 4278190080
0.34863299 0.0322266 1.26288 4278190080
0.0524856 0.0380859 1.27637 4278190080
0.049804699 0.043425102 1.27637 4278190080
0.137695 0.0380859 1.28045 4278190080
0.143555 0.0380859 1.27942 4278190080
0.178711 0.0380859 1.2793 4278190080
0.18457 0.0380859 1.2793 4278190080
0.35503 0.0146484 1.27051 4278190080
0.36035201 0.0146484 1.27294 4278190080
0.366211 0.0146484 1.27601 4278190080
0.36037901 0.043945301 1.26465 4278190080
0.366211 0.043945301 1.26724 4278190080
0.37792999 0.0192941 1.28223 4278190080
0.37792999 0.0146484 1.28573 4278190080
0.049612898 0.043945301 1.27637 4278190080
0.049804699 0.043945301 1.27709 4278190080
0.131836 0.043945301 1.2816 4278190080
0.137695 0.043945301 1.27977 4278190080
0.143555 0.043945301 1.27918 4278190080
0.15527301 0.048847999 1.27637 4278190080
0.16113301 0.046865601 1.27637 4278190080
0.16699199 0.047008801 1.27637 4278190080
0.17285199 0.045818102 1.27637 4278190080
0.178711 0.045593001 1.27637 4278190080
0.178711 0.043945301 1.27801 4278190080
0.18457 0.044638298 1.27637 4278190080
0.18457 0.043945301 1.27649 4278190080
0.37792999 0.020507799 1.28132 4278190080
0.34907201 0.026367201 1.26465 4278190080
0.35449201 0.026367201 1.26639 4278190080
0.36035201 0.026367201 1.26906 4278190080
0.35858899 0.0380859 1.26465 4278190080
0.36035201 0.043853 1.26465 4278190080
0.36035201 0.0380859 1.26534 4278190080
0.366211 0.0380859 1.2690099 4278190080
0.060349699 0.020507799 1.28223 4278190080
0.0615234 0.020507799 1.28493 4278190080
0.131836 0.020507799 1.28734 4278190080
0.15527301 0.024189901 1.28223 4278190080
0.16113301 0.024146199 1.28223 4278190080
0.16699199 0.0230613 1.28223 4278190080
0.17285199 0.0253196 1.28223 4278190080
0.178711 0.024753699 1.28223 4278190080
0.178711 0.020507799 1.28452 4278190080
0.18457 0.023267601 1.28223 4278190080
0.18457 0.020507799 1.2842799 4278190080
0.37792999 0.026367201 1.27855 4278190080
0.058652598 0.026367201 1.27051 4278190080
0.0556641 0.031883799 1.27051 4278190080
0.0623862 0.0146484 1.28223 4278190080
0.0615234 0.016672401 1.28223 4278190080
0.067382798 0.0146484 1.2880501 4278190080
0.137695 0.0146484 1.28629 4278190080
0.143555 0.0146484 1.2853 4278190080
0.149414 0.0146484 1.28528 4278190080
0.18457 0.0146484 1.2851501 4278190080
0.359211 0.020507799 1.27051 4278190080
0.36035201 0.0219498 1.27051 4278190080
0.36035201 0.020507799 1.271 4278190080
0.366211 0.020507799 1.27377 4278190080
0.055513602 0.0322266 1.27051 4278190080
0.37792999 0.034834102 1.27637 4278190080
0.37792999 0.0322266 1.27712 4278190080
0.354341 0.0322266 1.26465 4278190080
0.35449201 0.032429099 1.26465 4278190080
0.35449201 0.0322266 1.2647001 4278190080
0.36035201 0.0322266 1.26693 4278190080
0.366211 0.0322266 1.27021 4278190080
0.054106101 0.0380859 1.28223 4278190080
0.0556641 0.0380859 1.28434 4278190080
0.0615234 0.0380859 1.28681 4278190080
0.120117 0.0380859 1.28677 4278190080
0.133325 0.0380859 1.28223 4278190080
0.131836 0.041349102 1.28223 4278190080
0.371923 0.043945301 1.27051 4278190080
0.37207001 0.044541702 1.27051 4278190080
0.37207001 0.043945301 1.2706 4278190080
0.36679101 0.0146484 1.27637 4278190080
0.37207001 0.0146484 1.27957 4278190080
0.36342701 0.026367201 1.27051 4278190080
0.366211 0.031181101 1.27051 4278190080
0.366211 0.026367201 1.27193 4278190080
0.37207001 0.026367201 1.27472 4278190080
0.37911001 0.0146484 1.28809 4278190080
0.37792999 0.0380859 1.27548 4278190080
0.37850499 0.020507799 1.28223 4278190080
0.052526802 0.043945301 1.28223 4278190080
0.0556641 0.043945301 1.28545 4278190080
0.120117 0.043945301 1.2868 4278190080
0.13068999 0.043945301 1.28223 4278190080
0.12597699 0.0478957 1.28223 4278190080
0.37792999 0.043945301 1.27424 4278190080
0.057668801 0.026367201 1.27637 4278190080
0.0556641 0.0300289 1.27637 4278190080
0.15527301 0.026367201 1.28065 4278190080
0.16113301 0.026367201 1.28064 4278190080
0.16699199 0.026367201 1.28017 4278190080
0.17285199 0.026367201 1.28157 4278190080
0.178711 0.026367201 1.28107 4278190080
0.18457 0.026367201 1.27995 4278190080
0.36899799 0.0380859 1.27051 4278190080
0.37207001 0.0380859 1.27215 4278190080
0.38127199 0.026367201 1.28223 4278190080
0.383789 0.026367201 1.28504 4278190080
0.064309701 0.020507799 1.28809 4278190080
0.067382798 0.020507799 1.29049 4278190080
0.130619 0.020507799 1.28809 4278190080
0.12597699 0.0263048 1.28809 4278190080
0.12597699 0.020507799 1.2907701 4278190080
0.067432202 0.0146484 1.28809 4278190080
0.067382798 0.0147235 1.28809 4278190080
0.073242202 0.0146484 1.2927099 4278190080
0.12597699 0.0146484 1.29321 4278190080
0.13503499 0.0146484 1.28809 4278190080
0.131836 0.019253699 1.28809 4278190080
0.37036899 0.020507799 1.27637 4278190080
0.37207001 0.022686999 1.27637 4278190080
0.37207001 0.020507799 1.2773401 4278190080
0.054791901 0.0322266 1.27637 4278190080
0.0556641 0.0322266 1.27876 4278190080
0.143555 0.0322266 1.27942 4278190080
0.149414 0.0322266 1.27993 4278190080
0.15527301 0.0322266 1.27931 4278190080
0.16699199 0.0322266 1.2793 4278190080
0.17285199 0.0322266 1.27973 4278190080
0.178711 0.0322266 1.2792799 4278190080
0.383481 0.0322266 1.28223 4278190080
0.383789 0.032688599 1.28223 4278190080
0.383789 0.0322266 1.28249 4278190080
0.19043 0.0146484 1.28539 4278190080
0.196289 0.0146484 1.28578 4278190080
0.20214801 0.0146484 1.28703 4278190080
0.20800801 0.0146484 1.28658 4278190080
0.21386699 0.0146484 1.28697 4278190080
0.37451199 0.0146484 1.28223 4278190080
0.36691201 0.0322266 1.27051 4278190080
0.37207001 0.0322266 1.27294 4278190080
0.0625249 0.0380859 1.28809 4278190080
0.0615234 0.0400103 1.28809 4278190080
0.11827 0.0380859 1.28809 4278190080
0.19043 0.049081098 1.27637 4278190080
0.196289 0.043945301 1.27878 4278190080
0.20214801 0.043945301 1.2798001 4278190080
0.20800801 0.043945301 1.27985 4278190080
0.21386699 0.043945301 1.2807 4278190080
0.21972699 0.043945301 1.28013 4278190080
0.225586 0.043945301 1.2805001 4278190080
0.231445 0.043945301 1.28049 4278190080
0.237305 0.043945301 1.28089 4278190080
0.37475201 0.026367201 1.27637 4278190080
0.38147101 0.0146484 1.29395 4278190080
0.383789 0.0187185 1.29395 4278190080
0.37909701 0.0380859 1.27637 4278190080
0.383789 0.0380859 1.27949 4278190080
0.058692001 0.043945301 1.28809 4278190080
0.0615234 0.043945301 1.29333 4278190080
0.108398 0.043945301 1.29224 4278190080
0.117668 0.043945301 1.28809 4278190080
0.114258 0.045706701 1.28809 4278190080
0.19043 0.0380859 1.27926 4278190080
0.196289 0.0380859 1.27981 4278190080
0.20214801 0.0380859 1.28016 4278190080
0.20800801 0.0380859 1.2809 4278190080
0.21386699 0.0380859 1.28083 4278190080
0.21972699 0.0380859 1.28047 4278190080
0.231445 0.0380859 1.28193 4278190080
0.38212201 0.020507799 1.28809 4278190080
0.383789 0.023199899 1.28809 4278190080
0.383789 0.020507799 1.29123 4278190080
0.38504499 0.026367201 1.28809 4278190080
0.071056999 0.020507799 1.29395 4278190080
0.073242202 0.020507799 1.29568 4278190080
0.0791016 0.020507799 1.29919 4278190080
0.121936 0.020507799 1.29395 4278190080
0.120117 0.021917799 1.29395 4278190080
0.38196799 0.043945301 1.27637 4278190080
0.383789 0.0463266 1.27637 4278190080
0.383789 0.043945301 1.27728 4278190080
0.38964799 0.043945301 1.28181 4278190080
0.074045703 0.0146484 1.29395 4278190080
0.073242202 0.016542699 1.29395 4278190080
0.0791016 0.0146484 1.29768 4278190080
0.125027 0.0146484 1.29395 4278190080
0.120117 0.0146484 1.29647 4278190080
0.058015201 0.026367201 1.28223 4278190080
0.0615234 0.026367201 1.28634 4278190080
0.12597699 0.026367201 1.2880501 4278190080
0.131836 0.026367201 1.2852499 4278190080
0.143555 0.027824201 1.28223 4278190080
0.150534 0.026367201 1.28223 4278190080
0.149414 0.0270395 1.28223 4278190080
0.188766 0.026367201 1.28223 4278190080
0.057927299 0.0322266 1.28223 4278190080
0.0556641 0.035417601 1.28223 4278190080
0.0615234 0.0322266 1.28616 4278190080
0.12597699 0.0322266 1.2852499 4278190080
0.13819601 0.0322266 1.28223 4278190080
0.137695 0.033192199 1.28223 4278190080
0.19043 0.020507799 1.28431 4278190080
0.196289 0.020507799 1.28468 4278190080
0.20800801 0.020507799 1.2850699 4278190080
0.21386699 0.020507799 1.2856899 4278190080
0.21972699 0.020507799 1.2854 4278190080
0.225586 0.020507799 1.28701 4278190080
0.19043 0.0322266 1.28018 4278190080
0.196289 0.0322266 1.28118 4278190080
0.20214801 0.0322266 1.28125 4278190080
0.20800801 0.0322266 1.2812999 4278190080
0.37683001 0.0322266 1.27637 4278190080
0.216286 0.0146484 1.28809 4278190080
0.21972699 0.016292199 1.28809 4278190080
0.21972699 0.0146484 1.28974 4278190080
0.225586 0.0182645 1.28809 4278190080
0.225586 0.0146484 1.2902 4278190080
0.231445 0.0146484 1.29066 4278190080
0.237305 0.0146484 1.29082 4278190080
0.243164 0.0146484 1.29118 4278190080
0.24902301 0.0146484 1.29268 4278190080
0.25488299 0.0146484 1.29338 4278190080
0.38726899 0.0322266 1.28809 4278190080
0.38964799 0.0358584 1.28809 4278190080
0.38964799 0.0322266 1.29182 4278190080
0.064940602 0.0380859 1.29395 4278190080
0.067382798 0.0380859 1.296 4278190080
0.108398 0.040176202 1.29395 4278190080
0.108398 0.0380859 1.2949899 4278190080
0.243063 0.043945301 1.28223 4278190080
0.243164 0.0440882 1.28223 4278190080
0.243164 0.043945301 1.28225 4278190080
0.24902301 0.043945301 1.28444 4278190080
0.25488299 0.043945301 1.28495 4278190080
0.26074201 0.043945301 1.28624 4278190080
0.26660201 0.043945301 1.28664 4278190080
0.19043 0.028234201 1.28223 4278190080
0.19043 0.026367201 1.28333 4278190080
0.196289 0.029110599 1.28223 4278190080
0.20214801 0.0298361 1.28223 4278190080
0.20800801 0.030568801 1.28223 4278190080
0.20800801 0.026367201 1.2839299 4278190080
0.21386699 0.026367201 1.28396 4278190080
0.21972699 0.026367201 1.28418 4278190080
0.225586 0.026367201 1.28493 4278190080
0.231445 0.026367201 1.28537 4278190080
0.237305 0.026367201 1.28645 4278190080
0.243164 0.026367201 1.28781 4278190080
0.38225901 0.0146484 1.2998 4278190080
0.383789 0.016521901 1.2998 4278190080
0.383789 0.0146484 1.30325 4278190080
0.223326 0.0380859 1.28223 4278190080
0.230479 0.0380859 1.28223 4278190080
0.225586 0.040380701 1.28223 4278190080
0.23229 0.0380859 1.28223 4278190080
0.237305 0.041145399 1.28223 4278190080
0.243164 0.0380859 1.28412 4278190080
0.24902301 0.0380859 1.2854 4278190080
0.25488299 0.0380859 1.2869999 4278190080
0.26074201 0.0380859 1.28782 4278190080
0.38610101 0.0380859 1.28223 4278190080
0.38964799 0.0433851 1.28223 4278190080
0.38964799 0.0380859 1.28613 4278190080
0.081199601 0.0146484 1.2998 4278190080
0.0849609 0.0146484 1.30344 4278190080
0.090820298 0.0146484 1.3054 4278190080
0.116331 0.0146484 1.2998 4278190080
0.114258 0.0146484 1.30187 4278190080
0.38705799 0.026367201 1.29395 4278190080
0.38964799 0.0303661 1.29395 4278190080
0.38452601 0.020507799 1.29395 4278190080
0.0617841 0.043945301 1.29395 4278190080
0.0615234 0.044461399 1.29395 4278190080
0.106618 0.043945301 1.29395 4278190080
0.102539 0.043945301 1.29714 4278190080
0.079670303 0.020507799 1.2998 4278190080
0.0791016 0.021293201 1.2998 4278190080
0.0849609 0.020507799 1.30475 4278190080
0.108398 0.020507799 1.3036799 4278190080
0.114258 0.021147801 1.2998 4278190080
0.065784797 0.026367201 1.28809 4278190080
0.067382798 0.026367201 1.2889 4278190080
0.12593301 0.026367201 1.28809 4278190080
0.120117 0.026367201 1.2907799 4278190080
0.23071299 0.020507799 1.28809 4278190080
0.231445 0.020745501 1.28809 4278190080
0.231445 0.020507799 1.28824 4278190080
0.237305 0.0228546 1.28809 4278190080
0.237305 0.020507799 1.2891001 4278190080
0.243164 0.0259436 1.28809 4278190080
0.243164 0.020507799 1.29004 4278190080
0.24902301 0.020507799 1.2903399 4278190080
0.25488299 0.020507799 1.29167 4278190080
0.26074201 0.020507799 1.29138 4278190080
0.26660201 0.020507799 1.29116 4278190080
0.272461 0.020507799 1.29239 4278190080
0.38984901 0.043945301 1.28223 4278190080
0.063658498 0.0322266 1.28809 4278190080
0.114258 0.0322266 1.29144 4278190080
0.12156 0.0322266 1.28809 4278190080
0.120117 0.035261001 1.28809 4278190080
0.120117 0.0322266 1.28953 4278190080
0.210793 0.0322266 1.28223 4278190080
0.21386699 0.034630701 1.28223 4278190080
0.21972699 0.034222499 1.28223 4278190080
0.231445 0.0376416 1.28223 4278190080
0.237305 0.0322266 1.2845401 4278190080
0.243164 0.0322266 1.28522 4278190080
0.24902301 0.0322266 1.28642 4278190080
0.26074201 0.0322266 1.28801 4278190080
0.25981501 0.0146484 1.29395 4278190080
0.26074201 0.0148191 1.29395 4278190080
0.26074201 0.0146484 1.29404 4278190080
0.26660201 0.016102901 1.29395 4278190080
0.26660201 0.0146484 1.29506 4278190080
0.272461 0.018252 1.29395 4278190080
0.272461 0.0146484 1.29635 4278190080
0.27832001 0.0146484 1.29717 4278190080
0.28417999 0.0146484 1.29798 4278190080
0.290039 0.0146484 1.29882 4278190080
0.29589799 0.0146484 1.29881 4278190080
0.30175799 0.0146484 1.29922 4278190080
0.070475496 0.0380859 1.2998 4278190080
0.067382798 0.043134801 1.2998 4278190080
0.073242202 0.0380859 1.30259 4278190080
0.0791016 0.0380859 1.30177 4278190080
0.104069 0.0380859 1.2998 4278190080
0.102539 0.039972998 1.2998 4278190080
0.27214599 0.043945301 1.28809 4278190080
0.272461 0.0442334 1.28809 4278190080
0.27832001 0.044881798 1.28809 4278190080
0.27832001 0.043945301 1.2884001 4278190080
0.28417999 0.0480524 1.28809 4278190080
0.28417999 0.043945301 1.28906 4278190080
0.290039 0.046905201 1.28809 4278190080
0.290039 0.043945301 1.2898901 4278190080
0.29589799 0.043945301 1.28995 4278190080
0.30175799 0.043945301 1.29109 4278190080
0.30761701 0.043945301 1.29164 4278190080
0.31347701 0.043945301 1.2922601 4278190080
0.24387901 0.026367201 1.28809 4278190080
0.24902301 0.029256299 1.28809 4278190080
0.24902301 0.026367201 1.28935 4278190080
0.25488299 0.026367201 1.2893699 4278190080
0.26074201 0.032110199 1.28809 4278190080
0.26074201 0.026367201 1.29021 4278190080
0.26660201 0.026367201 1.29064 4278190080
0.272461 0.026367201 1.29182 4278190080
0.27832001 0.026367201 1.2929699 4278190080
0.28417999 0.026367201 1.29234 4278190080
0.39043301 0.0322266 1.29395 4278190080
0.0666207 0.043945301 1.2998 4278190080
0.067382798 0.043945301 1.30033 4278190080
0.073242202 0.043945301 1.3018301 4278190080
0.0791016 0.043945301 1.3022 4278190080
0.099916197 0.043945301 1.2998 4278190080
0.086129703 0.020507799 1.30566 4278190080
0.090820298 0.020507799 1.3085001 4278190080
0.106395 0.020507799 1.30566 4278190080
0.102539 0.020507799 1.31049 4278190080
0.261886 0.0380859 1.28809 4278190080
0.26660201 0.0404252 1.28809 4278190080
0.272461 0.0380859 1.28924 4278190080
0.27832001 0.0380859 1.28984 4278190080
0.28417999 0.0380859 1.2904201 4278190080
0.290039 0.0380859 1.29137 4278190080
0.29589799 0.0380859 1.29154 4278190080
0.30175799 0.0380859 1.29277 4278190080
0.30761701 0.0380859 1.29222 4278190080
0.38432699 0.0146484 1.30566 4278190080
0.383789 0.0146484 1.3101 4278190080
0.091071203 0.0146484 1.30566 4278190080
0.090820298 0.0151238 1.30566 4278190080
0.109944 0.0146484 1.30566 4278190080
0.108398 0.017158899 1.30566 4278190080
0.108398 0.0146484 1.30721 4278190080
0.38614699 0.020507799 1.2998 4278190080
0.389384 0.026367201 1.2998 4278190080
0.38964799 0.0267311 1.2998 4278190080
0.38964799 0.026367201 1.3011 4278190080
0.390544 0.0380859 1.28809 4278190080
0.39258301 0.043945301 1.28809 4278190080
0.39550799 0.043945301 1.29289 4278190080
0.066246197 0.0322266 1.29395 4278190080
0.067382798 0.0322266 1.29512 4278190080
0.11141 0.0322266 1.29395 4278190080
0.108398 0.0322266 1.29809 4278190080
0.070294902 0.026367201 1.29395 4278190080
0.067382798 0.030197401 1.29395 4278190080
0.073242202 0.026367201 1.29655 4278190080
0.115643 0.026367201 1.29395 4278190080
0.114258 0.028151199 1.29395 4278190080
0.114258 0.026367201 1.29574 4278190080
0.27726799 0.020507799 1.29395 4278190080
0.27832001 0.0222515 1.29395 4278190080
0.27832001 0.020507799 1.2942899 4278190080
0.28417999 0.023255199 1.29395 4278190080
0.290039 0.020507799 1.29628 4278190080
0.29589799 0.020507799 1.2968 4278190080
0.30175799 0.020507799 1.29739 4278190080
0.30761701 0.020507799 1.29759 4278190080
0.31347701 0.020507799 1.2989 4278190080
0.25473401 0.0322266 1.28809 4278190080
0.25740799 0.0322266 1.28809 4278190080
0.25488299 0.0325105 1.28809 4278190080
0.25488299 0.0322266 1.2881401 4278190080
0.26090601 0.0322266 1.28809 4278190080
0.272461 0.0322266 1.28996 4278190080
0.27832001 0.0322266 1.2909499 4278190080
0.28417999 0.0322266 1.29196 4278190080
0.290039 0.0322266 1.29331 4278190080
0.29589799 0.0322266 1.29251 4278190080
0.30175799 0.0322266 1.29354 4278190080
0.30321699 0.0146484 1.2998 4278190080
0.30761701 0.0168219 1.2998 4278190080
0.30761701 0.0146484 1.3009599 4278190080
0.31347701 0.019040501 1.2998 4278190080
0.31347701 0.0146484 1.302 4278190080
0.319336 0.0146484 1.30309 4278190080
0.32519501 0.0146484 1.30467 4278190080
0.082693703 0.0380859 1.30566 4278190080
0.0849609 0.0380859 1.30914 4278190080
0.31817701 0.043945301 1.29395 4278190080
0.319336 0.046073701 1.29395 4278190080
0.319336 0.043945301 1.29431 4278190080
0.32519501 0.043945301 1.2951601 4278190080
0.33105499 0.043945301 1.29681 4278190080
0.336914 0.043945301 1.2993799 4278190080
0.28806299 0.026367201 1.29395 4278190080
0.290039 0.029982099 1.29395 4278190080
0.290039 0.026367201 1.29469 4278190080
0.29589799 0.0298039 1.29395 4278190080
0.29589799 0.026367201 1.29561 4278190080
0.30175799 0.0315185 1.29395 4278190080
0.30175799 0.026367201 1.296 4278190080
0.30761701 0.026367201 1.29636 4278190080
0.31347701 0.026367201 1.29688 4278190080
0.319336 0.026367201 1.29949 4278190080
0.391996 0.0322266 1.2998 4278190080
0.0816174 0.043945301 1.30566 4278190080
0.0791016 0.0486704 1.30566 4278190080
0.0849609 0.043945301 1.31137 4278190080
0.090820298 0.043945301 1.31059 4278190080
0.31183201 0.0380859 1.29395 4278190080
0.31347701 0.0398333 1.29395 4278190080
0.31347701 0.0380859 1.2945499 4278190080
0.319336 0.0380859 1.29568 4278190080
0.32519501 0.0380859 1.2962199 4278190080
0.33105499 0.0380859 1.2971801 4278190080
0.0934074 0.020507799 1.31152 4278190080
0.090820298 0.0235462 1.31152 4278190080
0.100984 0.020507799 1.31152 4278190080
0.096679702 0.020507799 1.31394 4278190080
0.095587403 0.0146484 1.31152 4278190080
0.096679702 0.0146484 1.3128 4278190080
0.103917 0.0146484 1.31152 4278190080
0.102539 0.0182172 1.31152 4278190080
0.102539 0.0146484 1.31305 4278190080
0.38319701 0.0146484 1.31152 4278190080
0.37792999 0.0146484 1.3131 4278190080
0.383789 0.0155364 1.31152 4278190080
0.38692999 0.020507799 1.30566 4278190080
0.38964799 0.025265301 1.30566 4278190080
0.392658 0.0380859 1.29395 4278190080
0.39550799 0.043045301 1.29395 4278190080
0.39586699 0.043945301 1.29395 4278190080
0.390228 0.026367201 1.30566 4278190080
0.073121503 0.0322266 1.2998 4278190080
0.073242202 0.0322266 1.29988 4278190080
0.0791016 0.0322266 1.30302 4278190080
0.0849609 0.0322266 1.30541 4278190080
0.106903 0.0322266 1.2998 4278190080
0.102539 0.0322266 1.30251 4278190080
0.075822897 0.026367201 1.2998 4278190080
0.073242202 0.032026801 1.2998 4278190080
0.0791016 0.026367201 1.30299 4278190080
0.0849609 0.026367201 1.3045501 4278190080
0.110134 0.026367201 1.2998 4278190080
0.108398 0.0292386 1.2998 4278190080
0.31523699 0.020507799 1.2998 4278190080
0.319336 0.0256985 1.2998 4278190080
0.319336 0.020507799 1.30111 4278190080
0.32519501 0.020507799 1.3024499 4278190080
0.33105499 0.020507799 1.30387 4278190080
0.0871986 0.0380859 1.31152 4278190080
0.090820298 0.0424054 1.31152 4278190080
0.30290899 0.0322266 1.29395 4278190080
0.30761701 0.0348268 1.29395 4278190080
0.30761701 0.0322266 1.2952 4278190080
0.31347701 0.0322266 1.29566 4278190080
0.319336 0.0322266 1.2964799 4278190080
0.32519501 0.0322266 1.29803 4278190080
0.32732201 0.0146484 1.30566 4278190080
0.33105499 0.017368 1.30566 4278190080
0.33105499 0.0146484 1.30722 4278190080
0.336914 0.0146484 1.31081 4278190080
0.320636 0.026367201 1.2998 4278190080
0.32519501 0.028293701 1.2998 4278190080
0.32519501 0.026367201 1.30047 4278190080
0.33105499 0.026367201 1.3019 4278190080
0.336914 0.026367201 1.3047301 4278190080
0.33795899 0.043945301 1.2998 4278190080
0.34277299 0.043945301 1.30111 4278190080
0.34863299 0.043945301 1.30397 4278190080
0.392488 0.0322266 1.30566 4278190080
0.39550799 0.0365167 1.30566 4278190080
0.0849609 0.044488698 1.31152 4278190080
0.336216 0.0380859 1.2998 4278190080
0.336914 0.041549701 1.2998 4278190080
0.336914 0.0380859 1.30024 4278190080
0.34277299 0.0380859 1.30222 4278190080
0.37792999 0.020507799 1.31435 4278190080
0.38589901 0.020507799 1.31152 4278190080
0.383789 0.020507799 1.31259 4278190080
0.38964799 0.025547899 1.31152 4278190080
0.383789 0.026367201 1.31419 4278190080
0.39001599 0.026367201 1.31152 4278190080
0.38964799 0.026367201 1.31185 4278190080
0.085810401 0.026367201 1.30566 4278190080
0.102539 0.027687199 1.30566 4278190080
0.085155703 0.0322266 1.30566 4278190080
0.0849609 0.032601502 1.30566 4278190080
0.099558197 0.0322266 1.30566 4278190080
0.096679702 0.0322266 1.30913 4278190080
0.39730701 0.043945301 1.2998 4278190080
0.39437899 0.0380859 1.2998 4278190080
0.39550799 0.0396965 1.2998 4278190080
0.39550799 0.0380859 1.30238 4278190080
0.334438 0.020507799 1.30566 4278190080
0.336914 0.0243851 1.30566 4278190080
0.336914 0.020507799 1.30774 4278190080
0.34277299 0.020507799 1.30994 4278190080
0.329916 0.0322266 1.2998 4278190080
0.33105499 0.032922 1.2998 4278190080
0.33105499 0.0322266 1.30015 4278190080
0.336914 0.0322266 1.30229 4278190080
0.33884999 0.0146484 1.31152 4278190080
0.34277299 0.0174054 1.31152 4278190080
0.34277299 0.0146484 1.3126301 4278190080
0.35080999 0.043945301 1.30566 4278190080
0.35449201 0.043945301 1.3088599 4278190080
0.33856601 0.026367201 1.30566 4278190080
0.34277299 0.026367201 1.3084199 4278190080
0.34863299 0.026367201 1.31118 4278190080
0.37792999 0.0322266 1.31612 4278190080
0.383789 0.0322266 1.31335 4278190080
0.39197099 0.0322266 1.31152 4278190080
0.38964799 0.0322266 1.3125 4278190080
0.39550799 0.036624901 1.31152 4278190080
0.34819701 0.0380859 1.30566 4278190080
0.34863299 0.0392709 1.30566 4278190080
0.34863299 0.0380859 1.30606 4278190080
0.35449201 0.0380859 1.31033 4278190080
0.089171499 0.026367201 1.31152 4278190080
0.090820298 0.026367201 1.31359 4278190080
0.096679702 0.029193399 1.31152 4278190080
0.096679702 0.026367201 1.31398 4278190080
0.088504001 0.0322266 1.31152 4278190080
0.093424 0.0322266 1.31152 4278190080
0.090820298 0.0322266 1.31543 4278190080
0.34519601 0.020507799 1.31152 4278190080
0.34863299 0.025764 1.31152 4278190080
0.34863299 0.020507799 1.3142999 4278190080
0.37792999 0.0256937 1.31738 4278190080
0.39631599 0.0380859 1.30566 4278190080
0.37870699 0.026367201 1.31738 4278190080
0.37792999 0.0280318 1.31738 4278190080
0.37792999 0.026367201 1.31777 4278190080
0.38964799 0.043945301 1.3115 4278190080
0.397753 0.043945301 1.30566 4278190080
0.34201401 0.0322266 1.30566 4278190080
0.34277299 0.032889798 1.30566 4278190080
0.34277299 0.0322266 1.30627 4278190080
0.34863299 0.0322266 1.30855 4278190080
0.34847701 0.0146484 1.31738 4278190080
0.34863299 0.0150096 1.31738 4278190080
0.34863299 0.0146484 1.3175 4278190080
0.35449201 0.0146484 1.3194799 4278190080
0.36035201 0.0146484 1.32242 4278190080
0.366211 0.0146484 1.3216 4278190080
0.37319201 0.0146484 1.31738 4278190080
0.37207001 0.0146484 1.31911 4278190080
0.358877 0.043945301 1.31152 4278190080
0.36035201 0.046895701 1.31152 4278190080
0.36035201 0.043945301 1.31215 4278190080
0.366211 0.043945301 1.3149101 4278190080
0.37207001 0.043945301 1.31618 4278190080
0.349139 0.026367201 1.31152 4278190080
0.35449201 0.026367201 1.31517 4278190080
0.35604101 0.0380859 1.31152 4278190080
0.36035201 0.0380859 1.3134 4278190080
0.35366499 0.020507799 1.31738 4278190080
0.35449201 0.021674 1.31738 4278190080
0.35449201 0.020507799 1.3178 4278190080
0.36035201 0.020507799 1.32051 4278190080
0.366211 0.020507799 1.32122 4278190080
0.373649 0.020507799 1.31738 4278190080
0.37207001 0.020507799 1.31881 4278190080
0.37792999 0.043945301 1.31672 4278190080
0.38960701 0.043945301 1.31152 4278190080
0.383789 0.043945301 1.31436 4278190080
0.38979399 0.043945301 1.31152 4278190080
0.39663199 0.043945301 1.31152 4278190080
0.39550799 0.043945301 1.31217 4278190080
0.37792999 0.0380859 1.3171099 4278190080
0.383789 0.0380859 1.31463 4278190080
0.38964799 0.043802999 1.31152 4278190080
0.38964799 0.0380859 1.31208 4278190080
0.396056 0.0380859 1.31152 4278190080
0.39550799 0.0380859 1.31212 4278190080
0.358181 0.026367201 1.31738 4278190080
0.36035201 0.029529 1.31738 4278190080
0.36035201 0.026367201 1.31836 4278190080
0.366211 0.026367201 1.32061 4278190080
0.37207001 0.026367201 1.3188 4278190080
0.35258299 0.0322266 1.31152 4278190080
0.35449201 0.035602 1.31152 4278190080
0.35449201 0.0322266 1.31252 4278190080
0.36035201 0.0322266 1.31631 4278190080
0.36554399 0.0380859 1.31738 4278190080
0.366211 0.0393668 1.31738 4278190080
0.366211 0.0380859 1.31822 4278190080
0.375999 0.0380859 1.31738 4278190080
0.37207001 0.039520901 1.31738 4278190080
0.37207001 0.0380859 1.31779 4278190080
0.37792999 0.048750501 1.31738 4278190080
0.36247501 0.0322266 1.31738 4278190080
0.366211 0.0322266 1.31891 4278190080
0.37597901 0.0322266 1.31738 4278190080
0.37207001 0.0322266 1.3194799 4278190080
0.108398 0.0556641 1.22864 4278190080
0.114258 0.0556641 1.22785 4278190080
0.120117 0.0556641 1.2275 4278190080
0.12597699 0.0556641 1.22725 4278190080
0.131836 0.0556641 1.22711 4278190080
0.137695 0.0556641 1.22727 4278190080
0.143555 0.0556641 1.2282799 4278190080
0.149414 0.0556641 1.2282 4278190080
0.15527301 0.0556641 1.2282799 4278190080
0.16113301 0.0556641 1.2282 4278190080
0.16699199 0.0556641 1.22844 4278190080
0.108398 0.049804699 1.2294101 4278190080
0.114258 0.049804699 1.2287199 4278190080
0.120117 0.049804699 1.2281801 4278190080
0.12597699 0.049804699 1.22789 4278190080
0.131836 0.049804699 1.22789 4278190080
0.137695 0.049804699 1.2278301 4278190080
0.143555 0.049804699 1.22868 4278190080
0.149414 0.049804699 1.22875 4278190080
0.15527301 0.049804699 1.22874 4278190080
0.16113301 0.049804699 1.2290601 4278190080
0.16699199 0.049804699 1.22946 4278190080
0.0849609 0.0791016 1.2291501 4278190080
0.090820298 0.0791016 1.22808 4278190080
0.096679702 0.0791016 1.22724 4278190080
0.102539 0.0791016 1.22623 4278190080
0.108398 0.0791016 1.22528 4278190080
0.114258 0.0791016 1.22463 4278190080
0.120117 0.0791016 1.22463 4278190080
0.12597699 0.083982699 1.22363 4278190080
0.12597699 0.0791016 1.22448 4278190080
0.131836 0.0840161 1.22363 4278190080
0.131836 0.0791016 1.22434 4278190080
0.137695 0.0791016 1.22478 4278190080
0.143555 0.0791016 1.22466 4278190080
0.149414 0.0791016 1.22491 4278190080
0.15527301 0.0791016 1.22543 4278190080
0.16113301 0.0791016 1.2257 4278190080
0.16699199 0.0791016 1.22629 4278190080
0.17285199 0.0791016 1.22732 4278190080
0.178711 0.0791016 1.22799 4278190080
0.18457 0.0791016 1.22855 4278190080
0.090820298 0.073242202 1.22896 4278190080
0.096679702 0.073242202 1.22803 4278190080
0.102539 0.073242202 1.22707 4278190080
0.108398 0.073242202 1.22636 4278190080
0.114258 0.073242202 1.22562 4278190080
0.120117 0.073242202 1.22543 4278190080
0.12597699 0.073242202 1.22535 4278190080
0.131836 0.073242202 1.22527 4278190080
0.137695 0.073242202 1.2257 4278190080
0.143555 0.073242202 1.22553 4278190080
0.149414 0.073242202 1.2256 4278190080
0.15527301 0.073242202 1.22569 4278190080
0.16113301 0.073242202 1.22606 4278190080
0.16699199 0.073242202 1.22656 4278190080
0.17285199 0.073242202 1.22724 4278190080
0.178711 0.073242202 1.22788 4278190080
0.18457 0.073242202 1.22879 4278190080
0.0791016 0.0556641 1.23351 4278190080
0.0849609 0.0556641 1.23145 4278190080
0.090820298 0.0556641 1.23081 4278190080
0.096679702 0.0556641 1.23005 4278190080
0.103271 0.0556641 1.22949 4278190080
0.102539 0.056214999 1.22949 4278190080
0.102539 0.0556641 1.2296 4278190080
0.172681 0.0556641 1.22949 4278190080
0.17285199 0.055997401 1.22949 4278190080
0.17285199 0.0556641 1.22953 4278190080
0.178711 0.059726499 1.22949 4278190080
0.178711 0.0556641 1.2299401 4278190080
0.18457 0.0556641 1.2302999 4278190080
0.0791016 0.049804699 1.23481 4278190080
0.0849609 0.049804699 1.2329299 4278190080
0.090820298 0.049804699 1.23219 4278190080
0.096679702 0.049804699 1.23113 4278190080
0.107772 0.049804699 1.22949 4278190080
0.102539 0.049804699 1.23025 4278190080
0.16720299 0.049804699 1.22949 4278190080
0.17285199 0.049804699 1.23041 4278190080
0.178711 0.049804699 1.2308 4278190080
0.18457 0.049804699 1.23119 4278190080
0.067382798 0.0791016 1.23434 4278190080
0.073242202 0.0791016 1.23183 4278190080
0.082764499 0.0791016 1.22949 4278190080
0.0791016 0.082322098 1.22949 4278190080
0.0791016 0.0791016 1.23006 4278190080
0.102539 0.0615234 1.22831 4278190080
0.108398 0.0615234 1.22813 4278190080
0.114258 0.0615234 1.22742 4278190080
0.120117 0.0615234 1.22727 4278190080
0.12597699 0.0615234 1.22672 4278190080
0.131836 0.0615234 1.22677 4278190080
0.137695 0.0615234 1.22685 4278190080
0.143555 0.0615234 1.22723 4278190080
0.149414 0.0615234 1.22724 4278190080
0.15527301 0.0615234 1.22734 4278190080
0.16113301 0.0615234 1.22737 4278190080
0.16699199 0.0615234 1.22759 4278190080
0.17285199 0.0615234 1.22895 4278190080
0.178711 0.0615234 1.22929 4278190080
0.073242202 0.073242202 1.2331001 4278190080
0.0791016 0.073242202 1.23078 4278190080
0.087854303 0.073242202 1.22949 4278190080
0.0849609 0.076657899 1.22949 4278190080
0.0849609 0.073242202 1.22999 4278190080
0.067382798 0.0556641 1.2405 4278190080
0.075407498 0.0556641 1.23535 4278190080
0.073242202 0.060421798 1.23535 4278190080
0.073242202 0.0556641 1.23642 4278190080
0.078191802 0.049804699 1.23535 4278190080
0.073242202 0.049804699 1.23832 4278190080
0.096679702 0.067382798 1.22866 4278190080
0.102539 0.067382798 1.22815 4278190080
0.108398 0.067382798 1.2272 4278190080
0.114258 0.067382798 1.2266999 4278190080
0.120117 0.067382798 1.22632 4278190080
0.12597699 0.067382798 1.22622 4278190080
0.131836 0.067382798 1.22592 4278190080
0.137695 0.067382798 1.22613 4278190080
0.143555 0.067382798 1.22636 4278190080
0.149414 0.067382798 1.2266099 4278190080
0.15527301 0.067382798 1.22646 4278190080
0.16113301 0.067382798 1.22664 4278190080
0.16699199 0.067382798 1.22684 4278190080
0.17285199 0.067382798 1.2279201 4278190080
0.178711 0.067382798 1.2284499 4278190080
0.18457 0.067382798 1.2287101 4278190080
0.0657105 0.0791016 1.23535 4278190080
0.0615234 0.0791016 1.23774 4278190080
0.0615234 0.073242202 1.23905 4278190080
0.068082601 0.073242202 1.23535 4278190080
0.067382798 0.074371196 1.23535 4278190080
0.067382798 0.073242202 1.23562 4278190080
0.073242202 0.0615234 1.23509 4278190080
0.0791016 0.0615234 1.23218 4278190080
0.0849609 0.0615234 1.23075 4278190080
0.090820298 0.0615234 1.2301199 4278190080
0.096707299 0.0615234 1.22949 4278190080
0.096679702 0.061562099 1.22949 4278190080
0.096679702 0.0615234 1.2295001 4278190080
0.183117 0.0615234 1.22949 4278190080
0.18457 0.061970599 1.22949 4278190080
0.18457 0.0615234 1.22956 4278190080
0.073242202 0.067382798 1.23412 4278190080
0.0791016 0.067382798 1.23158 4278190080
0.0849609 0.067382798 1.23081 4278190080
0.091397598 0.067382798 1.22949 4278190080
0.090820298 0.068292499 1.22949 4278190080
0.090820298 0.067382798 1.2295901 4278190080
0.0615234 0.049804699 1.24652 4278190080
0.068408303 0.049804699 1.24121 4278190080
0.067382798 0.053042501 1.24121 4278190080
0.067382798 0.049804699 1.24189 4278190080
0.066487998 0.0556641 1.24121 4278190080
0.0615234 0.0556641 1.24431 4278190080
0.0567763 0.0791016 1.24121 4278190080
0.0556641 0.082766898 1.24121 4278190080
0.0556641 0.0791016 1.24209 4278190080
0.058690399 0.073242202 1.24121 4278190080
0.0556641 0.073242202 1.2434601 4278190080
0.072821498 0.0615234 1.23535 4278190080
0.067382798 0.0615234 1.23868 4278190080
0.058899499 0.0556641 1.24707 4278190080
0.0556641 0.0556641 1.25056 4278190080
0.061019301 0.049804699 1.24707 4278190080
0.0556641 0.049804699 1.25225 4278190080
0.0615234 0.067382798 1.24085 4278190080
0.070972599 0.067382798 1.23535 4278190080
0.067382798 0.067382798 1.23713 4278190080
0.052184802 0.073242202 1.24707 4278190080
0.049804699 0.073242202 1.24935 4278190080
0.0500356 0.0791016 1.24707 4278190080
0.049804699 0.079771399 1.24707 4278190080
0.049804699 0.0791016 1.24728 4278190080
0.063788898 0.0615234 1.24121 4278190080
0.0615234 0.066334099 1.24121 4278190080
0.0615234 0.0615234 1.24281 4278190080
0.0532832 0.0556641 1.25293 4278190080
0.049804699 0.0556641 1.25729 4278190080
0.055097502 0.049804699 1.25293 4278190080
0.061004199 0.067382798 1.24121 4278190080
0.0556641 0.067382798 1.24559 4278190080
0.0469319 0.073242202 1.25293 4278190080
0.043945301 0.073242202 1.25674 4278190080
0.044670898 0.0791016 1.25293 4278190080
0.043945301 0.081364803 1.25293 4278190080
0.043945301 0.0791016 1.25466 4278190080
0.049093999 0.0556641 1.25879 4278190080
0.057123899 0.0615234 1.24707 4278190080
0.0556641 0.064677797 1.24707 4278190080
0.0556641 0.0615234 1.2483701 4278190080
0.051731698 0.049804699 1.25879 4278190080
0.049804699 0.0530289 1.25879 4278190080
0.049804699 0.049804699 1.2612799 4278190080
0.054416999 0.067382798 1.24707 4278190080
0.049804699 0.067382798 1.25132 4278190080
0.0426617 0.073242202 1.25879 4278190080
0.0425326 0.0791016 1.25879 4278190080
0.047533501 0.0556641 1.26465 4278190080
0.0491101 0.049804699 1.26465 4278190080
0.050743598 0.0615234 1.25293 4278190080
0.049804699 0.063616201 1.25293 4278190080
0.049804699 0.0615234 1.2541699 4278190080
0.048494201 0.067382798 1.25293 4278190080
0.043945301 0.067382798 1.25862 4278190080
0.041451801 0.073242202 1.26465 4278190080
0.046827901 0.0556641 1.27051 4278190080
0.149414 0.0556641 1.27581 4278190080
0.15527301 0.0556641 1.27361 4278190080
0.16113301 0.0556641 1.27364 4278190080
0.16699199 0.0556641 1.27355 4278190080
0.17285199 0.0556641 1.27354 4278190080
0.178711 0.0556641 1.27352 4278190080
0.18457 0.0556641 1.27341 4278190080
0.040663101 0.0791016 1.26465 4278190080
0.0380859 0.083333299 1.26465 4278190080
0.0484198 0.049804699 1.27051 4278190080
0.15527301 0.049804699 1.27581 4278190080
0.16113301 0.049804699 1.27449 4278190080
0.16699199 0.049804699 1.27446 4278190080
0.17285199 0.049804699 1.2736 4278190080
0.178711 0.049804699 1.27362 4278190080
0.18457 0.049804699 1.27543 4278190080
0.046923999 0.0615234 1.25879 4278190080
0.043945301 0.067108899 1.25879 4278190080
0.041408699 0.073242202 1.27051 4278190080
0.131836 0.073242202 1.27448 4278190080
0.143555 0.073242202 1.2733099 4278190080
0.149414 0.073242202 1.27291 4278190080
0.15527301 0.073242202 1.27281 4278190080
0.16699199 0.073242202 1.27258 4278190080
0.178711 0.073242202 1.27282 4278190080
0.0438678 0.067382798 1.25879 4278190080
0.047116298 0.0556641 1.27637 4278190080
0.12597699 0.0556641 1.28003 4278190080
0.131836 0.0556641 1.27887 4278190080
0.137695 0.059759401 1.27637 4278190080
0.145665 0.0556641 1.27637 4278190080
0.143555 0.056922901 1.27637 4278190080
0.039188899 0.0791016 1.27051 4278190080
0.0380859 0.0816122 1.27051 4278190080
0.12597699 0.0791016 1.27465 4278190080
0.131836 0.0791016 1.2735699 4278190080
0.15527301 0.0791016 1.27246 4278190080
0.16113301 0.0791016 1.27227 4278190080
0.16699199 0.083355904 1.27051 4278190080
0.178711 0.0791016 1.27209 4278190080
0.18457 0.0791016 1.27206 4278190080
0.048690099 0.049804699 1.27637 4278190080
0.049804699 0.049804699 1.28098 4278190080
0.12597699 0.049804699 1.28107 4278190080
0.131836 0.049804699 1.27923 4278190080
0.153916 0.049804699 1.27637 4278190080
0.149414 0.054307099 1.27637 4278190080
0.0448507 0.0615234 1.26465 4278190080
0.043945301 0.063700899 1.26465 4278190080
0.19043 0.049804699 1.23173 4278190080
0.196289 0.049804699 1.23191 4278190080
0.20214801 0.049804699 1.23282 4278190080
0.20800801 0.049804699 1.23344 4278190080
0.21386699 0.049804699 1.23401 4278190080
0.21972699 0.049804699 1.23447 4278190080
0.225586 0.049804699 1.2350399 4278190080
0.0413935 0.073242202 1.27637 4278190080
0.114258 0.073242202 1.28027 4278190080
0.12846901 0.073242202 1.27637 4278190080
0.12597699 0.075944804 1.27637 4278190080
0.19043 0.073242202 1.22917 4278190080
0.043351199 0.067382798 1.26465 4278190080
0.19043 0.067382798 1.22888 4278190080
0.19043 0.0556641 1.23077 4278190080
0.196289 0.0556641 1.23147 4278190080
0.20214801 0.0556641 1.23203 4278190080
0.20800801 0.0556641 1.23253 4278190080
0.21386699 0.0556641 1.23309 4278190080
0.21972699 0.0556641 1.23387 4278190080
0.225586 0.0556641 1.23448 4278190080
0.231445 0.0556641 1.23528 4278190080
0.049274899 0.0556641 1.28223 4278190080
0.049804699 0.0556641 1.28303 4278190080
0.108398 0.0556641 1.28785 4278190080
0.114258 0.0556641 1.28466 4278190080
0.122214 0.0556641 1.28223 4278190080
0.120117 0.059807099 1.28223 4278190080
0.050444499 0.049804699 1.28223 4278190080
0.049804699 0.052169301 1.28223 4278190080
0.0556641 0.049804699 1.28622 4278190080
0.114258 0.049804699 1.2854 4278190080
0.123869 0.049804699 1.28223 4278190080
0.0391335 0.0791016 1.27637 4278190080
0.0380859 0.081192002 1.27637 4278190080
0.108398 0.0791016 1.2798001 4278190080
0.114258 0.0791016 1.27899 4278190080
0.123606 0.0791016 1.27637 4278190080
0.044626601 0.0615234 1.27051 4278190080
0.043945301 0.062928401 1.27051 4278190080
0.137695 0.0615234 1.27534 4278190080
0.143555 0.0615234 1.27535 4278190080
0.149414 0.0615234 1.2754101 4278190080
0.15527301 0.0615234 1.27393 4278190080
0.16113301 0.0615234 1.27356 4278190080
0.178711 0.0615234 1.27344 4278190080
0.18457 0.0615234 1.27344 4278190080
0.0430535 0.073242202 1.28223 4278190080
0.043945301 0.073242202 1.28343 4278190080
0.102539 0.073242202 1.28793 4278190080
0.110076 0.073242202 1.28223 4278190080
0.108398 0.074495703 1.28223 4278190080
0.227357 0.049804699 1.23535 4278190080
0.231445 0.055125602 1.23535 4278190080
0.231445 0.049804699 1.23607 4278190080
0.237305 0.049804699 1.23682 4278190080
0.243164 0.049804699 1.23737 4278190080
0.24902301 0.049804699 1.2381901 4278190080
0.25488299 0.049804699 1.23903 4278190080
0.26074201 0.049804699 1.24045 4278190080
0.042610001 0.067382798 1.27051 4278190080
0.137695 0.067382798 1.2737 4278190080
0.143555 0.067382798 1.27334 4278190080
0.149414 0.067382798 1.2732199 4278190080
0.15527301 0.067382798 1.27301 4278190080
0.16113301 0.067382798 1.2730401 4278190080
0.178711 0.067382798 1.27291 4278190080
0.18457 0.067382798 1.2736599 4278190080
0.192765 0.073242202 1.22949 4278190080
0.196289 0.077449098 1.22949 4278190080
0.196289 0.073242202 1.22992 4278190080
0.20214801 0.073242202 1.23032 4278190080
0.20800801 0.073242202 1.23125 4278190080
0.21386699 0.073242202 1.2318799 4278190080
0.21972699 0.073242202 1.2329299 4278190080
0.225586 0.073242202 1.23413 4278190080
0.231445 0.073242202 1.23466 4278190080
0.237305 0.073242202 1.23534 4278190080
0.195062 0.067382798 1.22949 4278190080
0.196289 0.067382798 1.22969 4278190080
0.20214801 0.067382798 1.23061 4278190080
0.20800801 0.067382798 1.2312 4278190080
0.21386699 0.067382798 1.23204 4278190080
0.21972699 0.067382798 1.2331001 4278190080
0.225586 0.067382798 1.23394 4278190080
0.231445 0.067382798 1.23524 4278190080
0.19043 0.0791016 1.22901 4278190080
0.196289 0.0791016 1.22931 4278190080
0.23204599 0.0556641 1.23535 4278190080
0.237305 0.0556641 1.23598 4278190080
0.243164 0.0556641 1.23685 4278190080
0.24902301 0.0556641 1.2378 4278190080
0.25488299 0.0556641 1.2389899 4278190080
0.26074201 0.0556641 1.24033 4278190080
0.26660201 0.0556641 1.2409 4278190080
0.057199199 0.049804699 1.28809 4278190080
0.0556641 0.0535409 1.28809 4278190080
0.110936 0.049804699 1.28809 4278190080
0.108398 0.0552685 1.28809 4278190080
0.108398 0.049804699 1.2905999 4278190080
0.054554 0.0556641 1.28809 4278190080
0.0556641 0.0556641 1.2898 4278190080
0.108142 0.0556641 1.28809 4278190080
0.102539 0.0556641 1.29213 4278190080
0.0422257 0.0791016 1.28223 4278190080
0.043945301 0.0791016 1.2847 4278190080
0.105493 0.0791016 1.28223 4278190080
0.102539 0.0791016 1.28519 4278190080
0.044383898 0.0615234 1.27637 4278190080
0.043945301 0.062849201 1.27637 4278190080
0.120117 0.0615234 1.28153 4278190080
0.12597699 0.0615234 1.27932 4278190080
0.136096 0.0615234 1.27637 4278190080
0.19043 0.063116603 1.22949 4278190080
0.19043 0.0615234 1.22973 4278190080
0.196289 0.0615234 1.23058 4278190080
0.20214801 0.0615234 1.23129 4278190080
0.20800801 0.0615234 1.2318 4278190080
0.21386699 0.0615234 1.2325 4278190080
0.21972699 0.0615234 1.23304 4278190080
0.225586 0.0615234 1.2338001 4278190080
0.231445 0.0615234 1.23445 4278190080
0.043182101 0.067382798 1.27637 4278190080
0.043945301 0.067382798 1.27999 4278190080
0.114258 0.067382798 1.2807699 4278190080
0.120117 0.067382798 1.2798001 4278190080
0.132686 0.067382798 1.27637 4278190080
0.131836 0.068728097 1.27637 4278190080
0.048374999 0.073242202 1.28809 4278190080
0.049804699 0.073242202 1.2909 4278190080
0.102361 0.073242202 1.28809 4278190080
0.096679702 0.073242202 1.29163 4278190080
0.26431301 0.049804699 1.24121 4278190080
0.26660201 0.053313099 1.24121 4278190080
0.26660201 0.049804699 1.24172 4278190080
0.272461 0.049804699 1.24251 4278190080
0.27832001 0.049804699 1.2437299 4278190080
0.28417999 0.049804699 1.24476 4278190080
0.290039 0.049804699 1.24599 4278190080
0.237372 0.073242202 1.23535 4278190080
0.243164 0.073242202 1.23595 4278190080
0.24902301 0.073242202 1.23675 4278190080
0.25488299 0.073242202 1.23721 4278190080
0.26074201 0.073242202 1.23825 4278190080
0.26660201 0.073242202 1.23891 4278190080
0.272461 0.073242202 1.23988 4278190080
0.27832001 0.073242202 1.2408 4278190080
0.232484 0.067382798 1.23535 4278190080
0.237305 0.073148802 1.23535 4278190080
0.237305 0.067382798 1.23577 4278190080
0.243164 0.067382798 1.2366101 4278190080
0.24902301 0.067382798 1.23738 4278190080
0.25488299 0.067382798 1.23816 4278190080
0.26074201 0.067382798 1.23884 4278190080
0.26660201 0.067382798 1.2396801 4278190080
0.272461 0.067382798 1.2406 4278190080
0.19709399 0.0791016 1.22949 4278190080
0.196289 0.080899201 1.22949 4278190080
0.20214801 0.0791016 1.23067 4278190080
0.20800801 0.0791016 1.23123 4278190080
0.21386699 0.0791016 1.2315201 4278190080
0.21972699 0.0791016 1.23226 4278190080
0.225586 0.0791016 1.23368 4278190080
0.231445 0.0791016 1.23414 4278190080
0.237305 0.0791016 1.2347701 4278190080
0.26960501 0.0556641 1.24121 4278190080
0.272461 0.0556641 1.24156 4278190080
0.27832001 0.0556641 1.2427599 4278190080
0.28417999 0.0556641 1.2444299 4278190080
0.290039 0.0556641 1.24564 4278190080
0.29589799 0.0556641 1.24692 4278190080
0.059325501 0.049804699 1.29395 4278190080
0.0615234 0.049804699 1.29679 4278190080
0.105363 0.049804699 1.29395 4278190080
0.102539 0.053527199 1.29395 4278190080
0.057491198 0.0556641 1.29395 4278190080
0.0556641 0.0600635 1.29395 4278190080
0.0615234 0.0556641 1.29958 4278190080
0.073242202 0.0556641 1.29895 4278190080
0.100829 0.0556641 1.29395 4278190080
0.096679702 0.0556641 1.2977 4278190080
0.046409499 0.0791016 1.28809 4278190080
0.098931 0.0791016 1.28809 4278190080
0.096679702 0.084506802 1.28809 4278190080
0.096679702 0.0791016 1.28996 4278190080
0.051219001 0.073242202 1.29395 4278190080
0.049804699 0.077783301 1.29395 4278190080
0.067382798 0.073242202 1.29941 4278190080
0.0942408 0.073242202 1.29395 4278190080
0.090820298 0.073242202 1.29852 4278190080
0.047995999 0.0615234 1.28223 4278190080
0.049804699 0.0615234 1.28514 4278190080
0.108398 0.0615234 1.28618 4278190080
0.119014 0.0615234 1.28223 4278190080
0.114258 0.065188102 1.28223 4278190080
0.234907 0.0615234 1.23535 4278190080
0.237305 0.0615234 1.2360899 4278190080
0.243164 0.0615234 1.23694 4278190080
0.24902301 0.0615234 1.23791 4278190080
0.25488299 0.0615234 1.23877 4278190080
0.26074201 0.0615234 1.23961 4278190080
0.26660201 0.0615234 1.24031 4278190080
0.045010202 0.067382798 1.28223 4278190080
0.043945301 0.069791198 1.28223 4278190080
0.049804699 0.067382798 1.28794 4278190080
0.112264 0.067382798 1.28223 4278190080
0.108398 0.067382798 1.28444 4278190080
0.29407299 0.049804699 1.24707 4278190080
0.29589799 0.0543615 1.24707 4278190080
0.29589799 0.049804699 1.24761 4278190080
0.30175799 0.049804699 1.24826 4278190080
0.30761701 0.049804699 1.24937 4278190080
0.31347701 0.049804699 1.25037 4278190080
0.319336 0.049804699 1.25173 4278190080
0.28013599 0.073242202 1.24121 4278190080
0.28417999 0.073242202 1.2422301 4278190080
0.290039 0.073242202 1.2441 4278190080
0.29589799 0.073242202 1.24523 4278190080
0.30175799 0.073242202 1.24607 4278190080
0.277042 0.067382798 1.24121 4278190080
0.27832001 0.068957798 1.24121 4278190080
0.27832001 0.067382798 1.24138 4278190080
0.28417999 0.067382798 1.24304 4278190080
0.290039 0.067382798 1.24446 4278190080
0.29589799 0.067382798 1.24512 4278190080
0.30175799 0.067382798 1.24577 4278190080
0.30761701 0.067382798 1.24638 4278190080
0.24114899 0.0791016 1.23535 4278190080
0.243164 0.083006501 1.23535 4278190080
0.243164 0.0791016 1.23567 4278190080
0.24902301 0.0791016 1.23632 4278190080
0.25488299 0.0791016 1.2368 4278190080
0.26074201 0.0791016 1.23752 4278190080
0.26660201 0.0791016 1.23857 4278190080
0.272461 0.0791016 1.23949 4278190080
0.27832001 0.0791016 1.24052 4278190080
0.29707101 0.0556641 1.24707 4278190080
0.30175799 0.0593413 1.24707 4278190080
0.30175799 0.0556641 1.24765 4278190080
0.30761701 0.0556641 1.24858 4278190080
0.31347701 0.0556641 1.24957 4278190080
0.319336 0.0556641 1.25073 4278190080
0.32519501 0.0556641 1.25185 4278190080
0.064019799 0.049804699 1.2998 4278190080
0.067382798 0.049804699 1.30256 4278190080
0.073242202 0.053473201 1.2998 4278190080
0.073242202 0.049804699 1.30103 4278190080
0.096679702 0.053033199 1.2998 4278190080
0.061842602 0.0556641 1.2998 4278190080
0.0615234 0.056052901 1.2998 4278190080
0.071597897 0.0556641 1.2998 4278190080
0.067382798 0.0556641 1.3020101 4278190080
0.0740209 0.0556641 1.2998 4278190080
