# .PCD v0.7 - Point Cloud Data file format
VERSION 0.7
FIELDS x y z rgb
SIZE 4 4 4 4
TYPE F F F U
COUNT 1 1 1 1
WIDTH 1279
HEIGHT 1
VIEWPOINT 0 0 0 1 0 0 0
POINTS 1279
DATA ascii
1.06934 0.186773 1.90332 4278190080
1.0752 0.185634 1.90332 4278190080
1.08105 0.189362 1.90332 4278190080
1.09284 0.18457 1.90332 4278190080
1.09277 0.184635 1.90332 4278190080
1.15723 0.18114799 1.85059 4278190080
1.15723 0.178711 1.85343 4278190080
1.12793 0.18457 1.8355401 4278190080
1.14098 0.18457 1.83301 4278190080
1.13965 0.18682399 1.83301 4278190080
1.17273 0.18457 1.83301 4278190080
1.16895 0.18457 1.83824 4278190080
0.946289 0.178193 1.93848 4278190080
0.95214802 0.177507 1.93848 4278190080
0.95800799 0.17761201 1.93848 4278190080
0.96386701 0.17564601 1.93848 4278190080
0.97377801 0.17285199 1.93848 4278190080
0.96972698 0.17461801 1.93848 4278190080
0.97706699 0.17285199 1.93848 4278190080
0.98371899 0.17285199 1.93848 4278190080
0.98144501 0.174328 1.93848 4278190080
0.98144501 0.17285199 1.94293 4278190080
1.09277 0.178068 1.93848 4278190080
1.09277 0.17285199 1.93927 4278190080
0.95214802 0.16113301 1.99098 4278190080
0.95800799 0.16113301 1.98797 4278190080
0.969423 0.16113301 1.98535 4278190080
0.96386701 0.165454 1.98535 4278190080
0.97567099 0.16113301 1.98535 4278190080
0.98144501 0.166391 1.98535 4278190080
0.98144501 0.171773 1.9502 4278190080
0.943923 0.178711 1.92676 4278190080
0.94042999 0.17984 1.92676 4278190080
1.15385 0.178711 1.85645 4278190080
1.15137 0.184287 1.85645 4278190080
1.00722 0.18457 1.90918 4278190080
1.01074 0.18457 1.91177 4278190080
1.05176 0.187953 1.90918 4278190080
1.05176 0.18457 1.914 4278190080
1.0599 0.18457 1.90918 4278190080
1.05762 0.186958 1.90918 4278190080
1.05762 0.18457 1.91167 4278190080
1.08105 0.18754099 1.90918 4278190080
1.08691 0.18457 1.91013 4278190080
1.09277 0.187323 1.90918 4278190080
1.09277 0.18457 1.91274 4278190080
0.946289 0.177797 1.94434 4278190080
0.95214802 0.177416 1.94434 4278190080
0.95800799 0.176551 1.94434 4278190080
0.96386701 0.17585599 1.94434 4278190080
0.97540498 0.17285199 1.94434 4278190080
0.96972698 0.174536 1.94434 4278190080
0.975586 0.17285199 1.94463 4278190080
0.98730499 0.17285199 1.94712 4278190080
1.09682 0.17285199 1.94434 4278190080
1.09277 0.177995 1.94434 4278190080
1.09277 0.17285199 1.94972 4278190080
0.95202398 0.16113301 1.99121 4278190080
0.98730499 0.16495 1.99121 4278190080
0.975586 0.171652 1.95605 4278190080
0.98144501 0.170974 1.95605 4278190080
0.98730499 0.169781 1.95605 4278190080
1.13125 0.18457 1.83887 4278190080
1.13379 0.187792 1.83887 4278190080
1.13379 0.18457 1.84188 4278190080
1.14036 0.18457 1.83887 4278190080
1.13965 0.18623599 1.83887 4278190080
1.13965 0.18457 1.83979 4278190080
1.15137 0.18457 1.8432699 4278190080
1.1673599 0.18457 1.83887 4278190080
1.16309 0.18457 1.84304 4278190080
0.94360298 0.178711 1.93262 4278190080
0.94042999 0.180757 1.93262 4278190080
1.02246 0.183847 1.93262 4278190080
1.04004 0.183753 1.93262 4278190080
1.0910701 0.178711 1.93262 4278190080
1.09522 0.178711 1.93262 4278190080
1.09277 0.17949501 1.93262 4278190080
0.95214802 0.15527301 1.98487 4278190080
1.01373 0.18457 1.91504 4278190080
1.01074 0.18457 1.91763 4278190080
1.04988 0.18457 1.91504 4278190080
1.08691 0.186637 1.91504 4278190080
1.08691 0.18457 1.9189399 4278190080
1.09277 0.18769 1.91504 4278190080
1.09277 0.18457 1.91984 4278190080
1.1513799 0.178711 1.8623 4278190080
1.15137 0.178721 1.8623 4278190080
1.15137 0.178711 1.86234 4278190080
0.94825602 0.16113301 1.99707 4278190080
0.946289 0.16113301 1.99964 4278190080
0.946289 0.178036 1.9502 4278190080
0.95214802 0.17760301 1.9502 4278190080
0.95800799 0.176394 1.9502 4278190080
0.96386701 0.17550699 1.9502 4278190080
0.96972698 0.173594 1.9502 4278190080
0.97803903 0.17285199 1.9502 4278190080
0.975586 0.17377301 1.9502 4278190080
0.975586 0.17285199 1.95278 4278190080
0.983491 0.17285199 1.9502 4278190080
0.99285603 0.17285199 1.9502 4278190080
0.98730499 0.17285199 1.95187 4278190080
1.06348 0.17653701 1.9502 4278190080
0.96972698 0.17120101 1.96191 4278190080
0.975586 0.170454 1.96191 4278190080
0.98144501 0.17079701 1.96191 4278190080
0.98730499 0.170232 1.96191 4278190080
0.993164 0.170917 1.96191 4278190080
0.94042999 0.15527301 1.98861 4278190080
0.95144099 0.15527301 1.98535 4278190080
0.946289 0.15527301 1.99064 4278190080
0.95214802 0.15620901 1.98535 4278190080
0.96972698 0.160815 1.98535 4278190080
0.975586 0.161063 1.98535 4278190080
0.94488198 0.178711 1.93848 4278190080
0.94042999 0.18103801 1.93848 4278190080
1.05628 0.178711 1.93848 4278190080
1.05176 0.17989001 1.93848 4278190080
1.05176 0.178711 1.94007 4278190080
1.05762 0.180713 1.93848 4278190080
1.09245 0.178711 1.93848 4278190080
1.08691 0.178711 1.942 4278190080
1.09302 0.178711 1.93848 4278190080
1.09277 0.17883 1.93848 4278190080
1.09277 0.178711 1.93919 4278190080
1.1493599 0.18457 1.84473 4278190080
1.15283 0.18457 1.84473 4278190080
1.15137 0.18591601 1.84473 4278190080
1.15137 0.18457 1.84847 4278190080
1.16154 0.18457 1.84473 4278190080
1.15723 0.18457 1.84893 4278190080
1.00956 0.18457 1.9209 4278190080
1.01074 0.186139 1.9209 4278190080
1.01074 0.18457 1.92196 4278190080
1.0166 0.19016901 1.9209 4278190080
1.04949 0.18457 1.9209 4278190080
1.05176 0.18457 1.92391 4278190080
0.96972698 0.17203499 1.96777 4278190080
0.975586 0.170094 1.96777 4278190080
0.98144501 0.170278 1.96777 4278190080
0.98730499 0.170591 1.96777 4278190080
0.993164 0.17018799 1.96777 4278190080
1.10449 0.170397 1.96777 4278190080
0.94343299 0.16113301 2.0029299 4278190080
0.94042999 0.16537 2.0029299 4278190080
0.94042999 0.16113301 2.0067599 4278190080
0.946289 0.165029 2.0029299 4278190080
0.95214802 0.16113301 2.00755 4278190080
0.95214802 0.176976 1.95605 4278190080
0.95800799 0.176649 1.95605 4278190080
0.96386701 0.175455 1.95605 4278190080
0.97132802 0.17285199 1.95605 4278190080
0.96972698 0.173475 1.95605 4278190080
0.96972698 0.17285199 1.95742 4278190080
1.06348 0.17285199 1.96167 4278190080
1.13965 0.182456 1.86816 4278190080
1.1493 0.178711 1.86816 4278190080
1.14551 0.18328001 1.86816 4278190080
0.94042999 0.15772299 1.99121 4278190080
0.94042999 0.15527301 1.9951 4278190080
0.946289 0.155706 1.99121 4278190080
0.946289 0.15527301 1.99239 4278190080
0.94470298 0.178711 1.94434 4278190080
0.94042999 0.181391 1.94434 4278190080
1.04004 0.184549 1.94434 4278190080
1.05176 0.183083 1.94434 4278190080
1.0588 0.178711 1.94434 4278190080
1.05762 0.183061 1.94434 4278190080
1.0905 0.178711 1.94434 4278190080
1.08691 0.18028501 1.94434 4278190080
1.0161901 0.18457 1.92676 4278190080
1.0166 0.185371 1.92676 4278190080
1.0166 0.18457 1.9287601 4278190080
1.02246 0.18524399 1.92676 4278190080
1.02832 0.18457 1.93214 4278190080
1.04004 0.18457 1.93022 4278190080
1.05487 0.18457 1.92676 4278190080
1.05176 0.190034 1.92676 4278190080
1.09571 0.18457 1.92676 4278190080
1.09863 0.18675201 1.92676 4278190080
1.09863 0.18457 1.92916 4278190080
0.96972698 0.171544 1.97363 4278190080
0.975586 0.16903199 1.97363 4278190080
0.98144501 0.16954 1.97363 4278190080
0.98730499 0.17028999 1.97363 4278190080
0.993164 0.17036401 1.97363 4278190080
0.95214802 0.176871 1.96191 4278190080
0.95800799 0.176373 1.96191 4278190080
0.967695 0.17285199 1.96191 4278190080
0.96386701 0.175383 1.96191 4278190080
1.11621 0.173862 1.96191 4278190080
1.11621 0.17285199 1.96296 4278190080
1.14551 0.188559 1.85059 4278190080
1.15325 0.18457 1.85059 4278190080
1.15137 0.18952 1.85059 4278190080
1.15137 0.18457 1.85612 4278190080
1.15723 0.18875 1.85059 4278190080
0.95076501 0.16113301 2.00879 4278190080
0.952582 0.16113301 2.00879 4278190080
0.95214802 0.16113301 2.00985 4278190080
1.14985 0.178711 1.87402 4278190080
1.14551 0.178711 1.8795 4278190080
0.94042999 0.15527301 1.99842 4278190080
0.946289 0.15527301 1.99979 4278190080
0.94525802 0.178711 1.9502 4278190080
0.94042999 0.182087 1.9502 4278190080
0.946289 0.178711 1.9535 4278190080
1.0616699 0.178711 1.9502 4278190080
1.06348 0.178711 1.9536099 4278190080
1.10851 0.178711 1.9502 4278190080
1.11035 0.181188 1.9502 4278190080
1.11035 0.178711 1.9533499 4278190080
0.95800799 0.170076 1.97949 4278190080
0.96386701 0.17212 1.97949 4278190080
0.96386701 0.16699199 1.98288 4278190080
0.96972698 0.17138299 1.97949 4278190080
0.975586 0.16933499 1.97949 4278190080
0.975586 0.16699199 1.98445 4278190080
0.98144501 0.167427 1.97949 4278190080
0.98144501 0.16699199 1.98217 4278190080
0.98730499 0.169826 1.97949 4278190080
0.993164 0.16955 1.97949 4278190080
1.02057 0.18457 1.93262 4278190080
1.02543 0.18457 1.93262 4278190080
1.02246 0.185323 1.93262 4278190080
1.02246 0.18457 1.9339 4278190080
1.02863 0.18457 1.93262 4278190080
1.02832 0.187125 1.93262 4278190080
1.03888 0.18457 1.93262 4278190080
1.03418 0.18905599 1.93262 4278190080
1.04207 0.18457 1.93262 4278190080
1.04004 0.18457 1.93479 4278190080
1.05542 0.18457 1.93262 4278190080
1.05176 0.188527 1.93262 4278190080
1.10365 0.18457 1.93262 4278190080
1.10449 0.18626399 1.93262 4278190080
1.10449 0.18457 1.9384 4278190080
0.95214802 0.176789 1.96777 4278190080
0.95800799 0.17523 1.96777 4278190080
0.96805501 0.17285199 1.96777 4278190080
0.96386701 0.17442299 1.96777 4278190080
1.11318 0.17285199 1.96777 4278190080
1.11621 0.17849 1.96777 4278190080
1.11621 0.17285199 1.97149 4278190080
0.94042999 0.15908501 2.0029299 4278190080
1.15131 0.18457 1.85645 4278190080
1.14551 0.18737701 1.85645 4278190080
1.1390001 0.178711 1.87988 4278190080
0.94042999 0.181972 1.95605 4278190080
0.94733 0.178711 1.95605 4278190080
0.946289 0.17913701 1.95605 4278190080
1.11384 0.178711 1.95605 4278190080
1.11621 0.180306 1.95605 4278190080
0.95214802 0.171321 1.98535 4278190080
0.95214802 0.16699199 1.98891 4278190080
0.959611 0.16699199 1.98535 4278190080
0.95800799 0.168129 1.98535 4278190080
0.95800799 0.16699199 1.98685 4278190080
0.98286998 0.16699199 1.98535 4278190080
0.98144501 0.16699199 1.98663 4278190080
0.98730499 0.168357 1.98535 4278190080
0.98730499 0.16699199 1.9874099 4278190080
0.993164 0.169936 1.98535 4278190080
1.03418 0.187324 1.93848 4278190080
1.04004 0.18805 1.93848 4278190080
1.04004 0.18457 1.94425 4278190080
1.05689 0.18457 1.93848 4278190080
1.05176 0.18457 1.94324 4278190080
0.946289 0.177936 1.97363 4278190080
0.95214802 0.175584 1.97363 4278190080
0.95800799 0.17438699 1.97363 4278190080
0.95800799 0.17285199 1.97653 4278190080
0.96499598 0.17285199 1.97363 4278190080
0.96386701 0.17327701 1.97363 4278190080
0.96386701 0.17285199 1.97611 4278190080
0.95214802 0.159887 2.00879 4278190080
1.13965 0.18978199 1.8623 4278190080
1.13965 0.18457 1.86595 4278190080
1.14651 0.18457 1.8623 4278190080
1.14551 0.18901999 1.8623 4278190080
1.14551 0.18457 1.86581 4278190080
0.94042999 0.18231399 1.96191 4278190080
0.94656998 0.178711 1.96191 4278190080
0.946289 0.17882 1.96191 4278190080
1.11313 0.178711 1.96191 4278190080
1.11621 0.18253601 1.96191 4278190080
1.11621 0.178711 1.9675601 4278190080
0.95091701 0.16699199 1.99121 4278190080
0.946289 0.171581 1.99121 4278190080
0.98368502 0.16699199 1.99121 4278190080
0.98144501 0.168689 1.99121 4278190080
0.99902302 0.17032 1.99121 4278190080
1.04017 0.18457 1.94434 4278190080
1.0486701 0.18457 1.94434 4278190080
1.0459 0.188822 1.94434 4278190080
1.0459 0.18457 1.9471999 4278190080
1.05176 0.19015899 1.94434 4278190080
1.05176 0.18457 1.9469 4278190080
1.05762 0.18457 1.94572 4278190080
1.11621 0.18555 1.94434 4278190080
1.11621 0.18457 1.94604 4278190080
0.946289 0.176713 1.97949 4278190080
0.95441699 0.17285199 1.97949 4278190080
0.95214802 0.174337 1.97949 4278190080
0.95214802 0.17285199 1.98348 4278190080
0.94042999 0.18197601 1.96777 4278190080
0.94633698 0.178711 1.96777 4278190080
0.946289 0.17873 1.96777 4278190080
0.946289 0.178711 1.9679199 4278190080
1.13841 0.18457 1.86816 4278190080
0.94042999 0.17021801 1.99707 4278190080
0.94042999 0.16699199 2.00105 4278190080
0.94869298 0.16699199 1.99707 4278190080
0.946289 0.169184 1.99707 4278190080
1.00488 0.17038999 1.99707 4278190080
1.01074 0.169698 1.99707 4278190080
0.950638 0.17285199 1.98535 4278190080
0.946289 0.174577 1.98535 4278190080
0.946289 0.17285199 1.98887 4278190080
1.04837 0.18457 1.9502 4278190080
1.05176 0.18706501 1.9502 4278190080
1.05876 0.18457 1.9502 4278190080
1.05762 0.186535 1.9502 4278190080
1.11316 0.18457 1.9502 4278190080
1.11621 0.19001301 1.9502 4278190080
1.11621 0.18457 1.95305 4278190080
0.94501001 0.178711 1.97363 4278190080
0.94042999 0.181174 1.97363 4278190080
1.13858 0.18457 1.87402 4278190080
1.13379 0.18829501 1.87402 4278190080
0.94303298 0.16699199 2.0029299 4278190080
0.947869 0.16699199 2.0029299 4278190080
0.946289 0.16776 2.0029299 4278190080
0.946289 0.16699199 2.0041399 4278190080
0.99920499 0.16699199 2.0029299 4278190080
1.00488 0.169772 2.0029299 4278190080
1.01074 0.169689 2.0029299 4278190080
0.94346499 0.17285199 1.99121 4278190080
0.94042999 0.174164 1.99121 4278190080
0.94042999 0.17285199 1.99395 4278190080
1.05176 0.186262 1.95605 4278190080
1.05176 0.18457 1.9611599 4278190080
1.05762 0.18557701 1.95605 4278190080
1.05762 0.18457 1.96095 4278190080
0.94239801 0.178711 1.97949 4278190080
0.94042999 0.179721 1.97949 4278190080
1.13739 0.18457 1.87988 4278190080
1.01074 0.16981401 2.00879 4278190080
1.0166 0.170582 2.00879 4278190080
1.11621 0.188109 1.96191 4278190080
1.05762 0.20214801 1.62755 4278190080
1.06348 0.20214801 1.62718 4278190080
0.94061899 0.178711 1.98535 4278190080
0.94042999 0.178831 1.98535 4278190080
0.94042999 0.178711 1.98554 4278190080
1.0459 0.20800801 1.63232 4278190080
1.05176 0.20800801 1.63089 4278190080
1.05762 0.20800801 1.62937 4278190080
1.06348 0.20800801 1.6297899 4278190080
1.06934 0.20800801 1.63134 4278190080
1.04004 0.20214801 1.6310199 4278190080
1.0459 0.20214801 1.62894 4278190080
1.05635 0.20214801 1.62793 4278190080
1.05176 0.20214801 1.62913 4278190080
1.05762 0.203302 1.62793 4278190080
1.0653501 0.20214801 1.62793 4278190080
1.06348 0.20392901 1.62793 4278190080
1.06934 0.20214801 1.6294301 4278190080
1.0752 0.20214801 1.63369 4278190080
1.03418 0.20800801 1.63886 4278190080
1.04037 0.20800801 1.63379 4278190080
1.04004 0.20800801 1.6339 4278190080
1.0459 0.210945 1.63379 4278190080
1.05176 0.21344601 1.63379 4278190080
1.07189 0.20800801 1.63379 4278190080
1.06934 0.21250799 1.63379 4278190080
1.0752 0.20800801 1.63642 4278190080
1.05762 0.21386699 1.63264 4278190080
1.06348 0.21386699 1.63245 4278190080
1.05176 0.19043 1.6217 4278190080
1.05762 0.19043 1.6212699 4278190080
1.06348 0.19043 1.62133 4278190080
1.0459 0.196289 1.62725 4278190080
1.05176 0.196289 1.62595 4278190080
1.05762 0.196289 1.62462 4278190080
1.06348 0.196289 1.6249501 4278190080
1.06934 0.196289 1.62683 4278190080
1.03584 0.20214801 1.63379 4278190080
1.03418 0.20214801 1.6353199 4278190080
1.04004 0.207829 1.63379 4278190080
1.07528 0.20214801 1.63379 4278190080
1.0752 0.202374 1.63379 4278190080
1.03372 0.20800801 1.63965 4278190080
1.03418 0.20938601 1.63965 4278190080
1.07775 0.20800801 1.63965 4278190080
1.08105 0.20800801 1.64296 4278190080
1.0459 0.21972699 1.63859 4278190080
1.05176 0.21972699 1.6371 4278190080
1.05762 0.21972699 1.63607 4278190080
1.06348 0.21972699 1.63512 4278190080
1.06934 0.21972699 1.63685 4278190080
1.04004 0.19043 1.6249501 4278190080
1.05022 0.19043 1.62207 4278190080
1.0459 0.19043 1.62325 4278190080
1.05176 0.19094799 1.62207 4278190080
1.05762 0.19169401 1.62207 4278190080
1.0654401 0.19043 1.62207 4278190080
1.06348 0.19169 1.62207 4278190080
1.06934 0.19043 1.62353 4278190080
1.0752 0.19043 1.62782 4278190080
1.04004 0.21386699 1.63782 4278190080
1.0459 0.21386699 1.6353101 4278190080
1.0527101 0.21386699 1.63379 4278190080
1.05176 0.21386699 1.6339999 4278190080
1.05762 0.21568801 1.63379 4278190080
1.06705 0.21386699 1.63379 4278190080
1.06348 0.216772 1.63379 4278190080
1.06934 0.21386699 1.63451 4278190080
1.0752 0.21386699 1.6388299 4278190080
1.03418 0.196289 1.63269 4278190080
1.04373 0.196289 1.62793 4278190080
1.04004 0.196289 1.62902 4278190080
1.0459 0.19854601 1.62793 4278190080
1.05176 0.19970401 1.62793 4278190080
1.07067 0.196289 1.62793 4278190080
1.06934 0.198916 1.62793 4278190080
1.0752 0.196289 1.63129 4278190080
1.03184 0.20214801 1.63965 4278190080
1.08041 0.20214801 1.63965 4278190080
1.08105 0.20214801 1.64038 4278190080
1.0319099 0.20800801 1.64551 4278190080
1.08365 0.20800801 1.64551 4278190080
1.08691 0.20800801 1.64907 4278190080
1.04353 0.21972699 1.63965 4278190080
1.04004 0.21972699 1.6415 4278190080
1.0459 0.221156 1.63965 4278190080
1.05176 0.223747 1.63965 4278190080
1.07294 0.21972699 1.63965 4278190080
1.06934 0.22540601 1.63965 4278190080
1.0752 0.21972699 1.64117 4278190080
1.03462 0.19043 1.62793 4278190080
1.03418 0.19043 1.62825 4278190080
1.04004 0.194592 1.62793 4278190080
1.0753 0.19043 1.62793 4278190080
1.0752 0.19064499 1.62793 4278190080
1.03748 0.21386699 1.63965 4278190080
1.03418 0.21386699 1.6431 4278190080
1.04004 0.216887 1.63965 4278190080
1.07596 0.21386699 1.63965 4278190080
1.0752 0.216133 1.63965 4278190080
1.08105 0.21386699 1.64461 4278190080
1.03341 0.196289 1.63379 4278190080
1.03418 0.198704 1.63379 4278190080
1.07795 0.196289 1.63379 4278190080
1.08105 0.196289 1.63705 4278190080
1.0305001 0.20214801 1.64551 4278190080
1.08574 0.20214801 1.64551 4278190080
1.08691 0.20214801 1.6472501 4278190080
1.03148 0.20800801 1.65137 4278190080
1.09023 0.20800801 1.65137 4278190080
1.08691 0.21368299 1.65137 4278190080
1.09277 0.20800801 1.6543 4278190080
1.03593 0.21972699 1.64551 4278190080
1.03418 0.21972699 1.64812 4278190080
1.04004 0.224308 1.64551 4278190080
1.0793999 0.21972699 1.64551 4278190080
1.08105 0.21972699 1.64711 4278190080
0.93986702 0.19043 1.75098 4278190080
1.03326 0.21386699 1.64551 4278190080
1.03418 0.21686099 1.64551 4278190080
1.08201 0.21386699 1.64551 4278190080
1.08105 0.216225 1.64551 4278190080
1.0305901 0.19043 1.63379 4278190080
1.08055 0.19043 1.63379 4278190080
1.08105 0.19043 1.63436 4278190080
1.03044 0.196289 1.63965 4278190080
1.08286 0.196289 1.63965 4278190080
1.08105 0.200802 1.63965 4278190080
1.08691 0.196289 1.64489 4278190080
1.03049 0.20214801 1.65137 4278190080
1.09219 0.20214801 1.65137 4278190080
1.09277 0.20214801 1.6519099 4278190080
1.09863 0.20214801 1.65583 4278190080
1.10449 0.20214801 1.65671 4278190080
1.11035 0.20214801 1.65495 4278190080
1.11621 0.20214801 1.65589 4278190080
1.12207 0.20214801 1.65429 4278190080
1.0315 0.20800801 1.65723 4278190080
1.0962 0.20800801 1.65723 4278190080
1.09277 0.212016 1.65723 4278190080
1.09863 0.20800801 1.65923 4278190080
1.10449 0.20800801 1.66186 4278190080
1.11035 0.20800801 1.66216 4278190080
1.11621 0.20800801 1.6598099 4278190080
1.12518 0.20800801 1.65723 4278190080
1.12207 0.20800801 1.65863 4278190080
0.93502402 0.19043 1.75684 4278190080
0.93457001 0.19043 1.75735 4278190080
1.03311 0.21972699 1.65137 4278190080
1.03418 0.222839 1.65137 4278190080
1.08442 0.21972699 1.65137 4278190080
1.08691 0.21972699 1.6549799 4278190080
1.0319999 0.21386699 1.65137 4278190080
1.08685 0.21386699 1.65137 4278190080
1.08691 0.21386699 1.6514601 4278190080
1.0287499 0.19043 1.63965 4278190080
1.08587 0.19043 1.63965 4278190080
1.08691 0.19043 1.64116 4278190080
1.02966 0.196289 1.64551 4278190080
1.0879 0.196289 1.64551 4278190080
1.08691 0.198246 1.64551 4278190080
1.09277 0.196289 1.64929 4278190080
1.12207 0.196289 1.6500601 4278190080
1.03074 0.20214801 1.65723 4278190080
1.09863 0.204605 1.65723 4278190080
1.10449 0.202565 1.65723 4278190080
1.11035 0.204448 1.65723 4278190080
1.11621 0.204649 1.65723 4278190080
1.12207 0.205962 1.65723 4278190080
0.94011098 0.20214801 1.75684 4278190080
1.03169 0.20800801 1.66309 4278190080
1.09863 0.21214101 1.66309 4278190080
1.10449 0.209198 1.66309 4278190080
1.11035 0.208661 1.66309 4278190080
1.11621 0.210021 1.66309 4278190080
1.12207 0.21121 1.66309 4278190080
0.93054903 0.19043 1.7627 4278190080
0.928711 0.19043 1.7653 4278190080
1.03228 0.21972699 1.65723 4278190080
1.08855 0.21972699 1.65723 4278190080
1.08691 0.223309 1.65723 4278190080
1.02855 0.19043 1.64551 4278190080
1.09111 0.19043 1.64551 4278190080
1.09277 0.19043 1.6474299 4278190080
1.09863 0.19043 1.65043 4278190080
1.10449 0.19043 1.6506 4278190080
1.11035 0.19043 1.6498899 4278190080
1.11621 0.19043 1.6485 4278190080
1.12207 0.19043 1.64739 4278190080
1.03186 0.21386699 1.65723 4278190080
1.0918601 0.21386699 1.65723 4278190080
1.09277 0.21386699 1.65842 4278190080
1.03113 0.20214801 1.66309 4278190080
1.03003 0.196289 1.65137 4278190080
1.09715 0.196289 1.65137 4278190080
1.09277 0.20119999 1.65137 4278190080
1.09863 0.196289 1.65207 4278190080
1.10449 0.196289 1.6526901 4278190080
1.11035 0.196289 1.6523401 4278190080
1.1187 0.196289 1.65137 4278190080
1.11621 0.196289 1.65231 4278190080
1.12207 0.19847199 1.65137 4278190080
0.93647599 0.20214801 1.7627 4278190080
0.93457001 0.20214801 1.76544 4278190080
1.0317 0.20800801 1.66895 4278190080
1.10449 0.213718 1.66895 4278190080
1.11035 0.21286 1.66895 4278190080
1.11621 0.212955 1.66895 4278190080
0.937253 0.196289 1.75684 4278190080
0.93457001 0.196289 1.7598 4278190080
0.92641902 0.19043 1.76855 4278190080
1.02941 0.19043 1.65137 4278190080
1.09863 0.193455 1.65137 4278190080
1.10449 0.192791 1.65137 4278190080
1.11035 0.193867 1.65137 4278190080
1.11621 0.194805 1.65137 4278190080
1.03084 0.20214801 1.66895 4278190080
1.03196 0.21972699 1.66309 4278190080
1.09193 0.21972699 1.66309 4278190080
1.09277 0.21972699 1.66565 4278190080
1.0319 0.21386699 1.66309 4278190080
1.09723 0.21386699 1.66309 4278190080
1.09277 0.218457 1.66309 4278190080
1.09863 0.21386699 1.66449 4278190080
1.12207 0.21386699 1.66834 4278190080
1.03036 0.196289 1.65723 4278190080
0.93233198 0.20214801 1.76855 4278190080
0.93457001 0.20428801 1.76855 4278190080
1.03136 0.20800801 1.6748 4278190080
0.92323399 0.19043 1.77441 4278190080
0.92285198 0.19043 1.7752399 4278190080
0.93247497 0.196289 1.7627 4278190080
0.928711 0.196289 1.76818 4278190080
0.93457001 0.199257 1.7627 4278190080
1.03081 0.20214801 1.6748 4278190080
1.03029 0.19043 1.65723 4278190080
1.03248 0.21972699 1.66895 4278190080
1.0944999 0.21972699 1.66895 4278190080
1.09277 0.22074699 1.66895 4278190080
1.03062 0.196289 1.66309 4278190080
1.03184 0.21386699 1.66895 4278190080
1.10427 0.21386699 1.66895 4278190080
1.09863 0.217024 1.66895 4278190080
1.10449 0.21386699 1.66914 4278190080
1.11035 0.21386699 1.67038 4278190080
1.12091 0.21386699 1.66895 4278190080
1.11621 0.21386699 1.67099 4278190080
1.12207 0.21407899 1.66895 4278190080
1.03149 0.20800801 1.68066 4278190080
0.92981499 0.20214801 1.77441 4278190080
0.928711 0.20214801 1.77723 4278190080
0.93457001 0.206468 1.77441 4278190080
1.03076 0.20214801 1.68066 4278190080
0.92148602 0.19043 1.78027 4278190080
0.92285198 0.19542301 1.78027 4278190080
1.03075 0.19043 1.66309 4278190080
0.92844403 0.196289 1.76855 4278190080
0.928711 0.19666199 1.76855 4278190080
1.03056 0.196289 1.66895 4278190080
1.03227 0.21972699 1.6748 4278190080
1.08691 0.225337 1.6748 4278190080
1.09624 0.21972699 1.6748 4278190080
1.09277 0.22115301 1.6748 4278190080
1.03071 0.20800801 1.68652 4278190080
1.03224 0.21386699 1.6748 4278190080
1.09863 0.218807 1.6748 4278190080
1.10449 0.217003 1.6748 4278190080
1.11035 0.216271 1.6748 4278190080
1.11621 0.21546 1.6748 4278190080
1.12207 0.21581 1.6748 4278190080
0.93857002 0.20800801 1.76855 4278190080
1.02984 0.20214801 1.68652 4278190080
1.02832 0.20214801 1.68935 4278190080
0.92778802 0.20214801 1.78027 4278190080
0.928711 0.20310199 1.78027 4278190080
0.92073798 0.19043 1.78613 4278190080
1.03111 0.19043 1.66895 4278190080
1.03076 0.196289 1.6748 4278190080
0.92550498 0.196289 1.77441 4278190080
0.928711 0.200708 1.77441 4278190080
1.03222 0.21386699 1.68066 4278190080
1.09863 0.219256 1.68066 4278190080
1.10449 0.218262 1.68066 4278190080
1.11035 0.21770801 1.68066 4278190080
1.11621 0.21722201 1.68066 4278190080
1.12207 0.217406 1.68066 4278190080
1.0285 0.20800801 1.69238 4278190080
1.02832 0.20800801 1.69265 4278190080
1.03295 0.21972699 1.68066 4278190080
1.08691 0.223728 1.68066 4278190080
1.08691 0.21972699 1.6842901 4278190080
1.09655 0.21972699 1.68066 4278190080
1.09277 0.22061101 1.68066 4278190080
1.09277 0.21972699 1.6827101 4278190080
0.93648499 0.20800801 1.77441 4278190080
0.93457001 0.20800801 1.77931 4278190080
1.0256701 0.20214801 1.69238 4278190080
1.02246 0.20214801 1.69618 4278190080
1.02832 0.207536 1.69238 4278190080
1.03101 0.19043 1.6748 4278190080
0.92742199 0.20214801 1.78613 4278190080
0.928711 0.203408 1.78613 4278190080
0.93457001 0.20784999 1.78613 4278190080
0.92005098 0.19043 1.79199 4278190080
1.02975 0.196289 1.68066 4278190080
1.02832 0.196289 1.68618 4278190080
0.923235 0.196289 1.78027 4278190080
0.92285198 0.196289 1.78289 4278190080
1.0318201 0.21386699 1.68652 4278190080
1.08691 0.21791001 1.68652 4278190080
1.09277 0.218738 1.68652 4278190080
1.09863 0.218614 1.68652 4278190080
1.10449 0.218615 1.68652 4278190080
1.11035 0.21875399 1.68652 4278190080
1.11621 0.218701 1.68652 4278190080
1.12207 0.2177 1.68652 4278190080
1.0166 0.20800801 1.70214 4278190080
1.02258 0.20800801 1.69824 4278190080
1.02246 0.20800801 1.69835 4278190080
1.03324 0.21972699 1.68652 4278190080
1.03418 0.221578 1.68652 4278190080
1.0752 0.22498199 1.68652 4278190080
1.08331 0.21972699 1.68652 4278190080
1.08105 0.220468 1.68652 4278190080
1.08105 0.21972699 1.68907 4278190080
0.934268 0.20800801 1.78027 4278190080
0.93457001 0.20818999 1.78027 4278190080
0.93457001 0.20800801 1.7834899 4278190080
1.18652 0.196289 1.63267 4278190080
1.01074 0.20214801 1.70346 4278190080
1.01937 0.20214801 1.69824 4278190080
1.0166 0.20214801 1.6996599 4278190080
1.02246 0.207681 1.69824 4278190080
1.02915 0.19043 1.68066 4278190080
1.02832 0.19043 1.68396 4278190080
0.91968399 0.19043 1.79785 4278190080
0.92622101 0.20214801 1.79199 4278190080
0.928711 0.204748 1.79199 4278190080
1.02819 0.196289 1.68652 4278190080
1.02832 0.196661 1.68652 4278190080
1.18066 0.19043 1.6332099 4278190080
1.03005 0.21386699 1.69238 4278190080
1.02832 0.21386699 1.6974699 4278190080
1.08105 0.218695 1.69238 4278190080
1.08691 0.217941 1.69238 4278190080
1.09277 0.218096 1.69238 4278190080
1.09863 0.21823201 1.69238 4278190080
1.10449 0.21736901 1.69238 4278190080
1.11035 0.21714 1.69238 4278190080
1.11621 0.218015 1.69238 4278190080
1.12207 0.217244 1.69238 4278190080
0.922589 0.196289 1.78613 4278190080
0.92285198 0.196796 1.78613 4278190080
1.0138 0.20800801 1.7041 4278190080
1.01074 0.20800801 1.70631 4278190080
1.0166 0.20994499 1.7041 4278190080
1.11621 0.213717 1.7041 4278190080
1.15723 0.196289 1.63907 4278190080
1.16309 0.196289 1.63817 4278190080
1.16895 0.196289 1.6367 4278190080
1.1748 0.196289 1.63581 4278190080
1.18286 0.196289 1.63379 4278190080
1.18066 0.196289 1.63477 4278190080
1.18944 0.196289 1.63379 4278190080
1.18652 0.19865701 1.63379 4278190080
1.19238 0.196289 1.63472 4278190080
1.19824 0.196289 1.63459 4278190080
1.2041 0.196289 1.63587 4278190080
1.20996 0.196289 1.63658 4278190080
1.21582 0.196289 1.6377 4278190080
1.22168 0.196289 1.63956 4278190080
1.03334 0.21972699 1.69238 4278190080
1.03418 0.220284 1.69238 4278190080
1.04004 0.22515801 1.69238 4278190080
1.0459 0.223049 1.69238 4278190080
1.05176 0.220816 1.69238 4278190080
1.05176 0.21972699 1.69749 4278190080
1.05762 0.223285 1.69238 4278190080
1.06348 0.222866 1.69238 4278190080
1.06934 0.22464301 1.69238 4278190080
1.07935 0.21972699 1.69238 4278190080
1.0752 0.22510201 1.69238 4278190080
1.08105 0.21972699 1.69414 4278190080
0.93478298 0.20800801 1.78613 4278190080
0.93457001 0.20800801 1.78708 4278190080
1.02736 0.19043 1.68652 4278190080
1.02246 0.19043 1.69171 4278190080
0.99902302 0.20214801 1.70871 4278190080
1.00957 0.20214801 1.7041 4278190080
1.00488 0.20214801 1.7065001 4278190080
1.01074 0.20343301 1.7041 4278190080
1.0166 0.196289 1.697 4278190080
1.02405 0.196289 1.69238 4278190080
1.02246 0.196289 1.69382 4278190080
0.91958898 0.19043 1.80371 4278190080
0.92616302 0.20214801 1.79785 4278190080
0.928711 0.20456301 1.79785 4278190080
1.15137 0.19043 1.63951 4278190080
1.15723 0.19043 1.63703 4278190080
1.16309 0.19043 1.63592 4278190080
1.16895 0.19043 1.6347899 4278190080
1.17764 0.19043 1.63379 4278190080
1.1748 0.19043 1.63446 4278190080
1.18356 0.19043 1.63379 4278190080
1.18066 0.19307099 1.63379 4278190080
1.18652 0.19238999 1.63379 4278190080
1.18652 0.19043 1.63428 4278190080
1.19238 0.19043 1.6341701 4278190080
1.19824 0.19043 1.63431 4278190080
1.2041 0.19043 1.63666 4278190080
1.20996 0.19043 1.63766 4278190080
1.21582 0.19043 1.63827 4278190080
1.22168 0.19043 1.63929 4278190080
1.02795 0.21386699 1.69824 4278190080
1.02246 0.21386699 1.70364 4278190080
1.02832 0.2142 1.69824 4278190080
1.05176 0.21963599 1.69824 4278190080
1.08691 0.218072 1.69824 4278190080
1.09277 0.216543 1.69824 4278190080
1.09863 0.21741299 1.69824 4278190080
1.10449 0.21709999 1.69824 4278190080
1.11035 0.216324 1.69824 4278190080
1.11621 0.216691 1.69824 4278190080
1.11621 0.21386699 1.70382 4278190080
1.12207 0.21661399 1.69824 4278190080
0.92216802 0.196289 1.79199 4278190080
0.92285198 0.197557 1.79199 4278190080
0.993164 0.20800801 1.7153 4278190080
0.99902302 0.20800801 1.71236 4278190080
1.00492 0.20800801 1.70996 4278190080
1.00488 0.20800801 1.70998 4278190080
1.01074 0.212419 1.70996 4278190080
1.11621 0.21191999 1.70996 4278190080
1.12207 0.211496 1.70996 4278190080
1.16895 0.21386699 1.6510299 4278190080
1.18066 0.21386699 1.6494499 4278190080
1.18652 0.21386699 1.65011 4278190080
1.19238 0.21386699 1.64764 4278190080
1.19824 0.21386699 1.6496201 4278190080
0.93324798 0.20800801 1.79199 4278190080
0.93457001 0.20867001 1.79199 4278190080
1.02134 0.19043 1.69238 4278190080
1.0166 0.19043 1.6949199 4278190080
1.02246 0.192166 1.69238 4278190080
1.03211 0.21972699 1.69824 4278190080
1.03418 0.220531 1.69824 4278190080
1.04004 0.222148 1.69824 4278190080
1.0515701 0.21972699 1.69824 4278190080
1.0459 0.221791 1.69824 4278190080
1.052 0.21972699 1.69824 4278190080
1.05762 0.22216199 1.69824 4278190080
1.06348 0.223061 1.69824 4278190080
1.06934 0.222738 1.69824 4278190080
1.0752 0.223837 1.69824 4278190080
1.08499 0.21972699 1.69824 4278190080
1.08105 0.222619 1.69824 4278190080
1.14551 0.196289 1.64474 4278190080
1.15576 0.196289 1.63965 4278190080
1.15137 0.196289 1.64151 4278190080
1.15723 0.19741 1.63965 4278190080
1.16309 0.19960199 1.63965 4278190080
1.21582 0.20118999 1.63965 4278190080
1.22188 0.196289 1.63965 4278190080
1.22168 0.19652 1.63965 4278190080
1.22754 0.196289 1.6423 4278190080
1.2334 0.196289 1.6448801 4278190080
1.16895 0.20214801 1.6396 4278190080
1.1748 0.20214801 1.63836 4278190080
1.18066 0.20214801 1.63684 4278190080
1.18652 0.20214801 1.63552 4278190080
1.19238 0.20214801 1.63691 4278190080
1.19824 0.20214801 1.63781 4278190080
1.2041 0.20214801 1.63762 4278190080
1.20996 0.20214801 1.6385601 4278190080
0.92007703 0.19043 1.80957 4278190080
1.00488 0.196289 1.70322 4278190080
1.01407 0.196289 1.69824 4278190080
1.01074 0.196289 1.70003 4278190080
1.0166 0.198992 1.69824 4278190080
0.926723 0.20214801 1.80371 4278190080
0.928711 0.20420399 1.80371 4278190080
0.93457001 0.20705999 1.80371 4278190080
0.98730499 0.20214801 1.71534 4278190080
0.99697697 0.20214801 1.70996 4278190080
0.993164 0.20214801 1.71208 4278190080
0.99902302 0.204128 1.70996 4278190080
1.00488 0.207974 1.70996 4278190080
1.13379 0.19043 1.64491 4278190080
1.13965 0.19043 1.64261 4278190080
1.15078 0.19043 1.63965 4278190080
1.14551 0.19043 1.64059 4278190080
1.15137 0.19079401 1.63965 4278190080
1.22356 0.19043 1.63965 4278190080
1.22754 0.19043 1.64038 4278190080
1.2334 0.19043 1.64209 4278190080
1.23926 0.19043 1.64519 4278190080
1.02193 0.21386699 1.7041 4278190080
1.0166 0.21386699 1.70845 4278190080
1.02246 0.214112 1.7041 4278190080
1.02832 0.217014 1.7041 4278190080
1.05176 0.219124 1.7041 4278190080
1.08691 0.21895 1.7041 4278190080
1.09277 0.21800999 1.7041 4278190080
1.09863 0.21748801 1.7041 4278190080
1.10449 0.21701001 1.7041 4278190080
1.11584 0.21386699 1.7041 4278190080
1.11035 0.215773 1.7041 4278190080
1.1174001 0.21386699 1.7041 4278190080
1.12484 0.21386699 1.7041 4278190080
1.12207 0.21456601 1.7041 4278190080
1.12207 0.21386699 1.70515 4278190080
0.92194003 0.196289 1.79785 4278190080
0.92285198 0.197841 1.79785 4278190080
1.14551 0.21386699 1.65698 4278190080
1.15137 0.21386699 1.6556799 4278190080
1.15723 0.21386699 1.65441 4278190080
1.16654 0.21386699 1.65137 4278190080
1.16309 0.21386699 1.6518199 4278190080
1.17388 0.21386699 1.65137 4278190080
1.16895 0.214028 1.65137 4278190080
1.1749901 0.21386699 1.65137 4278190080
1.1748 0.21386699 1.65145 4278190080
1.18066 0.214719 1.65137 4278190080
1.18652 0.21400499 1.65137 4278190080
1.19238 0.214985 1.65137 4278190080
1.2015899 0.21386699 1.65137 4278190080
1.19824 0.214508 1.65137 4278190080
1.2041 0.21386699 1.65274 4278190080
0.99225098 0.20800801 1.71582 4278190080
0.98730499 0.20800801 1.71838 4278190080
0.993164 0.208589 1.71582 4278190080
0.99902302 0.21256 1.71582 4278190080
1.11035 0.213055 1.71582 4278190080
1.11621 0.211308 1.71582 4278190080
1.12207 0.21015 1.71582 4278190080
1.19238 0.20800801 1.63939 4278190080
1.15137 0.20214801 1.64447 4278190080
1.15723 0.20214801 1.64229 4278190080
1.16873 0.20214801 1.63965 4278190080
1.16309 0.20214801 1.64092 4278190080
1.16895 0.20222101 1.63965 4278190080
1.1748 0.203958 1.63965 4278190080
1.18066 0.205588 1.63965 4278190080
1.18652 0.207948 1.63965 4278190080
1.19824 0.20618001 1.63965 4278190080
1.2041 0.205844 1.63965 4278190080
1.2134399 0.20214801 1.63965 4278190080
1.20996 0.203161 1.63965 4278190080
1.21582 0.20214801 1.64029 4278190080
1.22168 0.20214801 1.64314 4278190080
1.22754 0.20214801 1.6452399 4278190080
1.00488 0.19043 1.70105 4278190080
1.01126 0.19043 1.69824 4278190080
1.01074 0.19043 1.69856 4278190080
0.93450999 0.20800801 1.79785 4278190080
0.93457001 0.20803601 1.79785 4278190080
0.93457001 0.20800801 1.79804 4278190080
1.12793 0.196289 1.64868 4278190080
1.13379 0.196289 1.64758 4278190080
1.14302 0.196289 1.64551 4278190080
1.13965 0.196289 1.64634 4278190080
1.14551 0.19774701 1.64551 4278190080
1.23472 0.196289 1.64551 4278190080
1.2334 0.197028 1.64551 4278190080
1.23926 0.196289 1.64777 4278190080
1.0324 0.21972699 1.7041 4278190080
1.03418 0.220203 1.7041 4278190080
1.03418 0.21972699 1.70925 4278190080
1.04004 0.221084 1.7041 4278190080
1.05036 0.21972699 1.7041 4278190080
1.0459 0.221156 1.7041 4278190080
1.05413 0.21972699 1.7041 4278190080
1.05176 0.21972699 1.70698 4278190080
1.05762 0.220706 1.7041 4278190080
1.06348 0.222203 1.7041 4278190080
1.06934 0.22228301 1.7041 4278190080
1.0752 0.222938 1.7041 4278190080
1.0854501 0.21972699 1.7041 4278190080
1.08105 0.22190399 1.7041 4278190080
1.08691 0.21972699 1.70745 4278190080
0.993164 0.196289 1.70948 4278190080
1.00358 0.196289 1.7041 4278190080
0.99902302 0.196289 1.70711 4278190080
1.00488 0.19781899 1.7041 4278190080
0.921444 0.19043 1.81543 4278190080
0.92285198 0.195398 1.81543 4278190080
0.92800498 0.20214801 1.80957 4278190080
0.928711 0.202811 1.80957 4278190080
0.928711 0.20214801 1.81394 4278190080
0.93457001 0.206251 1.80957 4278190080
0.92227 0.196289 1.80371 4278190080
0.92285198 0.197284 1.80371 4278190080
1.12954 0.19043 1.64551 4278190080
1.12793 0.19043 1.64574 4278190080
1.13379 0.191664 1.64551 4278190080
1.13965 0.195012 1.64551 4278190080
1.23963 0.19043 1.64551 4278190080
1.23926 0.19118001 1.64551 4278190080
1.24512 0.19043 1.64889 4278190080
0.98657298 0.20214801 1.71582 4278190080
0.98144501 0.20214801 1.71926 4278190080
0.98730499 0.20307 1.71582 4278190080
1.00488 0.21386699 1.71513 4278190080
1.01343 0.21386699 1.70996 4278190080
1.01074 0.21386699 1.71166 4278190080
1.0166 0.21472199 1.70996 4278190080
1.02246 0.21681 1.70996 4278190080
1.02832 0.21812201 1.70996 4278190080
1.03418 0.21961799 1.70996 4278190080
1.09277 0.216922 1.70996 4278190080
1.09863 0.21608201 1.70996 4278190080
1.10449 0.215811 1.70996 4278190080
1.1128 0.21386699 1.70996 4278190080
1.11035 0.21524499 1.70996 4278190080
1.11035 0.21386699 1.71409 4278190080
1.1748 0.21972699 1.67441 4278190080
1.1449701 0.21386699 1.65723 4278190080
1.13965 0.21386699 1.65955 4278190080
1.14551 0.21397801 1.65723 4278190080
1.15137 0.21448 1.65723 4278190080
1.15723 0.215478 1.65723 4278190080
1.16309 0.21602 1.65723 4278190080
1.16895 0.2166 1.65723 4278190080
1.1748 0.21602 1.65723 4278190080
1.18066 0.21618301 1.65723 4278190080
1.18652 0.216414 1.65723 4278190080
1.19238 0.216001 1.65723 4278190080
1.19824 0.216151 1.65723 4278190080
1.2097 0.21386699 1.65723 4278190080
1.2041 0.21517301 1.65723 4278190080
1.20996 0.21386699 1.65785 4278190080
1.16309 0.20800801 1.64496 4278190080
1.16895 0.20800801 1.6438 4278190080
1.1748 0.20800801 1.64228 4278190080
1.18066 0.20800801 1.64104 4278190080
1.18721 0.20800801 1.63965 4278190080
1.18652 0.20800801 1.6397001 4278190080
1.19399 0.20800801 1.63965 4278190080
1.19238 0.208241 1.63965 4278190080
1.19824 0.20800801 1.64062 4278190080
1.2041 0.20800801 1.64156 4278190080
1.20996 0.20800801 1.6434799 4278190080
0.975586 0.20800801 1.72624 4278190080
0.98255599 0.20800801 1.72168 4278190080
0.98144501 0.20800801 1.72244 4278190080
0.98730499 0.21083499 1.72168 4278190080
1.11035 0.213704 1.72168 4278190080
1.11621 0.21102899 1.72168 4278190080
1.12782 0.20800801 1.72168 4278190080
1.12207 0.20890699 1.72168 4278190080
1.12207 0.20800801 1.7233599 4278190080
0.993164 0.19043 1.7077301 4278190080
1.00046 0.19043 1.7041 4278190080
0.99902302 0.19043 1.70507 4278190080
1.13379 0.20214801 1.65042 4278190080
1.13965 0.20214801 1.64913 4278190080
1.14935 0.20214801 1.64551 4278190080
1.14551 0.20214801 1.6473401 4278190080
1.15137 0.203587 1.64551 4278190080
1.15723 0.20648199 1.64551 4278190080
1.21582 0.207572 1.64551 4278190080
1.22168 0.204072 1.64551 4278190080
1.22787 0.20214801 1.64551 4278190080
1.22754 0.202342 1.64551 4278190080
1.2334 0.20214801 1.64947 4278190080
0.93672198 0.20800801 1.80371 4278190080
1.03459 0.21972699 1.70996 4278190080
1.04004 0.220396 1.70996 4278190080
1.04004 0.21972699 1.71189 4278190080
1.0459 0.221139 1.70996 4278190080
1.0459 0.21972699 1.71355 4278190080
1.05176 0.220154 1.70996 4278190080
1.05176 0.21972699 1.7143 4278190080
1.05762 0.22029901 1.70996 4278190080
1.06348 0.221954 1.70996 4278190080
1.06934 0.22266901 1.70996 4278190080
1.0752 0.222873 1.70996 4278190080
1.08105 0.221422 1.70996 4278190080
1.08786 0.21972699 1.70996 4278190080
1.08691 0.220452 1.70996 4278190080
1.12793 0.201001 1.65137 4278190080
1.24365 0.196289 1.65137 4278190080
1.23926 0.19898701 1.65137 4278190080
1.24512 0.196289 1.65246 4278190080
0.92195898 0.19043 1.82129 4278190080
0.92285198 0.19238099 1.82129 4278190080
0.99235702 0.196289 1.70996 4278190080
0.98730499 0.196289 1.71302 4278190080
0.993164 0.19729801 1.70996 4278190080
0.92919898 0.20214801 1.81543 4278190080
0.93457001 0.20411199 1.81543 4278190080
0.92280501 0.196289 1.80957 4278190080
0.92285198 0.196375 1.80957 4278190080
0.92285198 0.196289 1.81063 4278190080
1.16309 0.21972699 1.67821 4278190080
1.17459 0.21972699 1.6748 4278190080
1.17498 0.21972699 1.6748 4278190080
1.1748 0.219744 1.6748 4278190080
1.1748 0.21972699 1.67504 4278190080
1.24772 0.19043 1.65137 4278190080
1.24512 0.194809 1.65137 4278190080
1.25098 0.19043 1.65434 4278190080
0.993164 0.21386699 1.72082 4278190080
1.00262 0.21386699 1.71582 4278190080
0.99902302 0.21386699 1.7172101 4278190080
1.00488 0.21431901 1.71582 4278190080
1.01074 0.21556 1.71582 4278190080
1.0166 0.216612 1.71582 4278190080
1.02246 0.217526 1.71582 4278190080
1.02832 0.218467 1.71582 4278190080
1.03418 0.21887399 1.71582 4278190080
1.04004 0.21818399 1.71582 4278190080
1.0459 0.21874 1.71582 4278190080
1.05176 0.21956401 1.71582 4278190080
1.09277 0.218265 1.71582 4278190080
1.09863 0.21586899 1.71582 4278190080
1.10847 0.21386699 1.71582 4278190080
1.10449 0.21506301 1.71582 4278190080
0.96972698 0.20214801 1.7274899 4278190080
0.978495 0.20214801 1.72168 4278190080
0.975586 0.20214801 1.72386 4278190080
0.98144501 0.206559 1.72168 4278190080
1.12793 0.21386699 1.66436 4278190080
1.13402 0.21386699 1.66309 4278190080
1.13379 0.21386699 1.66324 4278190080
1.13965 0.21529099 1.66309 4278190080
1.14551 0.216014 1.66309 4278190080
1.15137 0.216699 1.66309 4278190080
1.15723 0.216759 1.66309 4278190080
1.16309 0.21735901 1.66309 4278190080
1.16895 0.21837001 1.66309 4278190080
1.1748 0.21823099 1.66309 4278190080
1.18066 0.21786 1.66309 4278190080
1.18652 0.217696 1.66309 4278190080
1.19238 0.21674 1.66309 4278190080
1.19824 0.216124 1.66309 4278190080
1.2041 0.21564101 1.66309 4278190080
1.21251 0.21386699 1.66309 4278190080
1.20996 0.214395 1.66309 4278190080
1.21582 0.21386699 1.66705 4278190080
0.98144501 0.19043 1.71453 4278190080
0.98861498 0.19043 1.70996 4278190080
0.98730499 0.19043 1.71074 4278190080
1.14551 0.20800801 1.65078 4278190080
1.15137 0.20800801 1.6485699 4278190080
1.16118 0.20800801 1.64551 4278190080
1.15723 0.20800801 1.64653 4278190080
1.16309 0.208487 1.64551 4278190080
1.16895 0.209499 1.64551 4278190080
1.1748 0.210495 1.64551 4278190080
1.18066 0.211335 1.64551 4278190080
1.18652 0.212759 1.64551 4278190080
1.19238 0.212446 1.64551 4278190080
1.19824 0.210833 1.64551 4278190080
1.2041 0.20992801 1.64551 4278190080
1.21494 0.20800801 1.64551 4278190080
1.20996 0.209373 1.64551 4278190080
1.21582 0.20800801 1.64586 4278190080
1.22168 0.20800801 1.64938 4278190080
1.1301 0.20214801 1.65137 4278190080
1.12793 0.20214801 1.65205 4278190080
1.13379 0.204216 1.65137 4278190080
1.13965 0.20637999 1.65137 4278190080
1.22754 0.20505901 1.65137 4278190080
1.2353899 0.20214801 1.65137 4278190080
1.2334 0.203273 1.65137 4278190080
1.23926 0.20214801 1.65518 4278190080
0.97385901 0.20800801 1.72754 4278190080
0.96972698 0.20800801 1.73142 4278190080
0.975586 0.2094 1.72754 4278190080
0.98144501 0.212156 1.72754 4278190080
1.11035 0.21236099 1.72754 4278190080
1.1192 0.20800801 1.72754 4278190080
1.11621 0.210352 1.72754 4278190080
0.92239302 0.19043 1.82715 4278190080
0.92285198 0.19145299 1.82715 4278190080
0.92285198 0.19043 1.8291 4278190080
1.05277 0.21972699 1.71582 4278190080
1.05762 0.220653 1.71582 4278190080
1.05762 0.21972699 1.71805 4278190080
1.06348 0.221099 1.71582 4278190080
1.06348 0.21972699 1.71937 4278190080
1.06934 0.221486 1.71582 4278190080
1.0752 0.222323 1.71582 4278190080
1.08105 0.22187001 1.71582 4278190080
1.08808 0.21972699 1.71582 4278190080
1.08691 0.220211 1.71582 4278190080
1.08691 0.21972699 1.71992 4278190080
1.24907 0.196289 1.65723 4278190080
1.24512 0.19924 1.65723 4278190080
1.25098 0.196289 1.65947 4278190080
0.93231201 0.20214801 1.82129 4278190080
0.93457001 0.20296399 1.82129 4278190080
0.93457001 0.20214801 1.8243099 4278190080
0.975586 0.196289 1.72112 4278190080
0.98250198 0.196289 1.71582 4278190080
0.98144501 0.196289 1.71641 4278190080
0.92317897 0.196289 1.81543 4278190080
0.928711 0.20191801 1.81543 4278190080
1.25315 0.19043 1.65723 4278190080
1.25098 0.19413 1.65723 4278190080
1.25684 0.19043 1.66241 4278190080
0.99215102 0.21386699 1.72168 4278190080
0.98730499 0.21386699 1.72636 4278190080
0.993164 0.21428099 1.72168 4278190080
0.99902302 0.215571 1.72168 4278190080
1.00488 0.21677899 1.72168 4278190080
1.01074 0.21756101 1.72168 4278190080
1.0166 0.217739 1.72168 4278190080
1.02246 0.218573 1.72168 4278190080
1.02832 0.217906 1.72168 4278190080
1.03418 0.217482 1.72168 4278190080
1.04004 0.217557 1.72168 4278190080
1.0459 0.217613 1.72168 4278190080
1.05176 0.218784 1.72168 4278190080
1.05762 0.218596 1.72168 4278190080
1.06348 0.21913201 1.72168 4278190080
1.08691 0.21956 1.72168 4278190080
1.09277 0.217953 1.72168 4278190080
1.09863 0.216672 1.72168 4278190080
1.1101201 0.21386699 1.72168 4278190080
1.10449 0.216306 1.72168 4278190080
1.15891 0.21972699 1.68066 4278190080
1.16494 0.21972699 1.68066 4278190080
1.16309 0.219998 1.68066 4278190080
1.16309 0.21972699 1.6814899 4278190080
1.12793 0.215322 1.66895 4278190080
1.13379 0.21599001 1.66895 4278190080
1.13965 0.216727 1.66895 4278190080
1.14551 0.21698201 1.66895 4278190080
1.15137 0.21768001 1.66895 4278190080
1.15723 0.218568 1.66895 4278190080
1.16309 0.218283 1.66895 4278190080
1.16895 0.219192 1.66895 4278190080
1.1748 0.219413 1.66895 4278190080
1.18066 0.21909 1.66895 4278190080
1.18652 0.21797501 1.66895 4278190080
1.19238 0.217668 1.66895 4278190080
1.19824 0.21629 1.66895 4278190080
1.2041 0.216059 1.66895 4278190080
1.20996 0.215592 1.66895 4278190080
1.21707 0.21386699 1.66895 4278190080
1.21582 0.21416301 1.66895 4278190080
0.96967298 0.20214801 1.72754 4278190080
0.96386701 0.20214801 1.7322201 4278190080
0.96972698 0.20221899 1.72754 4278190080
1.12207 0.20604099 1.72754 4278190080
0.979828 0.19043 1.71582 4278190080
0.975586 0.19043 1.71919 4278190080
0.98144501 0.194481 1.71582 4278190080
1.2334 0.205797 1.65723 4278190080
1.24104 0.20214801 1.65723 4278190080
1.23926 0.203354 1.65723 4278190080
1.24512 0.20214801 1.6612 4278190080
1.12793 0.20800801 1.65601 4278190080
1.13379 0.20800801 1.65336 4278190080
1.14336 0.20800801 1.65137 4278190080
1.13965 0.20800801 1.65224 4278190080
1.14551 0.20854101 1.65137 4278190080
1.15137 0.210537 1.65137 4278190080
1.15723 0.21141499 1.65137 4278190080
1.16309 0.213534 1.65137 4278190080
1.1748 0.21382999 1.65137 4278190080
1.2041 0.213135 1.65137 4278190080
1.20996 0.2121 1.65137 4278190080
1.21582 0.21040399 1.65137 4278190080
1.22332 0.20800801 1.65137 4278190080
1.22168 0.20891701 1.65137 4278190080
1.22754 0.20800801 1.65523 4278190080
1.25304 0.196289 1.66309 4278190080
1.25098 0.198303 1.66309 4278190080
0.92401099 0.19043 1.83301 4278190080
1.06545 0.21972699 1.72168 4278190080
1.06934 0.22135299 1.72168 4278190080
1.06934 0.21972699 1.72366 4278190080
1.0752 0.22182199 1.72168 4278190080
1.0752 0.21972699 1.72642 4278190080
1.08639 0.21972699 1.72168 4278190080
1.08105 0.221515 1.72168 4278190080
0.967659 0.20800801 1.7334 4278190080
0.96386701 0.20800801 1.7368701 4278190080
0.96972698 0.209378 1.7334 4278190080
0.975586 0.213276 1.7334 4278190080
1.05762 0.20800801 1.7381999 4278190080
1.06348 0.213148 1.7334 4278190080
1.06934 0.212715 1.7334 4278190080
1.06934 0.20800801 1.7368799 4278190080
1.11035 0.21262801 1.7334 4278190080
1.12062 0.20800801 1.7334 4278190080
1.11621 0.209654 1.7334 4278190080
0.92492902 0.196289 1.82129 4278190080
0.928711 0.20034499 1.82129 4278190080
0.97484201 0.196289 1.72168 4278190080
0.96972698 0.196289 1.7258 4278190080
0.975586 0.197365 1.72168 4278190080
1.2573299 0.19043 1.66309 4278190080
1.25684 0.191093 1.66309 4278190080
0.98558998 0.21386699 1.72754 4278190080
0.98144501 0.21386699 1.72998 4278190080
0.98730499 0.21435501 1.72754 4278190080
0.993164 0.216157 1.72754 4278190080
0.99902302 0.21712001 1.72754 4278190080
1.00488 0.21767101 1.72754 4278190080
1.01074 0.218934 1.72754 4278190080
1.0166 0.218615 1.72754 4278190080
1.02246 0.21804599 1.72754 4278190080
1.02832 0.217575 1.72754 4278190080
1.03418 0.21716601 1.72754 4278190080
1.04004 0.216581 1.72754 4278190080
1.0459 0.215784 1.72754 4278190080
1.05176 0.21656799 1.72754 4278190080
1.05762 0.216685 1.72754 4278190080
1.06348 0.21738601 1.72754 4278190080
1.06348 0.21386699 1.73248 4278190080
1.06934 0.217786 1.72754 4278190080
1.06934 0.21386699 1.7324899 4278190080
1.0752 0.21926901 1.72754 4278190080
1.08691 0.21865 1.72754 4278190080
1.09277 0.21608 1.72754 4278190080
1.09863 0.215857 1.72754 4278190080
1.1074899 0.21386699 1.72754 4278190080
1.10449 0.21548299 1.72754 4278190080
1.12793 0.216837 1.6748 4278190080
1.13379 0.216933 1.6748 4278190080
1.13965 0.21743999 1.6748 4278190080
1.14551 0.218209 1.6748 4278190080
1.15137 0.218173 1.6748 4278190080
1.15723 0.21895701 1.6748 4278190080
1.16309 0.21922401 1.6748 4278190080
