# .PCD v0.7 - Point Cloud Data file format
VERSION 0.7
FIELDS x y z rgb
SIZE 4 4 4 4
TYPE F F F U
COUNT 1 1 1 1
WIDTH 1186
HEIGHT 1
VIEWPOINT 0 0 0 1 0 0 0
POINTS 1186
DATA ascii
0.58300799 0.50097698 0.93351501 4278190080
0.36898199 0.47167999 1.39941 4278190080
0.366211 0.47167999 1.4038301 4278190080
0.58115101 0.48925799 0.93652302 4278190080
0.58300799 0.49232399 0.93652302 4278190080
0.459869 0.459961 1.28223 4278190080
0.524414 0.459961 1.28291 4278190080
0.44893199 0.46582001 1.29395 4278190080
0.44824201 0.46749499 1.29395 4278190080
0.44824201 0.46582001 1.29496 4278190080
0.51490599 0.46582001 1.29395 4278190080
0.51269501 0.46582001 1.29584 4278190080
0.51855499 0.46788499 1.29395 4278190080
0.524414 0.46854499 1.29395 4278190080
0.53951102 0.48925799 0.98925799 4278190080
0.57906801 0.48339799 0.93652302 4278190080
0.53992403 0.48339799 0.98925799 4278190080
0.430664 0.45192501 1.33496 4278190080
0.43652299 0.449065 1.33496 4278190080
0.44238299 0.448333 1.33496 4278190080
0.45156899 0.44824201 1.33496 4278190080
0.44824201 0.448726 1.33496 4278190080
0.45760301 0.44824201 1.33496 4278190080
0.45410201 0.44824201 1.33647 4278190080
0.459961 0.44857001 1.33496 4278190080
0.58428401 0.49511701 0.93652302 4278190080
0.58300799 0.49936801 0.93652302 4278190080
0.56841499 0.47167999 0.94238299 4278190080
0.571289 0.47405201 0.94238299 4278190080
0.571289 0.47167999 0.94814003 4278190080
0.542391 0.477539 0.98339802 4278190080
0.54199201 0.47811401 0.98339802 4278190080
0.54199201 0.477539 0.98798299 4278190080
0.540811 0.49511701 0.98339802 4278190080
0.55957001 0.49982801 0.98339802 4278190080
0.574678 0.477539 0.94238299 4278190080
0.57714802 0.48100701 0.94238299 4278190080
0.54654801 0.47167999 0.98925799 4278190080
0.54199201 0.47740799 0.98925799 4278190080
0.54250097 0.50097698 0.977539 4278190080
0.54199201 0.50097698 0.98010802 4278190080
0.55904102 0.50097698 0.977539 4278190080
0.553711 0.50600398 0.977539 4278190080
0.443477 0.45410201 1.31152 4278190080
0.44238299 0.455304 1.31152 4278190080
0.44238299 0.45410201 1.31305 4278190080
0.48236999 0.45410201 1.31152 4278190080
0.48339799 0.45531899 1.31152 4278190080
0.365266 0.47167999 1.40527 4278190080
0.56542999 0.50553203 0.93652302 4278190080
0.571289 0.50472897 0.93652302 4278190080
0.58270597 0.50097698 0.93652302 4278190080
0.57714802 0.50625598 0.93652302 4278190080
0.58017898 0.48925799 0.94238299 4278190080
0.58300799 0.494847 0.94238299 4278190080
0.53970802 0.48925799 0.99511701 4278190080
0.578412 0.48339799 0.94238299 4278190080
0.44468901 0.46582001 1.2998 4278190080
0.44238299 0.46582001 1.30274 4278190080
0.50097698 0.46582001 1.3041101 4278190080
0.50824898 0.46582001 1.2998 4278190080
0.506836 0.46582001 1.30186 4278190080
0.53920603 0.48339799 0.99511701 4278190080
0.45582899 0.459961 1.28809 4278190080
0.45410201 0.463817 1.28809 4278190080
0.45410201 0.459961 1.29039 4278190080
0.51269501 0.459961 1.29223 4278190080
0.52018499 0.459961 1.28809 4278190080
0.51855499 0.459961 1.2895499 4278190080
0.524414 0.463588 1.28809 4278190080
0.58310598 0.49511701 0.94238299 4278190080
0.58300799 0.49538901 0.94238299 4278190080
0.57132399 0.47167999 0.94824201 4278190080
0.54192799 0.477539 0.98925799 4278190080
0.54006797 0.49511701 0.98925799 4278190080
0.55957001 0.499749 0.98925799 4278190080
0.54528302 0.47167999 0.99511701 4278190080
0.54199201 0.47505501 0.99511701 4278190080
0.54125601 0.50097698 0.98339802 4278190080
0.54199201 0.502918 0.98339802 4278190080
0.55797303 0.50097698 0.98339802 4278190080
0.553711 0.50483102 0.98339802 4278190080
0.577007 0.477539 0.94824201 4278190080
0.57714802 0.477833 0.94824201 4278190080
0.57714802 0.477539 0.94968998 4278190080
0.42480499 0.45384601 1.34082 4278190080
0.430664 0.450234 1.34082 4278190080
0.43652299 0.44899201 1.34082 4278190080
0.44238299 0.44870499 1.34082 4278190080
0.44824201 0.448594 1.34082 4278190080
0.45410201 0.449514 1.34082 4278190080
0.36125401 0.47167999 1.41113 4278190080
0.36035201 0.47390899 1.41113 4278190080
0.36035201 0.47167999 1.4123501 4278190080
0.43946901 0.45410201 1.31738 4278190080
0.43652299 0.45734599 1.31738 4278190080
0.43652299 0.45410201 1.32191 4278190080
0.47781101 0.45410201 1.31738 4278190080
0.477539 0.45410201 1.31765 4278190080
0.48339799 0.459858 1.31738 4278190080
0.58135098 0.48925799 0.94824201 4278190080
0.58300799 0.49223799 0.94824201 4278190080
0.53887701 0.48925799 1.00098 4278190080
0.55957001 0.495051 1.00098 4278190080
0.578641 0.48339799 0.94824201 4278190080
0.53841799 0.48339799 1.00098 4278190080
0.56542999 0.50388598 0.94238299 4278190080
0.571289 0.50477302 0.94238299 4278190080
0.58192301 0.50097698 0.94238299 4278190080
0.58394402 0.49511701 0.94824201 4278190080
0.58300799 0.49511701 0.95206499 4278190080
0.57237601 0.47167999 0.95410198 4278190080
0.57714802 0.47719699 0.95410198 4278190080
0.44027299 0.46582001 1.30566 4278190080
0.43652299 0.46582001 1.311 4278190080
0.499046 0.46582001 1.30566 4278190080
0.49511701 0.46582001 1.30981 4278190080
0.50097698 0.46701699 1.30566 4278190080
0.506836 0.46988899 1.30566 4278190080
0.45152801 0.459961 1.29395 4278190080
0.44824201 0.459961 1.2985801 4278190080
0.50097698 0.459961 1.2989399 4278190080
0.51072502 0.459961 1.29395 4278190080
0.506836 0.459961 1.296 4278190080
0.51269501 0.461891 1.29395 4278190080
0.54085898 0.477539 0.99511701 4278190080
0.54047602 0.49511701 0.99511701 4278190080
0.55957001 0.497729 0.99511701 4278190080
0.55957001 0.49511701 1.00087 4278190080
0.54279399 0.47167999 1.00098 4278190080
0.54199201 0.47345099 1.00098 4278190080
0.54199201 0.47167999 1.00368 4278190080
0.57750601 0.477539 0.95410198 4278190080
0.54051101 0.50097698 0.98925799 4278190080
0.54199201 0.50356501 0.98925799 4278190080
0.557266 0.50097698 0.98925799 4278190080
0.553711 0.50352502 0.98925799 4278190080
0.42480499 0.45164901 1.34668 4278190080
0.430664 0.45000601 1.34668 4278190080
0.43652299 0.44927499 1.34668 4278190080
0.44238299 0.449312 1.34668 4278190080
0.44824201 0.44983301 1.34668 4278190080
0.45410201 0.45170501 1.34668 4278190080
0.35667601 0.47167999 1.41699 4278190080
0.35449201 0.476448 1.41699 4278190080
0.35449201 0.47167999 1.42055 4278190080
0.58290201 0.48925799 0.95410198 4278190080
0.538046 0.48925799 1.00684 4278190080
0.53810799 0.48339799 1.00684 4278190080
0.578197 0.48339799 0.95410198 4278190080
0.56542999 0.50299501 0.94824201 4278190080
0.435619 0.45410201 1.32324 4278190080
0.430664 0.459479 1.32324 4278190080
0.473571 0.45410201 1.32324 4278190080
0.47167999 0.45410201 1.32602 4278190080
0.477539 0.45986599 1.32324 4278190080
0.58255202 0.49511701 0.95410198 4278190080
0.57173198 0.47167999 0.959961 4278190080
0.57714802 0.47610301 0.959961 4278190080
0.54102403 0.477539 1.00098 4278190080
0.43610799 0.46582001 1.31152 4278190080
0.49366701 0.46582001 1.31152 4278190080
0.48925799 0.46582001 1.31532 4278190080
0.49511701 0.468225 1.31152 4278190080
0.539702 0.49511701 1.00098 4278190080
0.55949402 0.49511701 1.00098 4278190080
0.55957001 0.49511701 1.00129 4278190080
0.44732901 0.459961 1.2998 4278190080
0.499865 0.459961 1.2998 4278190080
0.50097698 0.46075201 1.2998 4278190080
0.506836 0.46423301 1.2998 4278190080
0.57818699 0.477539 0.959961 4278190080
0.54136699 0.47167999 1.00684 4278190080
0.54161102 0.50097698 0.99511701 4278190080
0.54199201 0.50166398 0.99511701 4278190080
0.54785198 0.50546598 0.99511701 4278190080
0.55543399 0.50097698 0.99511701 4278190080
0.553711 0.50351101 0.99511701 4278190080
0.376966 0.477539 1.3877 4278190080
0.35404101 0.47167999 1.42285 4278190080
0.58141601 0.48925799 0.959961 4278190080
0.58300799 0.48925799 0.965092 4278190080
0.53686303 0.48925799 1.0127 4278190080
0.55957001 0.49468601 1.0127 4278190080
0.41894501 0.45283499 1.35254 4278190080
0.42480499 0.45070401 1.35254 4278190080
0.430664 0.45021099 1.35254 4278190080
0.43652299 0.449709 1.35254 4278190080
0.44238299 0.45005 1.35254 4278190080
0.44824201 0.45159501 1.35254 4278190080
0.53728998 0.48339799 1.0127 4278190080
0.579476 0.48339799 0.959961 4278190080
0.56542999 0.50097698 0.95561099 4278190080
0.571289 0.50097698 0.957488 4278190080
0.53902602 0.477539 1.00684 4278190080
0.431676 0.45410201 1.3291 4278190080
0.430664 0.455102 1.3291 4278190080
0.430664 0.45410201 1.33061 4278190080
0.46936199 0.45410201 1.3291 4278190080
0.46582001 0.45410201 1.33351 4278190080
0.47167999 0.45789999 1.3291 4278190080
0.56542999 0.49838299 0.959961 4278190080
0.571289 0.499347 0.959961 4278190080
0.583 0.49511701 0.959961 4278190080
0.58300799 0.49511701 0.96000803 4278190080
0.572932 0.47167999 0.96582001 4278190080
0.57714802 0.47587901 0.96582001 4278190080
0.43177599 0.46582001 1.31738 4278190080
0.430664 0.47020301 1.31738 4278190080
0.430664 0.46582001 1.3189 4278190080
0.48662499 0.46582001 1.31738 4278190080
0.48339799 0.46582001 1.32099 4278190080
0.539464 0.49511701 1.00684 4278190080
0.56123 0.49511701 1.00684 4278190080
0.55957001 0.496387 1.00684 4278190080
0.55957001 0.49511701 1.01107 4278190080
0.57861698 0.477539 0.96582001 4278190080
0.442844 0.459961 1.30566 4278190080
0.44238299 0.46078801 1.30566 4278190080
0.44238299 0.459961 1.3062299 4278190080
0.48925799 0.459961 1.31069 4278190080
0.49533999 0.459961 1.30566 4278190080
0.49511701 0.459961 1.30585 4278190080
0.54134101 0.47167999 1.0127 4278190080
0.35321 0.47167999 1.42871 4278190080
0.54118299 0.50097698 1.00098 4278190080
0.54199201 0.50198901 1.00098 4278190080
0.54785198 0.50373 1.00098 4278190080
0.55424798 0.50097698 1.00098 4278190080
0.553711 0.50182498 1.00098 4278190080
0.37212199 0.477539 1.39355 4278190080
0.37207001 0.477539 1.39361 4278190080
0.58327103 0.48925799 0.96582001 4278190080
0.58300799 0.48925799 0.96667498 4278190080
0.53729302 0.48925799 1.01855 4278190080
0.55957001 0.49401 1.01855 4278190080
0.53692597 0.48339799 1.01855 4278190080
0.413086 0.45394 1.3584 4278190080
0.41894501 0.45184201 1.3584 4278190080
0.42480499 0.45050901 1.3584 4278190080
0.430664 0.45044699 1.3584 4278190080
0.43652299 0.45056 1.3584 4278190080
0.44238299 0.45195699 1.3584 4278190080
0.57286298 0.50097698 0.959961 4278190080
0.58113301 0.50097698 0.959961 4278190080
0.58008897 0.48339799 0.96582001 4278190080
0.58300799 0.488965 0.96582001 4278190080
0.53788102 0.477539 1.0127 4278190080
0.56542999 0.49783999 0.96582001 4278190080
0.583745 0.49511701 0.96582001 4278190080
0.58300799 0.49600399 0.96582001 4278190080
0.57354701 0.47167999 0.97167999 4278190080
0.57714802 0.476109 0.97167999 4278190080
0.427946 0.45410201 1.33496 4278190080
0.42480499 0.45727301 1.33496 4278190080
0.42480499 0.45410201 1.34025 4278190080
0.464551 0.45410201 1.33496 4278190080
0.459961 0.45410201 1.34014 4278190080
0.46582001 0.45585501 1.33496 4278190080
0.57853401 0.477539 0.97167999 4278190080
0.427643 0.46582001 1.32324 4278190080
0.42480499 0.46582001 1.32714 4278190080
0.48127601 0.46582001 1.32324 4278190080
0.48339799 0.470709 1.32324 4278190080
0.53945899 0.47167999 1.01855 4278190080
0.53852999 0.49511701 1.0127 4278190080
0.55897099 0.49511701 1.0127 4278190080
0.553711 0.499935 1.0127 4278190080
0.43867999 0.459961 1.31152 4278190080
0.43652299 0.464867 1.31152 4278190080
0.43652299 0.459961 1.31442 4278190080
0.488058 0.459961 1.31152 4278190080
0.48925799 0.46059501 1.31152 4278190080
0.352824 0.47167999 1.43457 4278190080
0.413086 0.45252499 1.36426 4278190080
0.41894501 0.451619 1.36426 4278190080
0.42480499 0.450865 1.36426 4278190080
0.430664 0.450986 1.36426 4278190080
0.43652299 0.451933 1.36426 4278190080
0.53763503 0.48925799 1.02441 4278190080
0.55957001 0.49214301 1.02441 4278190080
0.53763998 0.48339799 1.02441 4278190080
0.582039 0.48925799 0.97167999 4278190080
0.58300799 0.49246901 0.97167999 4278190080
0.36766699 0.477539 1.39941 4278190080
0.366211 0.477539 1.40154 4278190080
0.540905 0.50097698 1.00684 4278190080
0.54199201 0.50220501 1.00684 4278190080
0.54785198 0.50336999 1.00684 4278190080
0.55477297 0.50097698 1.00684 4278190080
0.553711 0.50212598 1.00684 4278190080
0.553711 0.50097698 1.00991 4278190080
0.58055502 0.50097698 0.96582001 4278190080
0.53637302 0.477539 1.01855 4278190080
0.57999599 0.48339799 0.97167999 4278190080
0.583799 0.49511701 0.97167999 4278190080
0.58300799 0.49511701 0.97552598 4278190080
0.57404202 0.47167999 0.977539 4278190080
0.57714802 0.47543299 0.977539 4278190080
0.42441499 0.45410201 1.34082 4278190080
0.41894501 0.45912501 1.34082 4278190080
0.459232 0.45410201 1.34082 4278190080
0.459961 0.455208 1.34082 4278190080
0.57912099 0.477539 0.977539 4278190080
0.423244 0.46582001 1.3291 4278190080
0.41894501 0.46582001 1.3342299 4278190080
0.47802299 0.46582001 1.3291 4278190080
0.477539 0.46582001 1.3298 4278190080
0.53900701 0.47167999 1.02441 4278190080
0.53740603 0.49511701 1.01855 4278190080
0.55780202 0.49511701 1.01855 4278190080
0.553711 0.50045598 1.01855 4278190080
0.40722701 0.45346999 1.37012 4278190080
0.413086 0.45221901 1.37012 4278190080
0.41894501 0.451682 1.37012 4278190080
0.42480499 0.451579 1.37012 4278190080
0.430664 0.452232 1.37012 4278190080
0.43652299 0.454045 1.37012 4278190080
0.35275999 0.47167999 1.44043 4278190080
0.53697801 0.48339799 1.03027 4278190080
0.53703898 0.48925799 1.03027 4278190080
0.53613299 0.48925799 1.0345 4278190080
0.55957001 0.493099 1.03027 4278190080
0.43430799 0.459961 1.31738 4278190080
0.430664 0.459961 1.32267 4278190080
0.483459 0.459961 1.31738 4278190080
0.48339799 0.459961 1.3174599 4278190080
0.58258802 0.48925799 0.977539 4278190080
0.363433 0.477539 1.40527 4278190080
0.36035201 0.477539 1.40949 4278190080
0.53715903 0.477539 1.02441 4278190080
0.58073401 0.48339799 0.977539 4278190080
0.541031 0.50097698 1.0127 4278190080
0.54199201 0.50191402 1.0127 4278190080
0.55192798 0.50097698 1.0127 4278190080
0.54785198 0.503277 1.0127 4278190080
0.58251399 0.49511701 0.977539 4278190080
0.58300799 0.49511701 0.978912 4278190080
0.57464403 0.47167999 0.98339802 4278190080
0.57714802 0.475629 0.98339802 4278190080
0.41843301 0.46582001 1.33496 4278190080
0.47341201 0.46582001 1.33496 4278190080
0.47167999 0.46582001 1.33672 4278190080
0.57848197 0.477539 0.98339802 4278190080
0.42008001 0.45410201 1.34668 4278190080
0.41894501 0.45506299 1.34668 4278190080
0.41894501 0.45410201 1.34846 4278190080
0.45581001 0.45410201 1.34668 4278190080
0.45410201 0.45410201 1.34877 4278190080
0.53926498 0.47167999 1.03027 4278190080
0.40722701 0.45294201 1.37598 4278190080
0.413086 0.45231 1.37598 4278190080
0.41894501 0.452342 1.37598 4278190080
0.42480499 0.452479 1.37598 4278190080
0.430664 0.453538 1.37598 4278190080
0.53808898 0.49511701 1.02441 4278190080
0.55515701 0.49511701 1.02441 4278190080
0.553711 0.49712199 1.02441 4278190080
0.353964 0.47167999 1.44629 4278190080
0.34863299 0.47742599 1.44629 4278190080
0.35449201 0.47167999 1.44962 4278190080
0.366211 0.47167999 1.45155 4278190080
0.376127 0.47167999 1.44629 4278190080
0.37207001 0.47167999 1.44933 4278190080
0.53614902 0.48339799 1.03613 4278190080
0.53613299 0.483578 1.03613 4278190080
0.53613299 0.48339799 1.03618 4278190080
0.43028 0.459961 1.32324 4278190080
0.47760901 0.459961 1.32324 4278190080
0.477539 0.459961 1.32335 4278190080
0.53580999 0.48925799 1.03613 4278190080
0.53613299 0.48969799 1.03613 4278190080
0.553711 0.49408901 1.03613 4278190080
0.55957001 0.49174401 1.03613 4278190080
0.58192903 0.48925799 0.98339802 4278190080
0.58300799 0.49160299 0.98339802 4278190080
0.53716898 0.477539 1.03027 4278190080
0.580872 0.48339799 0.98339802 4278190080
0.35919499 0.477539 1.41113 4278190080
0.35449201 0.477539 1.4165699 4278190080
0.56542999 0.49827299 0.98339802 4278190080
0.57714802 0.49511701 0.98902297 4278190080
0.58400297 0.49511701 0.98339802 4278190080
0.58300799 0.49511701 0.985394 4278190080
0.54125398 0.50097698 1.01855 4278190080
0.54199201 0.50146699 1.01855 4278190080
0.55307698 0.50097698 1.01855 4278190080
0.54785198 0.50324202 1.01855 4278190080
0.57503998 0.47167999 0.98925799 4278190080
0.57714802 0.473878 0.98925799 4278190080
0.40136701 0.453311 1.38184 4278190080
0.40722701 0.452611 1.38184 4278190080
0.413086 0.452492 1.38184 4278190080
0.41894501 0.45293 1.38184 4278190080
0.42480499 0.45364499 1.38184 4278190080
0.41444099 0.46582001 1.34082 4278190080
0.413086 0.46582001 1.3428 4278190080
0.466741 0.46582001 1.34082 4278190080
0.46582001 0.46582001 1.34157 4278190080
0.538625 0.47167999 1.03613 4278190080
0.57888699 0.477539 0.98925799 4278190080
0.41666201 0.45410201 1.35254 4278190080
0.413086 0.45709601 1.35254 4278190080
0.413086 0.45410201 1.35795 4278190080
0.45068499 0.45410201 1.35254 4278190080
0.44824201 0.45410201 1.35557 4278190080
0.53810799 0.49511701 1.03027 4278190080
0.55511898 0.49511701 1.03027 4278190080
0.553711 0.49602199 1.03027 4278190080
0.553711 0.49511701 1.03311 4278190080
0.53477401 0.48339799 1.04199 4278190080
0.35760301 0.47167999 1.45215 4278190080
0.35449201 0.47282499 1.45215 4278190080
0.362551 0.47167999 1.45215 4278190080
0.36035201 0.47167999 1.45236 4278190080
0.53552902 0.48925799 1.04199 4278190080
0.55957001 0.49091399 1.04199 4278190080
0.58189797 0.48925799 0.98925799 4278190080
0.57714802 0.49495801 0.98925799 4278190080
0.53629398 0.477539 1.03613 4278190080
0.53613299 0.477539 1.0373 4278190080
0.58061898 0.48339799 0.98925799 4278190080
0.426153 0.459961 1.3291 4278190080
0.42480499 0.46261501 1.3291 4278190080
0.42480499 0.459961 1.33108 4278190080
0.47310001 0.459961 1.3291 4278190080
0.47167999 0.459961 1.33162 4278190080
0.477539 0.46480399 1.3291 4278190080
0.354298 0.477539 1.41699 4278190080
0.35449201 0.47963399 1.41699 4278190080
0.39550799 0.45389301 1.3877 4278190080
0.40136701 0.45310199 1.3877 4278190080
0.40722701 0.45320001 1.3877 4278190080
0.413086 0.453082 1.3877 4278190080
0.41894501 0.45356101 1.3877 4278190080
0.57490802 0.47167999 0.99511701 4278190080
0.57714802 0.47642699 0.99511701 4278190080
0.57702398 0.49511701 0.98925799 4278190080
0.571289 0.49511701 0.99463898 4278190080
0.540766 0.50097698 1.02441 4278190080
0.54199201 0.50168902 1.02441 4278190080
0.54991502 0.50097698 1.02441 4278190080
0.54785198 0.50258398 1.02441 4278190080
0.53826702 0.47167999 1.04199 4278190080
0.53613299 0.47598201 1.04199 4278190080
0.57751 0.477539 0.99511701 4278190080
0.41028801 0.46582001 1.34668 4278190080
0.40722701 0.46582001 1.35096 4278190080
0.461474 0.46582001 1.34668 4278190080
0.459961 0.46582001 1.34855 4278190080
0.41278401 0.45410201 1.3584 4278190080
0.40722701 0.45865199 1.3584 4278190080
0.44525501 0.45410201 1.3584 4278190080
0.44238299 0.45410201 1.3614 4278190080
0.53444201 0.48339799 1.04785 4278190080
0.53857797 0.49511701 1.03613 4278190080
0.53613299 0.49511701 1.04176 4278190080
0.54199201 0.50082099 1.03613 4278190080
0.55255401 0.49511701 1.03613 4278190080
0.553711 0.49511701 1.04005 4278190080
0.53425699 0.48925799 1.04785 4278190080
0.53613299 0.49389499 1.04785 4278190080
0.553711 0.49184999 1.04785 4278190080
0.55957001 0.49078 1.04785 4278190080
0.55957001 0.48925799 1.05155 4278190080
0.571289 0.494681 0.99511701 4278190080
0.58144403 0.48925799 0.99511701 4278190080
0.535487 0.477539 1.04199 4278190080
0.352422 0.477539 1.42285 4278190080
0.58083099 0.48339799 0.99511701 4278190080
0.39550799 0.45343301 1.39355 4278190080
0.40136701 0.45362601 1.39355 4278190080
0.40722701 0.45340899 1.39355 4278190080
0.422169 0.459961 1.33496 4278190080
0.41894501 0.46484801 1.33496 4278190080
0.41894501 0.459961 1.3396699 4278190080
0.469457 0.459961 1.33496 4278190080
0.46582001 0.459961 1.3386 4278190080
0.47167999 0.462266 1.33496 4278190080
0.57670099 0.47167999 1.00098 4278190080
0.57714802 0.473508 1.00098 4278190080
0.57800001 0.477539 1.00098 4278190080
0.570409 0.49511701 0.99511701 4278190080
0.56542999 0.49709401 0.99511701 4278190080
0.56542999 0.49511701 0.99992001 4278190080
0.571289 0.49511701 0.996301 4278190080
0.53657502 0.47167999 1.04785 4278190080
0.53613299 0.47261301 1.04785 4278190080
0.53613299 0.47167999 1.04984 4278190080
0.40607899 0.46582001 1.35254 4278190080
0.45686901 0.46582001 1.35254 4278190080
0.45410201 0.46582001 1.35545 4278190080
0.540824 0.50097698 1.03027 4278190080
0.54199201 0.50146198 1.03027 4278190080
0.54199201 0.50097698 1.03518 4278190080
0.54944402 0.50097698 1.03027 4278190080
0.54785198 0.50276399 1.03027 4278190080
0.81152302 0.47167999 1.11102 4278190080
0.81738299 0.47167999 1.1096801 4278190080
0.82324201 0.47167999 1.11 4278190080
0.82910198 0.47167999 1.11169 4278190080
0.53365898 0.48339799 1.05371 4278190080
0.55957001 0.48821199 1.05371 4278190080
0.409179 0.45410201 1.36426 4278190080
0.40722701 0.45551601 1.36426 4278190080
0.40722701 0.45410201 1.3674901 4278190080
0.43992499 0.45410201 1.36426 4278190080
0.44238299 0.45738101 1.36426 4278190080
0.53434598 0.477539 1.04785 4278190080
0.56542999 0.49449399 1.00098 4278190080
0.58104998 0.48925799 1.00098 4278190080
0.57714802 0.49478501 1.00098 4278190080
0.53401601 0.48925799 1.05371 4278190080
0.557064 0.48925799 1.05371 4278190080
0.553711 0.491023 1.05371 4278190080
0.536026 0.49511701 1.04199 4278190080
0.53613299 0.49532601 1.04199 4278190080
0.53613299 0.49511701 1.0434901 4278190080
0.54199201 0.49919501 1.04199 4278190080
0.55400002 0.49511701 1.04199 4278190080
0.553711 0.49567601 1.04199 4278190080
0.553711 0.49511701 1.04269 4278190080
0.35070199 0.477539 1.42871 4278190080
0.58251297 0.48339799 1.00098 4278190080
0.81738299 0.477539 1.11114 4278190080
0.82324201 0.477539 1.1109999 4278190080
0.82910198 0.477539 1.1118799 4278190080
0.39550799 0.45383799 1.39941 4278190080
0.40136701 0.45383 1.39941 4278190080
0.40722701 0.453614 1.39941 4278190080
0.57903099 0.477539 1.00684 4278190080
0.41815001 0.459961 1.34082 4278190080
0.463393 0.459961 1.34082 4278190080
0.459961 0.459961 1.34351 4278190080
0.46582001 0.463469 1.34082 4278190080
0.57638001 0.47167999 1.00684 4278190080
0.57714802 0.47252101 1.00684 4278190080
0.57714802 0.47167999 1.0107501 4278190080
0.53549802 0.47167999 1.05371 4278190080
0.56683397 0.49511701 1.00098 4278190080
0.57654399 0.49511701 1.00098 4278190080
0.54241902 0.50097698 1.03613 4278190080
0.54962599 0.50097698 1.03613 4278190080
0.54785198 0.50203001 1.03613 4278190080
0.40168601 0.46582001 1.3584 4278190080
0.40136701 0.466748 1.3584 4278190080
0.40136701 0.46582001 1.35883 4278190080
0.45136401 0.46582001 1.3584 4278190080
0.44824201 0.46582001 1.36277 4278190080
0.45410201 0.470157 1.3584 4278190080
0.79980499 0.47167999 1.11804 4278190080
0.809946 0.47167999 1.1123 4278190080
0.805664 0.47167999 1.11541 4278190080
0.81152302 0.47325 1.1123 4278190080
0.83027703 0.47167999 1.1123 4278190080
0.834961 0.47167999 1.1142499 4278190080
0.53329402 0.48339799 1.05957 4278190080
0.55957001 0.486496 1.05957 4278190080
0.53353798 0.477539 1.05371 4278190080
0.40539801 0.45410201 1.37012 4278190080
0.40136701 0.45711899 1.37012 4278190080
0.43658599 0.45410201 1.37012 4278190080
0.43652299 0.45410201 1.37023 4278190080
0.34914199 0.477539 1.43457 4278190080
0.34863299 0.4815 1.43457 4278190080
0.56542999 0.49356699 1.00684 4278190080
0.57921398 0.48925799 1.00684 4278190080
0.57714802 0.49187401 1.00684 4278190080
0.58151901 0.48339799 1.00684 4278190080
0.81738299 0.48339799 1.11441 4278190080
0.82324201 0.48339799 1.11388 4278190080
0.82910198 0.48339799 1.11314 4278190080
0.834961 0.48339799 1.11537 4278190080
0.534181 0.48925799 1.05957 4278190080
0.55485302 0.48925799 1.05957 4278190080
0.553711 0.49018201 1.05957 4278190080
0.553711 0.48925799 1.06122 4278190080
0.373308 0.48339799 1.39355 4278190080
0.37207001 0.48339799 1.39512 4278190080
0.53665799 0.49511701 1.04785 4278190080
0.53613299 0.49511701 1.04924 4278190080
0.54199201 0.49844801 1.04785 4278190080
0.55001497 0.49511701 1.04785 4278190080
0.57966501 0.477539 1.0127 4278190080
0.81530201 0.477539 1.1123 4278190080
0.81152302 0.477539 1.11474 4278190080
0.81738299 0.479682 1.1123 4278190080
0.82324201 0.48009199 1.1123 4278190080
0.82993501 0.477539 1.1123 4278190080
0.82910198 0.47963199 1.1123 4278190080
0.834961 0.477539 1.11487 4278190080
0.53446698 0.47167999 1.05957 4278190080
0.57731998 0.47167999 1.0127 4278190080
0.414101 0.459961 1.34668 4278190080
0.413086 0.461402 1.34668 4278190080
0.413086 0.459961 1.34807 4278190080
0.45685199 0.459961 1.34668 4278190080
0.45410201 0.459961 1.34939 4278190080
0.459961 0.462966 1.34668 4278190080
0.568434 0.49511701 1.00684 4278190080
0.57393599 0.49511701 1.00684 4278190080
0.571289 0.49762401 1.00684 4278190080
0.571289 0.49511701 1.01182 4278190080
0.53308803 0.48339799 1.06543 4278190080
0.553711 0.48686999 1.06543 4278190080
0.55957001 0.486303 1.06543 4278190080
0.54471499 0.50097698 1.04199 4278190080
0.54903901 0.50097698 1.04199 4278190080
0.54785198 0.50289798 1.04199 4278190080
0.53328902 0.477539 1.05957 4278190080
0.788086 0.47167999 1.12272 4278190080
0.79954898 0.47167999 1.11816 4278190080
0.79394501 0.47167999 1.1210901 4278190080
0.79980499 0.47179201 1.11816 4278190080
0.805664 0.47489801 1.11816 4278190080
0.83828902 0.47167999 1.11816 4278190080
0.39550799 0.458671 1.37598 4278190080
0.40142801 0.45410201 1.37598 4278190080
0.40136701 0.45412901 1.37598 4278190080
0.40136701 0.45410201 1.37606 4278190080
0.43166199 0.45410201 1.37598 4278190080
0.430664 0.45410201 1.37701 4278190080
0.34872401 0.477539 1.44043 4278190080
0.34863299 0.477974 1.44043 4278190080
0.34863299 0.477539 1.44295 4278190080
0.397457 0.46582001 1.36426 4278190080
0.39550799 0.471544 1.36426 4278190080
0.39550799 0.46582001 1.3669699 4278190080
0.44685999 0.46582001 1.36426 4278190080
0.44238299 0.46582001 1.37008 4278190080
0.44824201 0.46938699 1.36426 4278190080
0.56542999 0.493922 1.0127 4278190080
0.571289 0.494771 1.0127 4278190080
0.57877398 0.48925799 1.0127 4278190080
0.58110499 0.48339799 1.0127 4278190080
0.53512198 0.49511701 1.05371 4278190080
0.53613299 0.49627101 1.05371 4278190080
0.54199201 0.49845299 1.05371 4278190080
0.54818499 0.49511701 1.05371 4278190080
0.54785198 0.49614799 1.05371 4278190080
0.81283098 0.48339799 1.11816 4278190080
0.81152302 0.48339799 1.1195101 4278190080
0.81738299 0.48896 1.11816 4278190080
0.840002 0.48339799 1.11816 4278190080
0.84082001 0.487618 1.11816 4278190080
0.84082001 0.48339799 1.1188 4278190080
0.578466 0.477539 1.01855 4278190080
0.533131 0.48925799 1.06543 4278190080
0.55111498 0.48925799 1.06543 4278190080
0.37604299 0.48925799 1.39355 4278190080
0.37207001 0.48925799 1.39846 4278190080
0.36878499 0.48339799 1.39941 4278190080
0.366211 0.48339799 1.40254 4278190080
0.53358102 0.47167999 1.06543 4278190080
0.57742202 0.47167999 1.01855 4278190080
0.57714802 0.47167999 1.01984 4278190080
0.80764699 0.477539 1.11816 4278190080
0.805664 0.477539 1.12006 4278190080
0.81152302 0.48189101 1.11816 4278190080
0.83979797 0.477539 1.11816 4278190080
0.84082001 0.477539 1.11962 4278190080
0.53268898 0.48339799 1.07129 4278190080
0.553711 0.488291 1.07129 4278190080
0.55957001 0.486278 1.07129 4278190080
0.409769 0.459961 1.35254 4278190080
0.40722701 0.46386701 1.35254 4278190080
0.40722701 0.459961 1.3562 4278190080
0.451612 0.459961 1.35254 4278190080
0.44824201 0.459961 1.35809 4278190080
0.45410201 0.462073 1.35254 4278190080
0.53228003 0.477539 1.06543 4278190080
0.54733598 0.50097698 1.04785 4278190080
0.54814303 0.50097698 1.04785 4278190080
0.54785198 0.50132 1.04785 4278190080
0.54785198 0.50097698 1.04887 4278190080
0.56542999 0.49377599 1.01855 4278190080
0.571289 0.495002 1.01855 4278190080
0.57845199 0.48925799 1.01855 4278190080
0.57714802 0.48925799 1.02201 4278190080
0.77636701 0.47167999 1.12951 4278190080
0.78594202 0.47167999 1.12402 4278190080
0.78222698 0.47167999 1.12652 4278190080
0.788086 0.47264999 1.12402 4278190080
0.79394501 0.47397399 1.12402 4278190080
0.79980499 0.477339 1.12402 4278190080
0.83955002 0.47167999 1.12402 4278190080
0.84082001 0.474307 1.12402 4278190080
0.84082001 0.47167999 1.12758 4278190080
0.58275199 0.48339799 1.01855 4278190080
0.57861698 0.477539 1.02441 4278190080
0.398283 0.45410201 1.38184 4278190080
0.39550799 0.45572901 1.38184 4278190080
0.39550799 0.45410201 1.38641 4278190080
0.42568001 0.45410201 1.38184 4278190080
0.42480499 0.45410201 1.38308 4278190080
0.348564 0.477539 1.44629 4278190080
0.34863299 0.477539 1.44678 4278190080
0.366211 0.477539 1.45117 4278190080
0.37547001 0.477539 1.44629 4278190080
0.37207001 0.479673 1.44629 4278190080
0.37207001 0.477539 1.4478101 4278190080
0.39334199 0.46582001 1.37012 4278190080
0.38964799 0.46582001 1.37533 4278190080
0.44234401 0.46582001 1.37012 4278190080
0.44238299 0.46586901 1.37012 4278190080
0.533912 0.48925799 1.07129 4278190080
0.55270803 0.48925799 1.07129 4278190080
0.54785198 0.49495801 1.07129 4278190080
0.53460598 0.49511701 1.05957 4278190080
0.53613299 0.49700901 1.05957 4278190080
0.54199201 0.49940699 1.05957 4278190080
0.54865402 0.49511701 1.05957 4278190080
0.54785198 0.49702799 1.05957 4278190080
0.37124699 0.48925799 1.39941 4278190080
0.37207001 0.49072 1.39941 4278190080
0.37429199 0.49511701 1.39941 4278190080
0.37207001 0.49511701 1.40216 4278190080
0.36386701 0.48339799 1.40527 4278190080
0.36035201 0.48339799 1.40961 4278190080
0.366211 0.48912999 1.40527 4278190080
0.79980499 0.48339799 1.1273299 4278190080
0.80713999 0.48339799 1.12402 4278190080
0.805664 0.48339799 1.12544 4278190080
0.84578502 0.48339799 1.12402 4278190080
0.84667999 0.48705101 1.12402 4278190080
0.53294402 0.47167999 1.07129 4278190080
0.57581198 0.47167999 1.02441 4278190080
0.57714802 0.47397801 1.02441 4278190080
0.57714802 0.47167999 1.02885 4278190080
0.53223997 0.48339799 1.07715 4278190080
0.553711 0.48688799 1.07715 4278190080
0.53228599 0.477539 1.07129 4278190080
0.788086 0.477539 1.12967 4278190080
0.79394501 0.477539 1.12664 4278190080
0.80003703 0.477539 1.12402 4278190080
0.79980499 0.477539 1.12418 4278190080
0.805664 0.481823 1.12402 4278190080
0.84303099 0.477539 1.12402 4278190080
0.40584999 0.459961 1.3584 4278190080
0.448028 0.459961 1.3584 4278190080
0.44824201 0.46016601 1.3584 4278190080
0.56542999 0.493173 1.02441 4278190080
0.57604498 0.48925799 1.02441 4278190080
0.57913399 0.477539 1.03027 4278190080
0.57936102 0.48339799 1.02441 4278190080
0.57714802 0.48627701 1.02441 4278190080
0.394683 0.45410201 1.3877 4278190080
0.38964799 0.45707601 1.3877 4278190080
0.413086 0.45410201 1.39336 4278190080
0.42067701 0.45410201 1.3877 4278190080
0.41894501 0.45410201 1.3899601 4278190080
0.42480499 0.45936 1.3877 4278190080
0.77591401 0.47167999 1.12988 4278190080
0.77636701 0.47185799 1.12988 4278190080
0.78222698 0.47457901 1.12988 4278190080
0.84183598 0.47167999 1.12988 4278190080
0.35103601 0.477539 1.45215 4278190080
0.35449201 0.477539 1.45337 4278190080
0.36399201 0.477539 1.45215 4278190080
0.36035201 0.48144001 1.45215 4278190080
0.36035201 0.477539 1.45304 4278190080
0.389162 0.46582001 1.37598 4278190080
0.43744299 0.46582001 1.37598 4278190080
0.43652299 0.46582001 1.37688 4278190080
0.53415799 0.48925799 1.07715 4278190080
0.55106401 0.48925799 1.07715 4278190080
0.54785198 0.49501699 1.07715 4278190080
0.82324201 0.48925799 1.11727 4278190080
0.82910198 0.48925799 1.1154701 4278190080
0.834961 0.48925799 1.1166101 4278190080
0.84082001 0.48925799 1.11779 4278190080
0.36929601 0.49511701 1.40527 4278190080
0.366211 0.49511701 1.4089 4278190080
0.37207001 0.49973899 1.40527 4278190080
0.36625701 0.48925799 1.40527 4278190080
0.366211 0.48925799 1.4053299 4278190080
0.53487402 0.49511701 1.06543 4278190080
0.53613299 0.49667901 1.06543 4278190080
0.54199201 0.499439 1.06543 4278190080
0.54881197 0.49511701 1.06543 4278190080
0.54785198 0.49643201 1.06543 4278190080
0.54785198 0.49511701 1.07051 4278190080
0.359337 0.48339799 1.41113 4278190080
0.36035201 0.48581901 1.41113 4278190080
0.53279197 0.47167999 1.07715 4278190080
0.57740301 0.47167999 1.03027 4278190080
0.53142899 0.48339799 1.08301 4278190080
0.553711 0.487387 1.08301 4278190080
0.56177002 0.48339799 1.08301 4278190080
0.53165501 0.477539 1.07715 4278190080
0.37280801 0.50097698 1.40527 4278190080
0.37207001 0.50097698 1.40609 4278190080
0.79650998 0.48339799 1.12988 4278190080
0.79394501 0.48339799 1.13232 4278190080
0.79980499 0.48815599 1.12988 4278190080
0.84573901 0.48339799 1.12988 4278190080
0.84667999 0.48509401 1.12988 4278190080
0.84667999 0.48339799 1.1342601 4278190080
0.57436502 0.48925799 1.03027 4278190080
0.402309 0.459961 1.36426 4278190080
0.40136701 0.46109301 1.36426 4278190080
0.40136701 0.459961 1.36579 4278190080
0.44432899 0.459961 1.36426 4278190080
0.44238299 0.459961 1.36612 4278190080
0.579328 0.477539 1.03613 4278190080
0.78766 0.477539 1.12988 4278190080
0.78222698 0.477539 1.1320601 4278190080
0.788086 0.477781 1.12988 4278190080
0.79394501 0.48194 1.12988 4278190080
0.84416902 0.477539 1.12988 4278190080
0.57829702 0.48339799 1.03027 4278190080
0.57714802 0.48436099 1.03027 4278190080
0.383789 0.458727 1.39355 4278190080
0.39198199 0.45410201 1.39355 4278190080
0.38964799 0.455134 1.39355 4278190080
0.41279599 0.45410201 1.39355 4278190080
0.413086 0.45416799 1.39355 4278190080
0.41894501 0.45710799 1.39355 4278190080
0.771348 0.47167999 1.13574 4278190080
0.77636701 0.47435299 1.13574 4278190080
0.77636701 0.47167999 1.13922 4278190080
0.834961 0.47167999 1.1414599 4278190080
0.84220701 0.47167999 1.13574 4278190080
0.534518 0.48925799 1.08301 4278190080
0.53613299 0.491586 1.08301 4278190080
0.55140501 0.48925799 1.08301 4278190080
0.54785198 0.49370101 1.08301 4278190080
0.81152302 0.48925799 1.12141 4278190080
0.81865001 0.48925799 1.11816 4278190080
0.81738299 0.48925799 1.11843 4278190080
0.82324201 0.49200499 1.11816 4278190080
0.84297597 0.48925799 1.11816 4278190080
0.84667999 0.49069399 1.11816 4278190080
0.84667999 0.48925799 1.12067 4278190080
0.53177702 0.47167999 1.08301 4278190080
0.38495401 0.46582001 1.38184 4278190080
0.383789 0.46806699 1.38184 4278190080
0.383789 0.46582001 1.38353 4278190080
0.43172601 0.46582001 1.38184 4278190080
0.430664 0.46582001 1.38335 4278190080
0.577429 0.47167999 1.03613 4278190080
0.57714802 0.47167999 1.03862 4278190080
0.361873 0.48925799 1.41113 4278190080
0.36035201 0.48925799 1.41304 4278190080
0.36441201 0.49511701 1.41113 4278190080
0.36035201 0.49511701 1.41617 4278190080
0.366211 0.49891901 1.41113 4278190080
0.53518802 0.49511701 1.07129 4278190080
0.53613299 0.49615499 1.07129 4278190080
0.54761702 0.49511701 1.07129 4278190080
0.54199201 0.49973401 1.07129 4278190080
0.35505399 0.48339799 1.41699 4278190080
0.35449201 0.48339799 1.41786 4278190080
0.53135699 0.477539 1.08301 4278190080
0.53027302 0.477539 1.08868 4278190080
0.53152001 0.48339799 1.08887 4278190080
0.553711 0.486285 1.08887 4278190080
0.55957001 0.48479101 1.08887 4278190080
0.36727601 0.50097698 1.41113 4278190080
0.366211 0.50097698 1.41251 4278190080
0.57898802 0.477539 1.04199 4278190080
0.790667 0.48339799 1.13574 4278190080
0.788086 0.48339799 1.1372499 4278190080
0.84698498 0.48339799 1.13574 4278190080
0.84667999 0.48339799 1.13696 4278190080
0.56542999 0.49273899 1.03613 4278190080
0.57254303 0.48925799 1.03613 4278190080
0.571289 0.48925799 1.03808 4278190080
0.578282 0.48339799 1.03613 4278190080
0.57714802 0.48426899 1.03613 4278190080
0.39815199 0.459961 1.37012 4278190080
0.39550799 0.46283001 1.37012 4278190080
0.39550799 0.459961 1.37362 4278190080
0.43762401 0.459961 1.37012 4278190080
0.43652299 0.459961 1.37176 4278190080
0.77854598 0.477539 1.13574 4278190080
0.78222698 0.479877 1.13574 4278190080
0.788086 0.482274 1.13574 4278190080
0.84292501 0.477539 1.13574 4278190080
0.84667999 0.48321801 1.13574 4278190080
0.383789 0.45659 1.39941 4278190080
0.39307201 0.45410201 1.39941 4278190080
0.38964799 0.45484099 1.39941 4278190080
0.39550799 0.45410201 1.4038301 4278190080
0.40136701 0.45410201 1.40284 4278190080
0.408849 0.45410201 1.39941 4278190080
0.40722701 0.45410201 1.4019001 4278190080
0.413086 0.45699599 1.39941 4278190080
0.57669801 0.47167999 1.04199 4278190080
0.57714802 0.47273001 1.04199 4278190080
0.53042603 0.47167999 1.08887 4278190080
0.53027302 0.47621101 1.08887 4278190080
0.53027302 0.47167999 1.0903 4278190080
0.53387499 0.48925799 1.08887 4278190080
0.53613299 0.492663 1.08887 4278190080
0.55076098 0.48925799 1.08887 4278190080
0.54785198 0.49418601 1.08887 4278190080
0.77916402 0.47167999 1.1416 4278190080
0.77636701 0.47167999 1.14711 4278190080
0.83478898 0.47167999 1.1416 4278190080
0.82910198 0.47167999 1.14728 4278190080
0.834961 0.47188199 1.1416 4278190080
0.35729399 0.48925799 1.41699 4278190080
0.35449201 0.48925799 1.42151 4278190080
0.80759901 0.48925799 1.12402 4278190080
0.805664 0.48925799 1.12581 4278190080
0.847583 0.48925799 1.12402 4278190080
0.53024399 0.477539 1.08887 4278190080
0.53027302 0.477669 1.08887 4278190080
0.35986799 0.49511701 1.41699 4278190080
0.36035201 0.49643999 1.41699 4278190080
0.53056598 0.48339799 1.09473 4278190080
0.53027302 0.48339799 1.09706 4278190080
0.553711 0.48532999 1.09473 4278190080
0.55957001 0.48635101 1.09473 4278190080
0.35220999 0.48339799 1.42285 4278190080
0.38060501 0.46582001 1.3877 4278190080
0.37792999 0.47109801 1.3877 4278190080
0.37792999 0.46582001 1.39124 4278190080
0.42670399 0.46582001 1.3877 4278190080
0.42480499 0.46582001 1.3897099 4278190080
0.53595299 0.49511701 1.07715 4278190080
0.53613299 0.49536601 1.07715 4278190080
0.53613299 0.49511701 1.07771 4278190080
0.54770303 0.49511701 1.07715 4278190080
0.54199201 0.49810499 1.07715 4278190080
0.36279601 0.50097698 1.41699 4278190080
0.36035201 0.50097698 1.41991 4278190080
0.57893801 0.477539 1.04785 4278190080
0.78436899 0.48339799 1.1416 4278190080
0.788086 0.487721 1.1416 4278190080
0.834961 0.48339799 1.1440901 4278190080
0.84502298 0.48339799 1.1416 4278190080
0.84082001 0.48339799 1.14318 4278190080
0.56915402 0.48925799 1.04199 4278190080
0.571289 0.48925799 1.04503 4278190080
0.571289 0.48732701 1.04199 4278190080
0.57906997 0.48339799 1.04199 4278190080
0.57714802 0.48488301 1.04199 4278190080
0.39389801 0.459961 1.37598 4278190080
0.38964799 0.46517599 1.37598 4278190080
0.433626 0.459961 1.37598 4278190080
0.430664 0.459961 1.3800499 4278190080
0.43652299 0.46347699 1.37598 4278190080
0.77910203 0.477539 1.1416 4278190080
0.78222698 0.48012799 1.1416 4278190080
0.78222698 0.477539 1.14299 4278190080
0.788086 0.477539 1.14456 4278190080
0.79394501 0.477539 1.1447001 4278190080
0.84248698 0.477539 1.1416 4278190080
0.37792999 0.45861599 1.40527 4278190080
0.383789 0.45609799 1.40527 4278190080
0.38964799 0.45502701 1.40527 4278190080
0.39550799 0.45422801 1.40527 4278190080
0.40136701 0.45445701 1.40527 4278190080
0.40722701 0.45612001 1.40527 4278190080
0.575396 0.47167999 1.04785 4278190080
0.57714802 0.47422099 1.04785 4278190080
0.52995199 0.47167999 1.09473 4278190080
0.350454 0.48339799 1.42871 4278190080
0.34863299 0.48339799 1.43399 4278190080
0.53242302 0.48925799 1.09473 4278190080
0.53613299 0.493718 1.09473 4278190080
0.54944801 0.48925799 1.09473 4278190080
0.54785198 0.49362901 1.09473 4278190080
0.52973503 0.477539 1.09473 4278190080
0.53027302 0.48146099 1.09473 4278190080
0.354002 0.48925799 1.42285 4278190080
0.35449201 0.49047101 1.42285 4278190080
0.539168 0.49511701 1.08301 4278190080
0.54570699 0.49511701 1.08301 4278190080
0.54199201 0.49729201 1.08301 4278190080
0.42128599 0.46582001 1.39355 4278190080
0.41894501 0.46582001 1.39741 4278190080
0.52996498 0.48339799 1.10059 4278190080
0.53027302 0.484207 1.10059 4278190080
0.553711 0.48794401 1.10059 4278190080
0.55957001 0.48648199 1.10059 4278190080
0.55957001 0.48339799 1.10579 4278190080
0.758789 0.47167999 1.15038 4278190080
0.76464802 0.47167999 1.14898 4278190080
0.77623397 0.47167999 1.14746 4278190080
0.77050799 0.47167999 1.15254 4278190080
0.77636701 0.47172201 1.14746 4278190080
0.77636701 0.47167999 1.14754 4278190080
0.78222698 0.472211 1.14746 4278190080
0.788086 0.47283399 1.14746 4278190080
0.79394501 0.47496799 1.14746 4278190080
0.82876498 0.47167999 1.14746 4278190080
0.82324201 0.47167999 1.1501499 4278190080
0.35709399 0.49511701 1.42285 4278190080
0.35449201 0.49511701 1.4268301 4278190080
0.79394501 0.48925799 1.13534 4278190080
0.800879 0.48925799 1.12988 4278190080
0.79980499 0.49266601 1.12988 4278190080
0.79980499 0.48925799 1.13069 4278190080
0.57884198 0.477539 1.05371 4278190080
0.57714802 0.479835 1.05371 4278190080
0.359126 0.50097698 1.42285 4278190080
0.36035201 0.50529599 1.42285 4278190080
0.56542999 0.48925799 1.05124 4278190080
0.573327 0.48925799 1.04785 4278190080
0.38980901 0.459961 1.38184 4278190080
0.38964799 0.460132 1.38184 4278190080
0.38964799 0.459961 1.38208 4278190080
0.429369 0.459961 1.38184 4278190080
0.430664 0.46205401 1.38184 4278190080
0.57799399 0.48339799 1.04785 4278190080
0.57714802 0.484148 1.04785 4278190080
0.57714802 0.48339799 1.04917 4278190080
0.78667998 0.48339799 1.14746 4278190080
0.788086 0.487409 1.14746 4278190080
0.788086 0.48339799 1.14801 4278190080
0.79394501 0.48339799 1.14899 4278190080
0.79980499 0.48339799 1.15075 4278190080
0.83130199 0.48339799 1.14746 4278190080
0.82910198 0.48339799 1.1499 4278190080
0.37792999 0.457526 1.41113 4278190080
0.383789 0.456063 1.41113 4278190080
0.38964799 0.45495099 1.41113 4278190080
0.39550799 0.45479801 1.41113 4278190080
0.40136701 0.455971 1.41113 4278190080
0.788086 0.48234299 1.14746 4278190080
0.79850203 0.477539 1.14746 4278190080
0.79394501 0.48153001 1.14746 4278190080
0.53003299 0.47167999 1.10059 4278190080
0.57581699 0.47167999 1.05371 4278190080
0.57714802 0.47380501 1.05371 4278190080
0.57714802 0.47167999 1.05709 4278190080
0.52905399 0.477539 1.10059 4278190080
0.348492 0.48339799 1.43457 4278190080
0.34863299 0.48569199 1.43457 4278190080
0.532502 0.48925799 1.10059 4278190080
0.55022001 0.48925799 1.10059 4278190080
0.35124099 0.48925799 1.42871 4278190080
0.53935802 0.49511701 1.08887 4278190080
0.54575199 0.49511701 1.08887 4278190080
0.54199201 0.49623999 1.08887 4278190080
0.417606 0.46582001 1.39941 4278190080
0.413086 0.46582001 1.40443 4278190080
0.41894501 0.47018999 1.39941 4278190080
0.579467 0.477539 1.05957 4278190080
0.57714802 0.48207399 1.05957 4278190080
0.353719 0.49511701 1.42871 4278190080
0.35449201 0.496483 1.42871 4278190080
0.52952999 0.48339799 1.10645 4278190080
0.53027302 0.48515999 1.10645 4278190080
0.55909801 0.48339799 1.10645 4278190080
0.553711 0.48770899 1.10645 4278190080
0.55957001 0.48339799 1.1067899 4278190080
0.37792999 0.50097698 1.11379 4278190080
0.383789 0.50097698 1.11614 4278190080
0.38964799 0.50097698 1.11807 4278190080
0.79370397 0.48925799 1.13574 4278190080
0.79394501 0.49022999 1.13574 4278190080
0.35710099 0.50097698 1.42871 4278190080
0.756675 0.47167999 1.15332 4278190080
0.758789 0.47271001 1.15332 4278190080
0.758789 0.47167999 1.15485 4278190080
0.76464802 0.47221401 1.15332 4278190080
0.76464802 0.47167999 1.15486 4278190080
0.77098203 0.47167999 1.15332 4278190080
0.77050799 0.47189999 1.15332 4278190080
0.77050799 0.47167999 1.1540101 4278190080
0.77994001 0.47167999 1.15332 4278190080
0.77636701 0.47167999 1.15813 4278190080
0.78222698 0.47333199 1.15332 4278190080
0.788086 0.47444299 1.15332 4278190080
0.79394501 0.474787 1.15332 4278190080
0.81152302 0.47167999 1.15874 4278190080
0.820153 0.47167999 1.15332 4278190080
0.82324201 0.474866 1.15332 4278190080
0.37792999 0.45743099 1.41699 4278190080
0.383789 0.45607001 1.41699 4278190080
0.38964799 0.45541099 1.41699 4278190080
0.39550799 0.45684701 1.41699 4278190080
0.80513102 0.48339799 1.15332 4278190080
0.805664 0.484263 1.15332 4278190080
0.82496202 0.48339799 1.15332 4278190080
0.56542999 0.48739699 1.05371 4278190080
0.57514799 0.48339799 1.05371 4278190080
0.385876 0.459961 1.3877 4278190080
0.383789 0.46219501 1.3877 4278190080
0.383789 0.459961 1.39095 4278190080
0.42521501 0.459961 1.3877 4278190080
0.42480499 0.459961 1.38796 4278190080
0.52867103 0.47167999 1.10645 4278190080
0.79716903 0.477539 1.15332 4278190080
0.79980499 0.481049 1.15332 4278190080
0.57783902 0.47167999 1.05957 4278190080
0.52905202 0.477539 1.10645 4278190080
0.55957001 0.48305699 1.10645 4278190080
0.57903999 0.477539 1.06543 4278190080
0.57714802 0.479972 1.06543 4278190080
0.347837 0.48339799 1.44043 4278190080
0.37482199 0.48339799 1.44043 4278190080
0.37207001 0.488276 1.44043 4278190080
0.37207001 0.48339799 1.44315 4278190080
0.53216201 0.48925799 1.10645 4278190080
0.53613299 0.49451101 1.10645 4278190080
0.550403 0.48925799 1.10645 4278190080
0.55957001 0.48925799 1.1081001 4278190080
0.348966 0.48925799 1.43457 4278190080
0.34863299 0.48925799 1.43577 4278190080
0.37207001 0.48925799 1.4399 4278190080
0.54046202 0.49511701 1.09473 4278190080
0.53613299 0.49511701 1.10034 4278190080
0.54351199 0.49511701 1.09473 4278190080
0.54199201 0.49558699 1.09473 4278190080
0.54785198 0.49511701 1.10005 4278190080
0.52922797 0.48339799 1.1123 4278190080
0.53027302 0.485484 1.1123 4278190080
0.553711 0.48738399 1.1123 4278190080
0.351969 0.49511701 1.43457 4278190080
0.35449201 0.50045598 1.43457 4278190080
0.41214401 0.46582001 1.40527 4278190080
0.413086 0.46734899 1.40527 4278190080
0.37792999 0.45755801 1.42285 4278190080
0.383789 0.456855 1.42285 4278190080
0.38964799 0.45677301 1.42285 4278190080
0.39550799 0.45893601 1.42285 4278190080
0.38990799 0.50097698 1.11816 4278190080
0.38964799 0.50122398 1.11816 4278190080
0.39550799 0.50097698 1.12045 4278190080
0.40136701 0.50097698 1.1223201 4278190080
0.35481101 0.50097698 1.43457 4278190080
0.35449201 0.50097698 1.43528 4278190080
0.78992802 0.48925799 1.1416 4278190080
0.77490401 0.47167999 1.15918 4278190080
0.77636701 0.47229901 1.15918 4278190080
0.78222698 0.47214699 1.15918 4278190080
0.788086 0.47524801 1.15918 4278190080
0.79394501 0.47614899 1.15918 4278190080
0.811364 0.47167999 1.15918 4278190080
0.81152302 0.47181201 1.15918 4278190080
0.81152302 0.47167999 1.15933 4278190080
0.80382699 0.48339799 1.15918 4278190080
0.805664 0.48339799 1.16146 4278190080
0.826572 0.48339799 1.15918 4278190080
0.56542999 0.48649299 1.05957 4278190080
0.57632101 0.48339799 1.05957 4278190080
0.52715802 0.47167999 1.1123 4278190080
0.38213801 0.459961 1.39355 4278190080
0.37792999 0.464037 1.39355 4278190080
0.42014799 0.459961 1.39355 4278190080
0.41894501 0.459961 1.39527 4278190080
0.577214 0.47167999 1.06543 4278190080
0.79542798 0.477539 1.15918 4278190080
0.79394501 0.477539 1.16346 4278190080
0.79980499 0.48062801 1.15918 4278190080
0.52779597 0.477539 1.1123 4278190080
0.57909697 0.477539 1.07129 4278190080
0.57714802 0.48003399 1.07129 4278190080
0.53175098 0.48925799 1.1123 4278190080
0.53613299 0.49476099 1.1123 4278190080
0.551292 0.48925799 1.1123 4278190080
0.55529898 0.48925799 1.1123 4278190080
0.347045 0.48339799 1.44629 4278190080
0.34863299 0.48339799 1.45189 4278190080
0.36035201 0.48339799 1.45153 4278190080
0.36812401 0.48339799 1.44629 4278190080
0.366211 0.48516399 1.44629 4278190080
0.366211 0.48339799 1.44768 4278190080
0.82910198 0.49511701 1.11756 4278190080
0.834961 0.49511701 1.11763 4278190080
0.84082001 0.49511701 1.11649 4278190080
0.84667999 0.49511701 1.1161 4278190080
0.34977701 0.49511701 1.44043 4278190080
0.366211 0.49511701 1.44565 4278190080
0.37540701 0.49511701 1.44043 4278190080
0.37207001 0.49511701 1.44192 4278190080
0.52880901 0.48339799 1.11816 4278190080
0.53027302 0.48650199 1.11816 4278190080
0.553711 0.48909599 1.11816 4278190080
0.53609002 0.49511701 1.10059 4278190080
0.53613299 0.49515101 1.10059 4278190080
0.53613299 0.49511701 1.10111 4278190080
0.54199201 0.496402 1.10059 4278190080
0.54795903 0.49511701 1.10059 4278190080
0.54785198 0.49528199 1.10059 4278190080
0.37792999 0.45805299 1.42871 4278190080
0.383789 0.457324 1.42871 4278190080
0.38964799 0.45859 1.42871 4278190080
0.40757799 0.46582001 1.41113 4278190080
0.40722701 0.46582001 1.41158 4278190080
0.347837 0.48925799 1.44043 4278190080
