# .PCD v0.7 - Point Cloud Data file format
VERSION 0.7
FIELDS x y z rgb
SIZE 4 4 4 4
TYPE F F F U
COUNT 1 1 1 1
WIDTH 1126
HEIGHT 1
VIEWPOINT 0 0 0 1 0 0 0
POINTS 1126
DATA ascii
-0.29589799 0.137695 0.75194699 4278190080
-0.28380701 0.137695 0.74902302 4278190080
-0.27832001 0.14039101 0.74902302 4278190080
-0.272461 0.141041 0.74902302 4278190080
-0.26660201 0.14170299 0.74902302 4278190080
-0.221626 0.137695 0.74902302 4278190080
-0.225586 0.14321201 0.74902302 4278190080
-0.19674601 0.137695 0.74902302 4278190080
-0.20214801 0.142023 0.74902302 4278190080
-0.196289 0.137695 0.74966002 4278190080
-0.319336 0.13021301 0.78417999 4278190080
-0.31347701 0.127266 0.78417999 4278190080
-0.30706099 0.12597699 0.78417999 4278190080
-0.30761701 0.126491 0.78417999 4278190080
-0.30175799 0.12597699 0.787992 4278190080
-0.283315 0.12597699 0.78417999 4278190080
-0.27832001 0.12597699 0.78825802 4278190080
-0.228513 0.12597699 0.78417999 4278190080
-0.231445 0.12597699 0.788122 4278190080
-0.189963 0.12597699 0.78417999 4278190080
-0.276214 0.120117 0.80761701 4278190080
-0.27832001 0.121456 0.80761701 4278190080
-0.272461 0.120117 0.80998302 4278190080
-0.26660201 0.120117 0.81286198 4278190080
-0.20053101 0.120117 0.80761701 4278190080
-0.20214801 0.120117 0.80995798 4278190080
-0.29939601 0.143555 0.74902302 4278190080
-0.26404801 0.143555 0.74902302 4278190080
-0.26074201 0.14547201 0.74902302 4278190080
-0.25488299 0.145491 0.74902302 4278190080
-0.24902301 0.145796 0.74902302 4278190080
-0.243164 0.146282 0.74902302 4278190080
-0.237305 0.148146 0.74902302 4278190080
-0.22591899 0.143555 0.74902302 4278190080
-0.231445 0.14619701 0.74902302 4278190080
-0.225586 0.143555 0.74968302 4278190080
-0.203273 0.143555 0.74902302 4278190080
-0.20214801 0.143555 0.75114 4278190080
-0.28762099 0.149414 0.73144501 4278190080
-0.290039 0.149414 0.734083 4278190080
-0.216079 0.149414 0.73144501 4278190080
-0.21386699 0.149414 0.73572999 4278190080
-0.32303199 0.131836 0.78417999 4278190080
-0.32519501 0.135802 0.78417999 4278190080
-0.32519501 0.131836 0.78632599 4278190080
-0.27863801 0.131836 0.78417999 4278190080
-0.27832001 0.132145 0.78417999 4278190080
-0.27832001 0.131836 0.78446299 4278190080
-0.272461 0.137585 0.78417999 4278190080
-0.272461 0.131836 0.78959799 4278190080
-0.226092 0.131836 0.78417999 4278190080
-0.231445 0.131836 0.78916699 4278190080
-0.225586 0.133954 0.78417999 4278190080
-0.19007 0.131836 0.78417999 4278190080
-0.32519501 0.130935 0.790039 4278190080
-0.319336 0.129163 0.790039 4278190080
-0.31347701 0.127023 0.790039 4278190080
-0.30761701 0.127832 0.790039 4278190080
-0.30056399 0.12597699 0.790039 4278190080
-0.30175799 0.12715 0.790039 4278190080
-0.29589799 0.12597699 0.79423702 4278190080
-0.27549499 0.12597699 0.790039 4278190080
-0.272461 0.130615 0.790039 4278190080
-0.272461 0.12597699 0.79217899 4278190080
-0.26660201 0.12597699 0.79537499 4278190080
-0.26074201 0.12597699 0.79586703 4278190080
-0.24902301 0.12597699 0.79552102 4278190080
-0.243164 0.12597699 0.794025 4278190080
-0.234156 0.12597699 0.790039 4278190080
-0.237305 0.12597699 0.791848 4278190080
-0.19043 0.12597699 0.79066497 4278190080
-0.29680699 0.137695 0.75488299 4278190080
-0.28308201 0.137695 0.75488299 4278190080
-0.27832001 0.14058401 0.75488299 4278190080
-0.272461 0.14138401 0.75488299 4278190080
-0.26660201 0.14353301 0.75488299 4278190080
-0.221175 0.137695 0.75488299 4278190080
-0.194856 0.137695 0.75488299 4278190080
-0.196289 0.140706 0.75488299 4278190080
-0.272461 0.123553 0.81347698 4278190080
-0.26584601 0.120117 0.81347698 4278190080
-0.26660201 0.120623 0.81347698 4278190080
-0.26074201 0.120117 0.81714499 4278190080
-0.20591 0.120117 0.81347698 4278190080
-0.20800801 0.120117 0.81486398 4278190080
-0.298686 0.143555 0.75488299 4278190080
-0.26657799 0.143555 0.75488299 4278190080
-0.26660201 0.143555 0.75492102 4278190080
-0.26074201 0.14616901 0.75488299 4278190080
-0.25488299 0.146832 0.75488299 4278190080
-0.231445 0.14872199 0.75488299 4278190080
-0.222868 0.143555 0.75488299 4278190080
-0.225586 0.14582901 0.75488299 4278190080
-0.19929001 0.143555 0.75488299 4278190080
-0.196289 0.143555 0.75840503 4278190080
-0.29216301 0.149414 0.73730499 4278190080
-0.290039 0.15397599 0.73730499 4278190080
-0.21305899 0.149414 0.73730499 4278190080
-0.32785401 0.131836 0.790039 4278190080
-0.33105499 0.136214 0.790039 4278190080
-0.271745 0.131836 0.790039 4278190080
-0.26660201 0.131836 0.79427499 4278190080
-0.243164 0.131836 0.79536903 4278190080
-0.23301899 0.131836 0.790039 4278190080
-0.237305 0.131836 0.79219103 4278190080
-0.231445 0.13472 0.790039 4278190080
-0.19043 0.131836 0.791192 4278190080
-0.32519501 0.130751 0.79589802 4278190080
-0.319336 0.12983499 0.79589802 4278190080
-0.31347701 0.128295 0.79589802 4278190080
-0.30761701 0.12782 0.79589802 4278190080
-0.30175799 0.128369 0.79589802 4278190080
-0.29429501 0.12597699 0.79589802 4278190080
-0.29589799 0.127683 0.79589802 4278190080
-0.290039 0.12597699 0.80043697 4278190080
-0.260021 0.12597699 0.79589802 4278190080
-0.26074201 0.126093 0.79589802 4278190080
-0.252462 0.12597699 0.79589802 4278190080
-0.25488299 0.12597699 0.79613203 4278190080
-0.24902301 0.127315 0.79589802 4278190080
-0.193885 0.12597699 0.79589802 4278190080
-0.29824799 0.137695 0.76074201 4278190080
-0.28233999 0.137695 0.76074201 4278190080
-0.27832001 0.140742 0.76074201 4278190080
-0.272461 0.142185 0.76074201 4278190080
-0.221535 0.137695 0.76074201 4278190080
-0.194207 0.137695 0.76074201 4278190080
-0.19043 0.137695 0.766105 4278190080
-0.26660201 0.123726 0.819336 4278190080
-0.256219 0.120117 0.819336 4278190080
-0.26074201 0.121623 0.819336 4278190080
-0.25488299 0.120117 0.82059699 4278190080
-0.24902301 0.120117 0.82371598 4278190080
-0.243164 0.120117 0.82511699 4278190080
-0.21972699 0.120117 0.82218701 4278190080
-0.21351901 0.120117 0.819336 4278190080
-0.21386699 0.120117 0.81960702 4278190080
-0.29582199 0.149414 0.743164 4278190080
-0.29589799 0.149414 0.74328798 4278190080
-0.21000101 0.149414 0.743164 4278190080
-0.20800801 0.149414 0.74606502 4278190080
-0.298823 0.143555 0.76074201 4278190080
-0.27035701 0.143555 0.76074201 4278190080
-0.26660201 0.145685 0.76074201 4278190080
-0.26074201 0.14736301 0.76074201 4278190080
-0.223113 0.143555 0.76074201 4278190080
-0.225586 0.14684799 0.76074201 4278190080
-0.194967 0.143555 0.76074201 4278190080
-0.336914 0.136135 0.79589802 4278190080
-0.32950401 0.131836 0.79589802 4278190080
-0.33105499 0.133505 0.79589802 4278190080
-0.32519501 0.131836 0.79927802 4278190080
-0.26293099 0.131836 0.79589802 4278190080
-0.26660201 0.13610899 0.79589802 4278190080
-0.26074201 0.131836 0.797207 4278190080
-0.25488299 0.131836 0.79755902 4278190080
-0.244771 0.131836 0.79589802 4278190080
-0.24902301 0.131836 0.79710698 4278190080
-0.243164 0.135232 0.79589802 4278190080
-0.19324701 0.131836 0.79589802 4278190080
-0.319336 0.130384 0.80175799 4278190080
-0.31347701 0.128479 0.80175799 4278190080
-0.30761701 0.12782601 0.80175799 4278190080
-0.30175799 0.128005 0.80175799 4278190080
-0.29589799 0.129187 0.80175799 4278190080
-0.28873199 0.12597699 0.80175799 4278190080
-0.290039 0.127717 0.80175799 4278190080
-0.28417999 0.12597699 0.805852 4278190080
-0.195547 0.12597699 0.80175799 4278190080
-0.196289 0.12597699 0.80263698 4278190080
-0.29951999 0.137695 0.76660198 4278190080
-0.281818 0.137695 0.76660198 4278190080
-0.27832001 0.140543 0.76660198 4278190080
-0.272461 0.143314 0.76660198 4278190080
-0.224382 0.137695 0.76660198 4278190080
-0.19027799 0.137695 0.76660198 4278190080
-0.19043 0.14093301 0.76660198 4278190080
-0.26074201 0.124398 0.82519501 4278190080
-0.25488299 0.122516 0.82519501 4278190080
-0.24902301 0.120733 0.82519501 4278190080
-0.24296901 0.120117 0.82519501 4278190080
-0.243164 0.120162 0.82519501 4278190080
-0.237305 0.120117 0.82708299 4278190080
-0.231445 0.120117 0.82688099 4278190080
-0.223984 0.120117 0.82519501 4278190080
-0.225586 0.120117 0.82624102 4278190080
-0.299086 0.149414 0.74902302 4278190080
-0.24902301 0.149414 0.75390399 4278190080
-0.243164 0.149414 0.75379801 4278190080
-0.237305 0.149414 0.75244498 4278190080
-0.205164 0.149414 0.74902302 4278190080
-0.20214801 0.149414 0.753694 4278190080
-0.298767 0.143555 0.76660198 4278190080
-0.272145 0.143555 0.76660198 4278190080
-0.22421899 0.143555 0.76660198 4278190080
-0.225586 0.14572001 0.76660198 4278190080
-0.191295 0.143555 0.76660198 4278190080
-0.19043 0.143555 0.76809102 4278190080
-0.33105499 0.134333 0.80175799 4278190080
-0.32283899 0.131836 0.80175799 4278190080
-0.32519501 0.133515 0.80175799 4278190080
-0.319336 0.131836 0.804838 4278190080
-0.31347701 0.131836 0.806849 4278190080
-0.290039 0.131836 0.80639499 4278190080
-0.195371 0.131836 0.80175799 4278190080
-0.196289 0.131836 0.802899 4278190080
-0.30761701 0.129485 0.80761701 4278190080
-0.30175799 0.128561 0.80761701 4278190080
-0.29589799 0.131446 0.80761701 4278190080
-0.28233799 0.12597699 0.80761701 4278190080
-0.28417999 0.12939601 0.80761701 4278190080
-0.27832001 0.12597699 0.811845 4278190080
-0.200514 0.12597699 0.80761701 4278190080
-0.20214801 0.12597699 0.809286 4278190080
-0.31347701 0.137695 0.77495199 4278190080
-0.30761701 0.137695 0.775002 4278190080
-0.30079699 0.137695 0.772461 4278190080
-0.30175799 0.137695 0.77367401 4278190080
-0.28057799 0.137695 0.772461 4278190080
-0.27832001 0.139173 0.772461 4278190080
-0.27832001 0.137695 0.77523702 4278190080
-0.272461 0.14257599 0.772461 4278190080
-0.22288799 0.137695 0.772461 4278190080
-0.189695 0.137695 0.772461 4278190080
-0.243164 0.124237 0.83105499 4278190080
-0.237305 0.123739 0.83105499 4278190080
-0.30025101 0.149414 0.75488299 4278190080
-0.25014701 0.149414 0.75488299 4278190080
-0.25488299 0.149414 0.75800103 4278190080
-0.24902301 0.15020099 0.75488299 4278190080
-0.243164 0.150003 0.75488299 4278190080
-0.233325 0.149414 0.75488299 4278190080
-0.237305 0.14976799 0.75488299 4278190080
-0.231445 0.149414 0.75668401 4278190080
-0.201203 0.149414 0.75488299 4278190080
-0.20214801 0.150401 0.75488299 4278190080
-0.196289 0.149414 0.75963098 4278190080
-0.29909599 0.143555 0.772461 4278190080
-0.30175799 0.143555 0.77560401 4278190080
-0.271514 0.143555 0.772461 4278190080
-0.224113 0.143555 0.772461 4278190080
-0.225586 0.14719699 0.772461 4278190080
-0.189998 0.143555 0.772461 4278190080
-0.32519501 0.134754 0.80761701 4278190080
-0.319336 0.133416 0.80761701 4278190080
-0.31077501 0.131836 0.80761701 4278190080
-0.31347701 0.132411 0.80761701 4278190080
-0.30761701 0.131836 0.81080002 4278190080
-0.29478401 0.131836 0.80761701 4278190080
-0.29589799 0.131836 0.80858898 4278190080
-0.28788301 0.131836 0.80761701 4278190080
-0.290039 0.132339 0.80761701 4278190080
-0.28417999 0.131836 0.80996102 4278190080
-0.20002399 0.131836 0.80761701 4278190080
-0.20214801 0.131836 0.80997002 4278190080
-0.30175799 0.131622 0.81347698 4278190080
-0.275902 0.12597699 0.81347698 4278190080
-0.27832001 0.129265 0.81347698 4278190080
-0.272461 0.12597699 0.81723797 4278190080
-0.20603099 0.12597699 0.81347698 4278190080
-0.20800801 0.12597699 0.81538701 4278190080
-0.32519501 0.137695 0.78375602 4278190080
-0.319103 0.137695 0.77832001 4278190080
-0.319336 0.137695 0.77848399 4278190080
-0.31347701 0.138951 0.77832001 4278190080
-0.30761701 0.142267 0.77832001 4278190080
-0.27661699 0.137695 0.77832001 4278190080
-0.272461 0.142009 0.77832001 4278190080
-0.272461 0.137695 0.78404599 4278190080
-0.22328401 0.137695 0.77832001 4278190080
-0.18975601 0.137695 0.77832001 4278190080
-0.29976299 0.149414 0.76074201 4278190080
-0.26660201 0.149414 0.76610702 4278190080
-0.25773999 0.149414 0.76074201 4278190080
-0.26074201 0.149414 0.76280701 4278190080
-0.25488299 0.151454 0.76074201 4278190080
-0.24902301 0.151862 0.76074201 4278190080
-0.243164 0.151557 0.76074201 4278190080
-0.237305 0.150759 0.76074201 4278190080
-0.227844 0.149414 0.76074201 4278190080
-0.231445 0.150019 0.76074201 4278190080
-0.20214801 0.153696 0.76074201 4278190080
-0.195088 0.149414 0.76074201 4278190080
-0.196289 0.150553 0.76074201 4278190080
-0.30603999 0.143555 0.77832001 4278190080
-0.30761701 0.143555 0.77932501 4278190080
-0.30175799 0.14627001 0.77832001 4278190080
-0.27145001 0.143555 0.77832001 4278190080
-0.22312699 0.143555 0.77832001 4278190080
-0.18977 0.143555 0.77832001 4278190080
-0.319336 0.136031 0.81347698 4278190080
-0.31347701 0.13496201 0.81347698 4278190080
-0.302048 0.131836 0.81347698 4278190080
-0.30761701 0.132432 0.81347698 4278190080
-0.30153799 0.131836 0.81347698 4278190080
-0.30175799 0.131836 0.813555 4278190080
-0.29589799 0.132397 0.81347698 4278190080
-0.290039 0.132825 0.81347698 4278190080
-0.28055099 0.131836 0.81347698 4278190080
-0.28417999 0.13337301 0.81347698 4278190080
-0.27832001 0.131836 0.81608403 4278190080
-0.20499399 0.131836 0.81347698 4278190080
-0.20800801 0.131836 0.81690699 4278190080
-0.20214801 0.13749801 0.81347698 4278190080
-0.27000001 0.12597699 0.819336 4278190080
-0.272461 0.129273 0.819336 4278190080
-0.26660201 0.12597699 0.82298398 4278190080
-0.21972699 0.12597699 0.82425499 4278190080
-0.212311 0.12597699 0.819336 4278190080
-0.326217 0.137695 0.78417999 4278190080
-0.33105499 0.137695 0.78864598 4278190080
-0.32519501 0.138032 0.78417999 4278190080
-0.319336 0.13962001 0.78417999 4278190080
-0.31347701 0.14030699 0.78417999 4278190080
-0.27236399 0.137695 0.78417999 4278190080
-0.224674 0.137695 0.78417999 4278190080
-0.225586 0.137695 0.785312 4278190080
-0.190014 0.137695 0.78417999 4278190080
-0.32519501 0.143555 0.78912097 4278190080
-0.30975199 0.143555 0.78417999 4278190080
-0.31347701 0.143555 0.78895903 4278190080
-0.30761701 0.144925 0.78417999 4278190080
-0.27138799 0.143555 0.78417999 4278190080
-0.22289801 0.143555 0.78417999 4278190080
-0.225586 0.143555 0.78741801 4278190080
-0.189354 0.143555 0.78417999 4278190080
-0.29830599 0.149414 0.76660198 4278190080
-0.26713601 0.149414 0.76660198 4278190080
-0.26660201 0.149823 0.76660198 4278190080
-0.226798 0.149414 0.76660198 4278190080
-0.231445 0.152418 0.76660198 4278190080
-0.193266 0.149414 0.76660198 4278190080
-0.196289 0.155017 0.76660198 4278190080
-0.19043 0.149414 0.77001399 4278190080
-0.30761701 0.137054 0.819336 4278190080
-0.30175799 0.134819 0.819336 4278190080
-0.29589799 0.132121 0.819336 4278190080
-0.290039 0.133315 0.819336 4278190080
-0.28417999 0.13432901 0.819336 4278190080
-0.27473199 0.131836 0.819336 4278190080
-0.27832001 0.135382 0.819336 4278190080
-0.272461 0.131836 0.82216102 4278190080
-0.210109 0.131836 0.819336 4278190080
-0.21386699 0.131836 0.82311797 4278190080
-0.20800801 0.135546 0.819336 4278190080
-0.26367801 0.12597699 0.82519501 4278190080
-0.26660201 0.130257 0.82519501 4278190080
-0.26074201 0.12597699 0.82674998 4278190080
-0.25488299 0.12597699 0.82881099 4278190080
-0.24902301 0.12597699 0.83028001 4278190080
-0.231445 0.12597699 0.83045697 4278190080
-0.220466 0.12597699 0.82519501 4278190080
-0.21972699 0.12743001 0.82519501 4278190080
-0.33215001 0.137695 0.790039 4278190080
-0.336914 0.137695 0.79241598 4278190080
-0.33105499 0.140489 0.790039 4278190080
-0.319336 0.142138 0.790039 4278190080
-0.26952201 0.137695 0.790039 4278190080
-0.237305 0.137695 0.794007 4278190080
-0.230241 0.137695 0.790039 4278190080
-0.231445 0.137695 0.79099298 4278190080
-0.19001301 0.137695 0.790039 4278190080
-0.19043 0.137695 0.79295498 4278190080
-0.32902199 0.143555 0.790039 4278190080
-0.33105499 0.143555 0.79161799 4278190080
-0.32286999 0.143555 0.790039 4278190080
-0.32519501 0.14499401 0.790039 4278190080
-0.31579101 0.143555 0.790039 4278190080
-0.319336 0.143555 0.791408 4278190080
-0.31347701 0.144141 0.790039 4278190080
-0.30761701 0.146063 0.790039 4278190080
-0.26963499 0.143555 0.790039 4278190080
-0.227763 0.143555 0.790039 4278190080
-0.231445 0.143555 0.79300898 4278190080
-0.225586 0.14846399 0.790039 4278190080
-0.189612 0.143555 0.790039 4278190080
-0.29808801 0.149414 0.772461 4278190080
-0.269573 0.149414 0.772461 4278190080
-0.26660201 0.151628 0.772461 4278190080
-0.22593801 0.149414 0.772461 4278190080
-0.225586 0.149414 0.77329999 4278190080
-0.190075 0.149414 0.772461 4278190080
-0.290039 0.136786 0.82519501 4278190080
-0.26818299 0.131836 0.82519501 4278190080
-0.26660201 0.131836 0.82608098 4278190080
-0.216883 0.131836 0.82519501 4278190080
-0.21386699 0.135598 0.82519501 4278190080
-0.26074201 0.131787 0.83105499 4278190080
-0.25488299 0.129198 0.83105499 4278190080
-0.246705 0.12597699 0.83105499 4278190080
-0.24902301 0.12703 0.83105499 4278190080
-0.243164 0.12597699 0.83230799 4278190080
-0.23329 0.12597699 0.83105499 4278190080
-0.237305 0.12597699 0.83241302 4278190080
-0.231445 0.126537 0.83105499 4278190080
-0.338763 0.137695 0.79589802 4278190080
-0.336914 0.143281 0.79589802 4278190080
-0.336914 0.137695 0.79882002 4278190080
-0.267041 0.137695 0.79589802 4278190080
-0.26660201 0.137695 0.79670799 4278190080
-0.26074201 0.137695 0.79879802 4278190080
-0.25488299 0.137695 0.79902703 4278190080
-0.24902301 0.137695 0.79768801 4278190080
-0.242084 0.137695 0.79589802 4278190080
-0.243164 0.137695 0.79624099 4278190080
-0.237305 0.141967 0.79589802 4278190080
-0.191517 0.137695 0.79589802 4278190080
-0.19043 0.14093401 0.79589802 4278190080
-0.29856601 0.149414 0.77832001 4278190080
-0.30175799 0.149414 0.78215599 4278190080
-0.269784 0.149414 0.77832001 4278190080
-0.222982 0.149414 0.77832001 4278190080
-0.19007801 0.149414 0.77832001 4278190080
-0.336357 0.143555 0.79589802 4278190080
-0.336914 0.143555 0.79717398 4278190080
-0.33105499 0.147173 0.79589802 4278190080
-0.319336 0.147594 0.79589802 4278190080
-0.31347701 0.147002 0.79589802 4278190080
-0.30761701 0.148132 0.79589802 4278190080
-0.26694801 0.143555 0.79589802 4278190080
-0.26660201 0.143555 0.796556 4278190080
-0.26074201 0.143555 0.79879397 4278190080
-0.25488299 0.143555 0.79969198 4278190080
-0.24902301 0.143555 0.799353 4278190080
-0.243164 0.143555 0.79827702 4278190080
-0.23607101 0.143555 0.79589802 4278190080
-0.237305 0.143555 0.79650199 4278190080
-0.19043 0.143555 0.79697198 4278190080
-0.26080799 0.131836 0.83105499 4278190080
-0.26074201 0.131836 0.83108199 4278190080
-0.25488299 0.131836 0.83282101 4278190080
-0.24902301 0.131836 0.83512801 4278190080
-0.243164 0.131836 0.83662599 4278190080
-0.237305 0.131836 0.83506799 4278190080
-0.335107 0.137695 0.80175799 4278190080
-0.336914 0.142682 0.80175799 4278190080
-0.33105499 0.137695 0.80708098 4278190080
-0.194619 0.137695 0.80175799 4278190080
-0.196289 0.137695 0.80556601 4278190080
-0.302313 0.149414 0.78417999 4278190080
-0.30175799 0.150805 0.78417999 4278190080
-0.269631 0.149414 0.78417999 4278190080
-0.22130799 0.149414 0.78417999 4278190080
-0.190005 0.149414 0.78417999 4278190080
-0.3373 0.143555 0.80175799 4278190080
-0.336914 0.144425 0.80175799 4278190080
-0.336914 0.143555 0.80255598 4278190080
-0.193442 0.143555 0.80175799 4278190080
-0.33048201 0.137695 0.80761701 4278190080
-0.33105499 0.13855401 0.80761701 4278190080
-0.32519501 0.137695 0.81293797 4278190080
-0.197542 0.137695 0.80761701 4278190080
-0.196289 0.140569 0.80761701 4278190080
-0.32519501 0.149414 0.79391497 4278190080
-0.30362099 0.149414 0.790039 4278190080
-0.30175799 0.15061399 0.790039 4278190080
-0.26861501 0.149414 0.790039 4278190080
-0.231445 0.149414 0.79494703 4278190080
-0.22518601 0.149414 0.790039 4278190080
-0.225586 0.149414 0.79040003 4278190080
-0.189944 0.149414 0.790039 4278190080
-0.334234 0.143555 0.80761701 4278190080
-0.33105499 0.143555 0.81034201 4278190080
-0.195499 0.143555 0.80761701 4278190080
-0.196289 0.143555 0.80861002 4278190080
-0.324101 0.137695 0.81347698 4278190080
-0.32519501 0.13867199 0.81347698 4278190080
-0.319336 0.137695 0.815274 4278190080
-0.31347701 0.137695 0.81738001 4278190080
-0.20200901 0.137695 0.81347698 4278190080
-0.20214801 0.137695 0.813613 4278190080
-0.328933 0.149414 0.79589802 4278190080
-0.33105499 0.149414 0.79810703 4278190080
-0.32278401 0.149414 0.79589802 4278190080
-0.319336 0.149414 0.79760802 4278190080
-0.31347701 0.149414 0.79839301 4278190080
-0.30303001 0.149414 0.79589802 4278190080
-0.30761701 0.149414 0.79901898 4278190080
-0.30175799 0.149691 0.79589802 4278190080
-0.267131 0.149414 0.79589802 4278190080
-0.26660201 0.149414 0.797382 4278190080
-0.26074201 0.149414 0.79886401 4278190080
-0.25488299 0.149414 0.800161 4278190080
-0.24902301 0.149414 0.80084097 4278190080
-0.243164 0.149414 0.800192 4278190080
-0.232963 0.149414 0.79589802 4278190080
-0.237305 0.149414 0.79807901 4278190080
-0.231445 0.152435 0.79589802 4278190080
-0.190311 0.149414 0.79589802 4278190080
-0.19043 0.149414 0.797001 4278190080
-0.327602 0.143555 0.81347698 4278190080
-0.32519501 0.143555 0.81585997 4278190080
-0.20020001 0.143555 0.81347698 4278190080
-0.20214801 0.143555 0.81546098 4278190080
-0.319336 0.142952 0.819336 4278190080
-0.30930901 0.137695 0.819336 4278190080
-0.31347701 0.138937 0.819336 4278190080
-0.30761701 0.137695 0.81994599 4278190080
-0.30175799 0.137695 0.82100499 4278190080
-0.29589799 0.137695 0.82176602 4278190080
-0.28417999 0.137695 0.82475299 4278190080
-0.27832001 0.137695 0.82400101 4278190080
-0.272461 0.137695 0.82359099 4278190080
-0.206668 0.137695 0.819336 4278190080
-0.33293799 0.149414 0.80175799 4278190080
-0.33105499 0.15162501 0.80175799 4278190080
-0.31347701 0.154623 0.80175799 4278190080
-0.30761701 0.15037 0.80175799 4278190080
-0.30175799 0.151531 0.80175799 4278190080
-0.29589799 0.154456 0.80175799 4278190080
-0.192073 0.149414 0.80175799 4278190080
-0.19043 0.15496901 0.80175799 4278190080
-0.32012099 0.143555 0.819336 4278190080
-0.319336 0.143555 0.819956 4278190080
-0.31347701 0.143555 0.82319301 4278190080
-0.30761701 0.143555 0.82400101 4278190080
-0.30175799 0.143555 0.82369399 4278190080
-0.20588399 0.143555 0.819336 4278190080
-0.20800801 0.143555 0.82129198 4278190080
-0.290301 0.137695 0.82519501 4278190080
-0.29589799 0.142621 0.82519501 4278190080
-0.28639901 0.137695 0.82519501 4278190080
-0.290039 0.137695 0.82540399 4278190080
-0.28417999 0.13780899 0.82519501 4278190080
-0.27832001 0.13788 0.82519501 4278190080
-0.27085799 0.137695 0.82519501 4278190080
-0.272461 0.138483 0.82519501 4278190080
-0.26660201 0.137695 0.82958299 4278190080
-0.33340701 0.149414 0.80761701 4278190080
-0.33105499 0.152328 0.80761701 4278190080
-0.33105499 0.149414 0.81015497 4278190080
-0.30761701 0.154374 0.80761701 4278190080
-0.30175799 0.153125 0.80761701 4278190080
-0.29589799 0.15463901 0.80761701 4278190080
-0.19528399 0.149414 0.80761701 4278190080
-0.196289 0.149414 0.808936 4278190080
-0.31347701 0.147494 0.82519501 4278190080
-0.30761701 0.144724 0.82519501 4278190080
-0.297346 0.143555 0.82519501 4278190080
-0.30175799 0.145395 0.82519501 4278190080
-0.29589799 0.143555 0.82581902 4278190080
-0.290039 0.143555 0.828583 4278190080
-0.21972699 0.143555 0.83104402 4278190080
-0.211959 0.143555 0.82519501 4278190080
-0.28417999 0.141767 0.83105499 4278190080
-0.27832001 0.139929 0.83105499 4278190080
-0.272461 0.140994 0.83105499 4278190080
-0.264907 0.137695 0.83105499 4278190080
-0.26660201 0.13945299 0.83105499 4278190080
-0.26074201 0.137695 0.833018 4278190080
-0.25488299 0.137695 0.83477801 4278190080
-0.24902301 0.137695 0.83516198 4278190080
-0.32793599 0.149414 0.81347698 4278190080
-0.32519501 0.149414 0.81731898 4278190080
-0.199697 0.149414 0.81347698 4278190080
-0.20214801 0.149414 0.81587303 4278190080
-0.28548601 0.143555 0.83105499 4278190080
-0.27832001 0.143555 0.834319 4278190080
-0.272461 0.143555 0.833543 4278190080
-0.26660201 0.143555 0.83267897 4278190080
-0.26074201 0.143555 0.831622 4278190080
-0.25488299 0.143555 0.83266002 4278190080
-0.24902301 0.143555 0.83399701 4278190080
-0.243164 0.143555 0.83688498 4278190080
-0.21973699 0.143555 0.83105499 4278190080
-0.21972699 0.14360601 0.83105499 4278190080
-0.32309899 0.149414 0.819336 4278190080
-0.319336 0.149414 0.82302701 4278190080
-0.30175799 0.15472201 0.819336 4278190080
-0.20528699 0.149414 0.819336 4278190080
-0.20800801 0.149414 0.82196301 4278190080
-0.31594199 0.149414 0.82519501 4278190080
-0.319336 0.154392 0.82519501 4278190080
-0.31347701 0.149414 0.82601303 4278190080
-0.30761701 0.149414 0.82833099 4278190080
-0.30175799 0.154746 0.82519501 4278190080
-0.30175799 0.149414 0.82854301 4278190080
-0.290039 0.149414 0.830975 4278190080
-0.21135899 0.149414 0.82519501 4278190080
-0.30175799 0.151389 0.83105499 4278190080
-0.289956 0.149414 0.83105499 4278190080
-0.28417999 0.149414 0.83424801 4278190080
-0.272461 0.149414 0.835163 4278190080
-0.24902301 0.149414 0.83407402 4278190080
-0.243164 0.149414 0.83585602 4278190080
-0.24902301 0.151972 0.836914 4278190080
-0.24215201 0.149414 0.836914 4278190080
-0.243164 0.150967 0.836914 4278190080
-0.26074201 0.15527301 0.71928501 4278190080
-0.25488299 0.15527301 0.71841902 4278190080
-0.24902301 0.15527301 0.718032 4278190080
-0.243164 0.15527301 0.71827799 4278190080
-0.237305 0.15527301 0.71969998 4278190080
-0.272461 0.15527301 0.72203499 4278190080
-0.26512399 0.15527301 0.71972698 4278190080
-0.26660201 0.15527301 0.719899 4278190080
-0.26074201 0.15661401 0.71972698 4278190080
-0.25488299 0.1593 0.71972698 4278190080
-0.24902301 0.160551 0.71972698 4278190080
-0.243164 0.15898401 0.71972698 4278190080
-0.237244 0.15527301 0.71972698 4278190080
-0.237305 0.15539099 0.71972698 4278190080
-0.231445 0.15527301 0.72224599 4278190080
-0.272461 0.16113301 0.72485298 4278190080
-0.26660201 0.16113301 0.72223997 4278190080
-0.26074201 0.16113301 0.72117102 4278190080
-0.25488299 0.16113301 0.72035199 4278190080
-0.24902301 0.16113301 0.71992803 4278190080
-0.243164 0.16113301 0.72050601 4278190080
-0.237305 0.16113301 0.72134799 4278190080
-0.231445 0.16113301 0.72388899 4278190080
-0.28417999 0.15527301 0.73119199 4278190080
-0.27708399 0.15527301 0.725586 4278190080
-0.27832001 0.15527301 0.726475 4278190080
-0.225872 0.15527301 0.725586 4278190080
-0.225586 0.15527301 0.72572798 4278190080
-0.21972699 0.15527301 0.72908801 4278190080
-0.26660201 0.16699199 0.72475302 4278190080
-0.26074201 0.16699199 0.72298998 4278190080
-0.25488299 0.16699199 0.72228599 4278190080
-0.24902301 0.16699199 0.72166902 4278190080
-0.243164 0.16699199 0.72207201 4278190080
-0.237305 0.16699199 0.72325301 4278190080
-0.231445 0.16699199 0.72499001 4278190080
-0.273821 0.16113301 0.725586 4278190080
-0.27832001 0.16113301 0.72800499 4278190080
-0.272461 0.16248301 0.725586 4278190080
-0.228605 0.16113301 0.725586 4278190080
-0.225586 0.16113301 0.72713602 4278190080
-0.21972699 0.16113301 0.73110598 4278190080
-0.28452 0.15527301 0.73144501 4278190080
-0.28417999 0.15597001 0.73144501 4278190080
-0.21758901 0.15527301 0.73144501 4278190080
-0.21386699 0.15527301 0.73701102 4278190080
-0.27832001 0.16699199 0.73134798 4278190080
-0.26826501 0.16699199 0.725586 4278190080
-0.272461 0.16699199 0.72797698 4278190080
-0.26660201 0.16959099 0.725586 4278190080
-0.23056801 0.16699199 0.725586 4278190080
-0.231445 0.16856401 0.725586 4278190080
-0.225586 0.16699199 0.72894597 4278190080
-0.282197 0.16113301 0.73144501 4278190080
-0.28417999 0.16113301 0.73343599 4278190080
-0.21947201 0.16113301 0.73144501 4278190080
-0.21972699 0.161759 0.73144501 4278190080
-0.289345 0.15527301 0.73730499 4278190080
-0.290039 0.15527301 0.73821998 4278190080
-0.21365599 0.15527301 0.73730499 4278190080
-0.21386699 0.157987 0.73730499 4278190080
-0.27844501 0.16699199 0.73144501 4278190080
-0.28417999 0.16699199 0.73681098 4278190080
-0.27832001 0.167165 0.73144501 4278190080
-0.222702 0.16699199 0.73144501 4278190080
-0.21972699 0.16699199 0.73387998 4278190080
-0.28719899 0.16113301 0.73730499 4278190080
-0.290039 0.16113301 0.74084699 4278190080
-0.214211 0.16113301 0.73730499 4278190080
-0.21386699 0.16113301 0.73816001 4278190080
-0.293641 0.15527301 0.743164 4278190080
-0.29589799 0.15527301 0.746584 4278190080
-0.21103001 0.15527301 0.743164 4278190080
-0.20800801 0.15527301 0.74835998 4278190080
-0.28461 0.16699199 0.73730499 4278190080
-0.28417999 0.167777 0.73730499 4278190080
-0.217103 0.16699199 0.73730499 4278190080
-0.21386699 0.16699199 0.74160302 4278190080
-0.291695 0.16113301 0.743164 4278190080
-0.290039 0.16688199 0.743164 4278190080
-0.212566 0.16113301 0.743164 4278190080
-0.29712299 0.15527301 0.74902302 4278190080
-0.29589799 0.157893 0.74902302 4278190080
-0.207625 0.15527301 0.74902302 4278190080
-0.20800801 0.156587 0.74902302 4278190080
-0.28999701 0.16699199 0.743164 4278190080
-0.290039 0.16699199 0.743218 4278190080
-0.212979 0.16699199 0.743164 4278190080
-0.294368 0.16113301 0.74902302 4278190080
-0.209713 0.16113301 0.74902302 4278190080
-0.20800801 0.16113301 0.75395298 4278190080
-0.29955599 0.15527301 0.75488299 4278190080
-0.29589799 0.160953 0.75488299 4278190080
-0.205654 0.15527301 0.75488299 4278190080
-0.29261601 0.16699199 0.74902302 4278190080
-0.211163 0.16699199 0.74902302 4278190080
-0.20800801 0.16699199 0.75379801 4278190080
-0.25488299 0.178711 0.725155 4278190080
-0.24902301 0.178711 0.72478801 4278190080
-0.243164 0.178711 0.72520101 4278190080
-0.29582101 0.16113301 0.75488299 4278190080
-0.29589799 0.16113301 0.75608599 4278190080
-0.20778599 0.16113301 0.75488299 4278190080
-0.29882899 0.15527301 0.76074201 4278190080
-0.25488299 0.15527301 0.76358801 4278190080
-0.24902301 0.15527301 0.76348501 4278190080
-0.243164 0.15527301 0.76431102 4278190080
-0.237305 0.15527301 0.76596099 4278190080
-0.203197 0.15527301 0.76074201 4278190080
-0.20214801 0.15527301 0.76268101 4278190080
-0.29441899 0.16699199 0.75488299 4278190080
-0.20763101 0.16699199 0.75488299 4278190080
-0.20800801 0.168745 0.75488299 4278190080
-0.20800801 0.16699199 0.756015 4278190080
-0.26660201 0.178711 0.728957 4278190080
-0.25680801 0.178711 0.725586 4278190080
-0.26074201 0.178711 0.72664499 4278190080
-0.25488299 0.179847 0.725586 4278190080
-0.24902301 0.18095 0.725586 4278190080
-0.24127799 0.178711 0.725586 4278190080
-0.243164 0.179773 0.725586 4278190080
-0.237305 0.178711 0.72669798 4278190080
-0.231445 0.178711 0.72973698 4278190080
-0.26660201 0.18457 0.731157 4278190080
-0.26074201 0.18457 0.72875202 4278190080
-0.25488299 0.18457 0.72753 4278190080
-0.24902301 0.18457 0.72717798 4278190080
-0.243164 0.18457 0.72792101 4278190080
-0.237305 0.18457 0.72982901 4278190080
-0.29612699 0.16113301 0.76074201 4278190080
-0.29589799 0.161709 0.76074201 4278190080
-0.20686901 0.16113301 0.76074201 4278190080
-0.20800801 0.162561 0.76074201 4278190080
-0.29825899 0.15527301 0.76660198 4278190080
-0.24902301 0.158079 0.76660198 4278190080
-0.243164 0.15743899 0.76660198 4278190080
-0.23473699 0.15527301 0.76660198 4278190080
-0.237305 0.155818 0.76660198 4278190080
-0.231445 0.15527301 0.76813698 4278190080
-0.196621 0.15527301 0.76660198 4278190080
-0.20214801 0.156874 0.76660198 4278190080
-0.196289 0.15527301 0.76688802 4278190080
-0.19043 0.15527301 0.77218997 4278190080
-0.294184 0.16699199 0.76074201 4278190080
-0.21244299 0.16699199 0.76074201 4278190080
-0.21386699 0.169681 0.76074201 4278190080
-0.20800801 0.171361 0.76074201 4278190080
-0.26713499 0.18457 0.73144501 4278190080
-0.272461 0.18457 0.73497999 4278190080
-0.26660201 0.185278 0.73144501 4278190080
-0.26074201 0.190157 0.73144501 4278190080
-0.233044 0.18457 0.73144501 4278190080
-0.237305 0.19035301 0.73144501 4278190080
-0.231445 0.18457 0.73217201 4278190080
-0.225586 0.18457 0.73483801 4278190080
-0.27035999 0.178711 0.73144501 4278190080
-0.272461 0.178711 0.73306698 4278190080
-0.22788399 0.178711 0.73144501 4278190080
-0.231445 0.183092 0.73144501 4278190080
-0.225586 0.178711 0.73268598 4278190080
-0.21972699 0.178711 0.735991 4278190080
-0.26074201 0.17285199 0.72450101 4278190080
-0.25488299 0.17285199 0.72431099 4278190080
-0.24902301 0.17285199 0.72359198 4278190080
-0.243164 0.17285199 0.72340202 4278190080
-0.237305 0.17285199 0.72494298 4278190080
-0.29650199 0.16113301 0.76660198 4278190080
-0.29589799 0.162637 0.76660198 4278190080
-0.243164 0.16113301 0.77003098 4278190080
-0.20621599 0.16113301 0.76660198 4278190080
-0.20800801 0.161735 0.76660198 4278190080
-0.297663 0.15527301 0.772461 4278190080
-0.263569 0.15527301 0.772461 4278190080
-0.26660201 0.15527301 0.77619499 4278190080
-0.22699 0.15527301 0.772461 4278190080
-0.231445 0.156838 0.772461 4278190080
-0.225586 0.15527301 0.77490199 4278190080
-0.20214801 0.160271 0.772461 4278190080
-0.196289 0.15715 0.772461 4278190080
-0.190374 0.15527301 0.772461 4278190080
-0.19043 0.155422 0.772461 4278190080
-0.29416999 0.16699199 0.76660198 4278190080
-0.213011 0.16699199 0.76660198 4278190080
-0.21386699 0.16848201 0.76660198 4278190080
-0.27491799 0.18457 0.73730499 4278190080
-0.27832001 0.18457 0.74119502 4278190080
-0.222008 0.18457 0.73730499 4278190080
-0.225586 0.188393 0.73730499 4278190080
-0.21972699 0.18457 0.73918098 4278190080
-0.27731901 0.178711 0.73730499 4278190080
-0.27832001 0.178711 0.73819703 4278190080
-0.218372 0.178711 0.73730499 4278190080
-0.21972699 0.18159699 0.73730499 4278190080
-0.272461 0.17285199 0.73035699 4278190080
-0.26375899 0.17285199 0.725586 4278190080
-0.26660201 0.17285199 0.72675902 4278190080
-0.26074201 0.175871 0.725586 4278190080
-0.23570199 0.17285199 0.725586 4278190080
-0.237305 0.175531 0.725586 4278190080
-0.231445 0.17285199 0.72742301 4278190080
-0.225586 0.17285199 0.73034197 4278190080
-0.29615399 0.16113301 0.772461 4278190080
-0.29589799 0.16161799 0.772461 4278190080
-0.231445 0.16113301 0.77675903 4278190080
-0.202951 0.16113301 0.772461 4278190080
-0.20800801 0.16253801 0.772461 4278190080
-0.20214801 0.16113301 0.773516 4278190080
-0.196289 0.16113301 0.77652401 4278190080
-0.298967 0.15527301 0.77832001 4278190080
-0.26881301 0.15527301 0.77832001 4278190080
-0.223107 0.15527301 0.77832001 4278190080
-0.225586 0.159321 0.77832001 4278190080
-0.18983699 0.15527301 0.77832001 4278190080
-0.19043 0.15911099 0.77832001 4278190080
-0.29381999 0.16699199 0.772461 4278190080
-0.212001 0.16699199 0.772461 4278190080
-0.21386699 0.168323 0.772461 4278190080
-0.28015301 0.18457 0.743164 4278190080
-0.28417999 0.18457 0.747428 4278190080
-0.27832001 0.190254 0.743164 4278190080
-0.216342 0.18457 0.743164 4278190080
-0.21386699 0.18457 0.746068 4278190080
-0.283692 0.178711 0.743164 4278190080
-0.28417999 0.178711 0.74371898 4278190080
-0.214607 0.178711 0.743164 4278190080
-0.21386699 0.178711 0.74401098 4278190080
-0.27404001 0.17285199 0.73144501 4278190080
-0.27832001 0.17285199 0.73456001 4278190080
-0.272461 0.17524 0.73144501 4278190080
-0.224416 0.17285199 0.73144501 4278190080
-0.225586 0.175917 0.73144501 4278190080
-0.21972699 0.17285199 0.73510599 4278190080
-0.29654199 0.16113301 0.77832001 4278190080
-0.29589799 0.162233 0.77832001 4278190080
-0.226555 0.16113301 0.77832001 4278190080
-0.225586 0.16113301 0.78179401 4278190080
-0.20800801 0.162751 0.77832001 4278190080
-0.20214801 0.162136 0.77832001 4278190080
-0.19253699 0.16113301 0.77832001 4278190080
-0.196289 0.161752 0.77832001 4278190080
-0.19043 0.16113301 0.78396398 4278190080
-0.29337299 0.16699199 0.77832001 4278190080
-0.211174 0.16699199 0.77832001 4278190080
-0.21386699 0.169512 0.77832001 4278190080
-0.29859099 0.15527301 0.78417999 4278190080
-0.26810801 0.15527301 0.78417999 4278190080
-0.219964 0.15527301 0.78417999 4278190080
-0.18980099 0.15527301 0.78417999 4278190080
-0.285294 0.18457 0.74902302 4278190080
-0.28417999 0.18708 0.74902302 4278190080
-0.212281 0.18457 0.74902302 4278190080
-0.28832501 0.178711 0.74902302 4278190080
-0.290039 0.178711 0.75262702 4278190080
-0.21143299 0.178711 0.74902302 4278190080
-0.281335 0.17285199 0.73730499 4278190080
-0.28417999 0.17285199 0.74045599 4278190080
-0.27832001 0.177265 0.73730499 4278190080
-0.217654 0.17285199 0.73730499 4278190080
-0.21386699 0.17285199 0.74233401 4278190080
-0.29682299 0.16113301 0.78417999 4278190080
-0.29589799 0.162652 0.78417999 4278190080
-0.221885 0.16113301 0.78417999 4278190080
-0.225586 0.161415 0.78417999 4278190080
-0.20800801 0.165125 0.78417999 4278190080
-0.20214801 0.164087 0.78417999 4278190080
-0.196289 0.164151 0.78417999 4278190080
-0.190411 0.16113301 0.78417999 4278190080
-0.19043 0.161176 0.78417999 4278190080
-0.19043 0.16113301 0.78485101 4278190080
-0.29236501 0.16699199 0.78417999 4278190080
-0.290039 0.172809 0.78417999 4278190080
-0.20967101 0.16699199 0.78417999 4278190080
-0.21386699 0.16945601 0.78417999 4278190080
-0.20800801 0.16699199 0.78741199 4278190080
-0.20214801 0.16699199 0.78895497 4278190080
-0.32519501 0.15527301 0.79582 4278190080
-0.297573 0.15527301 0.790039 4278190080
-0.26747701 0.15527301 0.790039 4278190080
-0.223029 0.15527301 0.790039 4278190080
-0.225586 0.15527301 0.79248601 4278190080
-0.19015899 0.15527301 0.790039 4278190080
-0.19043 0.15911099 0.790039 4278190080
-0.28812999 0.18457 0.75488299 4278190080
-0.209343 0.18457 0.75488299 4278190080
-0.20800801 0.18457 0.75733501 4278190080
-0.290683 0.178711 0.75488299 4278190080
-0.290039 0.18039601 0.75488299 4278190080
-0.20845801 0.178711 0.75488299 4278190080
-0.20800801 0.178711 0.75657302 4278190080
-0.28650799 0.17285199 0.743164 4278190080
-0.290039 0.17285199 0.74807698 4278190080
-0.28417999 0.177717 0.743164 4278190080
-0.213303 0.17285199 0.743164 4278190080
-0.21386699 0.176185 0.743164 4278190080
-0.29608899 0.16113301 0.790039 4278190080
-0.29589799 0.161355 0.790039 4278190080
-0.29589799 0.16113301 0.79024702 4278190080
-0.224868 0.16113301 0.790039 4278190080
-0.225586 0.16117699 0.790039 4278190080
-0.225586 0.16113301 0.79082602 4278190080
-0.190676 0.16113301 0.790039 4278190080
-0.196289 0.166784 0.790039 4278190080
-0.19043 0.16113301 0.79135001 4278190080
-0.291522 0.16699199 0.790039 4278190080
-0.290039 0.17167901 0.790039 4278190080
-0.290039 0.16699199 0.792077 4278190080
-0.230941 0.16699199 0.790039 4278190080
-0.21972699 0.170425 0.790039 4278190080
-0.21386699 0.16899399 0.790039 4278190080
-0.21386699 0.16699199 0.79287702 4278190080
-0.20800801 0.16763 0.790039 4278190080
-0.19727901 0.16699199 0.790039 4278190080
-0.20214801 0.167208 0.790039 4278190080
-0.196289 0.16699199 0.79035002 4278190080
-0.19043 0.16699199 0.790806 4278190080
-0.32528901 0.15527301 0.79589802 4278190080
-0.325019 0.15527301 0.79589802 4278190080
-0.32519501 0.155367 0.79589802 4278190080
-0.319336 0.15527301 0.79774302 4278190080
-0.29737601 0.15527301 0.79589802 4278190080
-0.29589799 0.15685099 0.79589802 4278190080
-0.29589799 0.15527301 0.800134 4278190080
-0.266671 0.15527301 0.79589802 4278190080
-0.26660201 0.15527301 0.79622799 4278190080
-0.26074201 0.15527301 0.79972398 4278190080
-0.25488299 0.15527301 0.80059201 4278190080
-0.24902301 0.15527301 0.80075097 4278190080
-0.243164 0.15527301 0.80110502 4278190080
-0.237305 0.15527301 0.79988098 4278190080
-0.23018301 0.15527301 0.79589802 4278190080
-0.231445 0.15527301 0.79674602 4278190080
-0.190217 0.15527301 0.79589802 4278190080
-0.290016 0.18457 0.76074201 4278190080
-0.206833 0.18457 0.76074201 4278190080
-0.291641 0.178711 0.76074201 4278190080
-0.290039 0.184478 0.76074201 4278190080
-0.21386699 0.178711 0.76411301 4278190080
-0.20731699 0.178711 0.76074201 4278190080
-0.20800801 0.178711 0.76588702 4278190080
-0.29045701 0.17285199 0.74902302 4278190080
-0.290039 0.17441 0.74902302 4278190080
-0.211661 0.17285199 0.74902302 4278190080
-0.319336 0.16113301 0.79664397 4278190080
-0.31347701 0.16113301 0.80001801 4278190080
-0.29242301 0.16113301 0.79589802 4278190080
-0.290039 0.164276 0.79589802 4278190080
-0.25488299 0.16113301 0.80114001 4278190080
-0.237305 0.16113301 0.80012602 4278190080
-0.22823501 0.16113301 0.79589802 4278190080
-0.231445 0.16113301 0.798145 4278190080
-0.21386699 0.16371299 0.79589802 4278190080
-0.190154 0.16113301 0.79589802 4278190080
-0.319336 0.16699199 0.79921901 4278190080
-0.31347701 0.16699199 0.79633898 4278190080
-0.30761701 0.17251299 0.79589802 4278190080
-0.30761701 0.16699199 0.79823899 4278190080
-0.28755501 0.16699199 0.79589802 4278190080
-0.237305 0.16699199 0.80096799 4278190080
-0.228917 0.16699199 0.79589802 4278190080
-0.231445 0.16699199 0.79869699 4278190080
-0.217757 0.16699199 0.79589802 4278190080
-0.21972699 0.17206299 0.79589802 4278190080
-0.21149901 0.16699199 0.79589802 4278190080
-0.21386699 0.16699199 0.80116099 4278190080
-0.20800801 0.168707 0.79589802 4278190080
-0.20214801 0.168157 0.79589802 4278190080
-0.196289 0.168268 0.79589802 4278190080
-0.189549 0.16699199 0.79589802 4278190080
-0.19043 0.16854 0.79589802 4278190080
-0.32827601 0.15527301 0.80175799 4278190080
-0.32519501 0.160678 0.80175799 4278190080
-0.314596 0.15527301 0.80175799 4278190080
-0.31347701 0.157902 0.80175799 4278190080
-0.31347701 0.15527301 0.80246598 4278190080
-0.29510099 0.15527301 0.80175799 4278190080
-0.24902301 0.160069 0.80175799 4278190080
-0.243164 0.158547 0.80175799 4278190080
-0.19043 0.15527301 0.80179602 4278190080
-0.28980201 0.18457 0.76660198 4278190080
-0.21972699 0.18457 0.76822102 4278190080
-0.21386699 0.18457 0.767021 4278190080
-0.207149 0.18457 0.76660198 4278190080
-0.20800801 0.18942399 0.76660198 4278190080
-0.20800801 0.18457 0.76844901 4278190080
-0.29124799 0.178711 0.76660198 4278190080
-0.290039 0.183396 0.76660198 4278190080
-0.21557599 0.178711 0.76660198 4278190080
-0.21386699 0.183403 0.76660198 4278190080
-0.20800801 0.179199 0.76660198 4278190080
-0.292768 0.17285199 0.75488299 4278190080
-0.20948499 0.17285199 0.75488299 4278190080
-0.21386699 0.17285199 0.75965703 4278190080
-0.20800801 0.17285199 0.75852799 4278190080
-0.324781 0.16113301 0.80175799 4278190080
-0.32519501 0.16113301 0.80299503 4278190080
-0.31247801 0.16113301 0.80175799 4278190080
-0.30761701 0.165452 0.80175799 4278190080
-0.291639 0.16113301 0.80175799 4278190080
-0.290039 0.163219 0.80175799 4278190080
-0.25053799 0.16113301 0.80175799 4278190080
-0.24902301 0.16113301 0.80199599 4278190080
-0.241745 0.16113301 0.80175799 4278190080
-0.243164 0.16113301 0.80220699 4278190080
-0.19043 0.16113301 0.80197698 4278190080
-0.32043499 0.16699199 0.80175799 4278190080
-0.319336 0.168026 0.80175799 4278190080
-0.30636299 0.16699199 0.80175799 4278190080
-0.30175799 0.171176 0.80175799 4278190080
-0.287368 0.16699199 0.80175799 4278190080
-0.24296001 0.16699199 0.80175799 4278190080
-0.243164 0.16699199 0.80178201 4278190080
-0.21386699 0.167116 0.80175799 4278190080
-0.20800801 0.169778 0.80175799 4278190080
-0.20214801 0.169763 0.80175799 4278190080
-0.196289 0.171322 0.80175799 4278190080
-0.18997499 0.16699199 0.80175799 4278190080
-0.19043 0.16699199 0.80481303 4278190080
-0.32818601 0.15527301 0.80761701 4278190080
-0.309057 0.15527301 0.80761701 4278190080
-0.30761701 0.15527301 0.80850101 4278190080
-0.30175799 0.15527301 0.810902 4278190080
-0.295145 0.15527301 0.80761701 4278190080
-0.29589799 0.15527301 0.81298399 4278190080
-0.195253 0.15527301 0.80761701 4278190080
-0.196289 0.15527301 0.81038499 4278190080
-0.28995401 0.18457 0.772461 4278190080
-0.22201499 0.18457 0.772461 4278190080
-0.21972699 0.186932 0.772461 4278190080
-0.20800801 0.190368 0.772461 4278190080
-0.29056099 0.178711 0.772461 4278190080
-0.290039 0.18355 0.772461 4278190080
-0.216885 0.178711 0.772461 4278190080
-0.21972699 0.18093 0.772461 4278190080
-0.29307601 0.17285199 0.76074201 4278190080
-0.214875 0.17285199 0.76074201 4278190080
-0.210786 0.17285199 0.76074201 4278190080
-0.21386699 0.174845 0.76074201 4278190080
-0.20735601 0.17285199 0.76074201 4278190080
-0.20800801 0.17285199 0.76218301 4278190080
-0.32567099 0.16113301 0.80761701 4278190080
-0.32519501 0.16164 0.80761701 4278190080
-0.32519501 0.16113301 0.80935001 4278190080
-0.308597 0.16113301 0.80761701 4278190080
-0.30761701 0.16221 0.80761701 4278190080
-0.30761701 0.16113301 0.80836099 4278190080
-0.291031 0.16113301 0.80761701 4278190080
-0.290039 0.162131 0.80761701 4278190080
-0.290039 0.16113301 0.81126499 4278190080
-0.28417999 0.16113301 0.81324703 4278190080
-0.194598 0.16113301 0.80761701 4278190080
-0.196289 0.16113301 0.81269801 4278190080
-0.327562 0.15527301 0.81347698 4278190080
-0.32519501 0.159569 0.81347698 4278190080
-0.32519501 0.15527301 0.81795198 4278190080
-0.30175799 0.15527301 0.81795198 4278190080
-0.290039 0.15983 0.81347698 4278190080
-0.28417999 0.160805 0.81347698 4278190080
-0.198318 0.15527301 0.81347698 4278190080
-0.20214801 0.15527301 0.81602502 4278190080
-0.32120499 0.16699199 0.80761701 4278190080
-0.319336 0.168934 0.80761701 4278190080
-0.30426201 0.16699199 0.80761701 4278190080
-0.30175799 0.169403 0.80761701 4278190080
-0.30175799 0.16699199 0.81309801 4278190080
-0.28488001 0.16699199 0.80761701 4278190080
-0.28417999 0.16794901 0.80761701 4278190080
-0.28417999 0.16699199 0.81099099 4278190080
-0.27832001 0.17265099 0.80761701 4278190080
-0.21386699 0.168523 0.80761701 4278190080
-0.20800801 0.170205 0.80761701 4278190080
-0.20214801 0.171573 0.80761701 4278190080
-0.191975 0.16699199 0.80761701 4278190080
-0.289655 0.18457 0.77832001 4278190080
-0.221489 0.18457 0.77832001 4278190080
-0.21972699 0.18640199 0.77832001 4278190080
-0.29061899 0.178711 0.77832001 4278190080
-0.290039 0.18182901 0.77832001 4278190080
-0.290039 0.178711 0.78258801 4278190080
-0.21663199 0.178711 0.77832001 4278190080
-0.21972699 0.182742 0.77832001 4278190080
-0.29350799 0.17285199 0.76660198 4278190080
-0.21598101 0.17285199 0.76660198 4278190080
-0.32426399 0.15527301 0.819336 4278190080
-0.302439 0.15527301 0.819336 4278190080
-0.29903501 0.15527301 0.819336 4278190080
-0.290039 0.157766 0.819336 4278190080
-0.28417999 0.159017 0.819336 4278190080
-0.20488299 0.15527301 0.819336 4278190080
-0.20800801 0.15527301 0.82247901 4278190080
-0.20214801 0.159996 0.819336 4278190080
-0.32400101 0.16113301 0.81347698 4278190080
-0.28391001 0.16113301 0.81347698 4278190080
-0.196693 0.16113301 0.81347698 4278190080
-0.196289 0.16202199 0.81347698 4278190080
-0.32048601 0.16699199 0.81347698 4278190080
-0.319336 0.168073 0.81347698 4278190080
-0.319336 0.16699199 0.81800902 4278190080
-0.28204799 0.16699199 0.81347698 4278190080
-0.272461 0.17129201 0.81347698 4278190080
-0.21386699 0.17131899 0.81347698 4278190080
-0.20800801 0.17163301 0.81347698 4278190080
-0.20214801 0.172777 0.81347698 4278190080
-0.195309 0.16699199 0.81347698 4278190080
-0.196289 0.16699199 0.81452 4278190080
-0.28987199 0.178711 0.78417999 4278190080
-0.28917101 0.18457 0.78417999 4278190080
-0.290039 0.18457 0.78829002 4278190080
-0.29259601 0.17285199 0.772461 4278190080
-0.216644 0.17285199 0.772461 4278190080
-0.31991601 0.15527301 0.82519501 4278190080
-0.319336 0.16080099 0.82519501 4278190080
-0.319336 0.15527301 0.82564402 4278190080
-0.31347701 0.15527301 0.82808298 4278190080
-0.302163 0.15527301 0.82519501 4278190080
-0.30761701 0.15527301 0.82990402 4278190080
-0.30076799 0.15527301 0.82519501 4278190080
-0.30175799 0.15527301 0.82556403 4278190080
-0.29589799 0.158425 0.82519501 4278190080
-0.290039 0.158722 0.82519501 4278190080
-0.28417999 0.158856 0.82519501 4278190080
-0.210421 0.15527301 0.82519501 4278190080
-0.21386699 0.15527301 0.82796401 4278190080
-0.323044 0.16113301 0.819336 4278190080
-0.319336 0.166513 0.819336 4278190080
-0.319336 0.16113301 0.82516998 4278190080
-0.28111199 0.16113301 0.819336 4278190080
-0.20800801 0.16113301 0.82430601 4278190080
-0.201434 0.16113301 0.819336 4278190080
-0.20214801 0.16113301 0.82004601 4278190080
-0.30175799 0.178711 0.79478198 4278190080
-0.29589799 0.178711 0.79360598 4278190080
-0.28922901 0.178711 0.790039 4278190080
-0.290039 0.182897 0.790039 4278190080
-0.290039 0.178711 0.79307902 4278190080
-0.31898099 0.16699199 0.819336 4278190080
-0.31347701 0.17211799 0.819336 4278190080
-0.200573 0.16699199 0.819336 4278190080
-0.20214801 0.16699199 0.82100302 4278190080
