# .PCD v0.7 - Point Cloud Data file format
VERSION 0.7
FIELDS x y z rgb
SIZE 4 4 4 4
TYPE F F F U
COUNT 1 1 1 1
WIDTH 830
HEIGHT 1
VIEWPOINT 0 0 0 1 0 0 0
POINTS 830
DATA ascii
0.137695 -0.199379 0.836914 4278190080
0.143555 -0.19908901 0.836914 4278190080
0.149414 -0.199036 0.836914 4278190080
0.149414 -0.20214801 0.84257603 4278190080
0.15527301 -0.198985 0.836914 4278190080
0.137695 -0.19963101 0.84277302 4278190080
0.149077 -0.20214801 0.84277302 4278190080
0.143555 -0.200121 0.84277302 4278190080
0.15031099 -0.20214801 0.84277302 4278190080
0.15527301 -0.20121799 0.84277302 4278190080
0.16113301 -0.20031799 0.84277302 4278190080
0.16699199 -0.199506 0.84277302 4278190080
0.17285199 -0.199518 0.84277302 4278190080
0.178711 -0.199743 0.84277302 4278190080
0.15527301 -0.19984899 0.84863299 4278190080
0.16113301 -0.19988 0.84863299 4278190080
0.131836 -0.191883 0.81347698 4278190080
0.137695 -0.19151799 0.81347698 4278190080
0.143555 -0.191466 0.81347698 4278190080
0.149414 -0.19123399 0.81347698 4278190080
0.16699199 -0.191392 0.81347698 4278190080
0.120117 -0.184773 0.79589802 4278190080
0.12597699 -0.193092 0.819336 4278190080
0.131836 -0.192733 0.819336 4278190080
0.131836 -0.196289 0.82430398 4278190080
0.137695 -0.19252799 0.819336 4278190080
0.143555 -0.192369 0.819336 4278190080
0.143555 -0.196289 0.82475901 4278190080
0.149414 -0.19282 0.819336 4278190080
0.149414 -0.196289 0.82393402 4278190080
0.15527301 -0.192711 0.819336 4278190080
0.16113301 -0.192118 0.819336 4278190080
0.16699199 -0.192233 0.819336 4278190080
0.17285199 -0.192279 0.819336 4278190080
0.114258 -0.18567 0.80175799 4278190080
0.120117 -0.186281 0.80175799 4278190080
0.12597699 -0.185417 0.80175799 4278190080
0.12597699 -0.19043 0.80668497 4278190080
0.131836 -0.19043 0.80711198 4278190080
0.143555 -0.19043 0.80719501 4278190080
0.178711 -0.18459401 0.80175799 4278190080
0.108398 -0.16699199 0.774831 4278190080
0.114258 -0.161864 0.772461 4278190080
0.108398 -0.17001 0.77832001 4278190080
0.114258 -0.17926399 0.790039 4278190080
0.114258 -0.18457 0.79528397 4278190080
0.120117 -0.18457 0.795205 4278190080
0.120117 -0.193304 0.82519501 4278190080
0.130068 -0.196289 0.82519501 4278190080
0.12597699 -0.194649 0.82519501 4278190080
0.12597699 -0.196289 0.829023 4278190080
0.135169 -0.196289 0.82519501 4278190080
0.14146 -0.196289 0.82519501 4278190080
0.137695 -0.19539601 0.82519501 4278190080
0.137695 -0.196289 0.82617402 4278190080
0.153157 -0.196289 0.82519501 4278190080
0.15527301 -0.19549599 0.82519501 4278190080
0.15527301 -0.196289 0.82590002 4278190080
0.16113301 -0.194263 0.82519501 4278190080
0.16113301 -0.196289 0.82740301 4278190080
0.16699199 -0.19369 0.82519501 4278190080
0.16699199 -0.196289 0.82770199 4278190080
0.17285199 -0.19347499 0.82519501 4278190080
0.178711 -0.192956 0.82519501 4278190080
0.18457 -0.192827 0.82519501 4278190080
0.114258 -0.186795 0.80761701 4278190080
0.124998 -0.19043 0.80761701 4278190080
0.120117 -0.18747599 0.80761701 4278190080
0.120117 -0.19043 0.81296003 4278190080
0.134194 -0.19043 0.80761701 4278190080
0.14207099 -0.19043 0.80761701 4278190080
0.137695 -0.186993 0.80761701 4278190080
0.137695 -0.19043 0.80919701 4278190080
0.148396 -0.19043 0.80761701 4278190080
0.149414 -0.19043 0.80782998 4278190080
0.15527301 -0.19043 0.81096202 4278190080
0.16113301 -0.18576901 0.80761701 4278190080
0.16113301 -0.19043 0.80927402 4278190080
0.16699199 -0.18539201 0.80761701 4278190080
0.16699199 -0.19043 0.81117803 4278190080
0.17285199 -0.18527199 0.80761701 4278190080
0.178711 -0.18551899 0.80761701 4278190080
0.18457 -0.18569 0.80761701 4278190080
0.108398 -0.178711 0.785923 4278190080
0.114258 -0.178711 0.78897297 4278190080
0.11214 -0.16699199 0.77832001 4278190080
0.114258 -0.16461299 0.77832001 4278190080
0.114258 -0.16699199 0.78142899 4278190080
0.120117 -0.16269501 0.77832001 4278190080
0.108398 -0.172341 0.78417999 4278190080
0.108398 -0.17285199 0.78482902 4278190080
0.114258 -0.169597 0.78417999 4278190080
0.114258 -0.17285199 0.78797102 4278190080
0.121478 -0.18457 0.79589802 4278190080
0.12597699 -0.18457 0.799245 4278190080
0.178711 -0.18457 0.80168599 4278190080
0.18457 -0.17873999 0.79589802 4278190080
0.12438 -0.196289 0.83105499 4278190080
0.120117 -0.19451401 0.83105499 4278190080
0.172616 -0.196289 0.83105499 4278190080
0.17285199 -0.196104 0.83105499 4278190080
0.17285199 -0.196289 0.83121002 4278190080
0.178711 -0.193841 0.83105499 4278190080
0.178711 -0.196289 0.83532399 4278190080
0.18457 -0.193306 0.83105499 4278190080
0.19043 -0.17372601 0.790039 4278190080
0.19043 -0.178711 0.79487902 4278190080
0.11964 -0.19043 0.81347698 4278190080
0.114258 -0.18813699 0.81347698 4278190080
0.114258 -0.19043 0.81624502 4278190080
0.169304 -0.19043 0.81347698 4278190080
0.17285199 -0.18723901 0.81347698 4278190080
0.17285199 -0.19043 0.81606501 4278190080
0.178711 -0.186794 0.81347698 4278190080
0.178711 -0.19043 0.81846899 4278190080
0.18457 -0.186667 0.81347698 4278190080
0.18457 -0.19043 0.81875801 4278190080
0.115794 -0.178711 0.790039 4278190080
0.120117 -0.178711 0.79373699 4278190080
0.18457 -0.178711 0.795762 4278190080
0.11717 -0.17285199 0.790039 4278190080
0.120117 -0.170735 0.790039 4278190080
0.120117 -0.17285199 0.79272401 4278190080
0.18822099 -0.17285199 0.790039 4278190080
0.18457 -0.17285199 0.794016 4278190080
0.117569 -0.16699199 0.78417999 4278190080
0.120117 -0.165984 0.78417999 4278190080
0.120117 -0.16699199 0.78644699 4278190080
0.189978 -0.16699199 0.78417999 4278190080
0.130022 -0.18457 0.80175799 4278190080
0.131836 -0.18457 0.80286199 4278190080
0.137695 -0.18457 0.80559403 4278190080
0.143555 -0.18457 0.80692202 4278190080
0.16113301 -0.18457 0.80700898 4278190080
0.16699199 -0.18457 0.80575597 4278190080
0.17837299 -0.18457 0.80175799 4278190080
0.17285199 -0.18457 0.80425298 4278190080
0.178931 -0.18457 0.80175799 4278190080
0.18457 -0.182198 0.80175799 4278190080
0.18457 -0.18457 0.80358303 4278190080
0.19043 -0.180253 0.80175799 4278190080
0.180564 -0.196289 0.836914 4278190080
0.18457 -0.194472 0.836914 4278190080
0.185103 -0.19043 0.819336 4278190080
0.122677 -0.178711 0.79589802 4278190080
0.12597699 -0.178711 0.79862702 4278190080
0.184352 -0.178711 0.79589802 4278190080
0.178711 -0.178711 0.79994702 4278190080
0.122701 -0.17285199 0.79589802 4278190080
0.12597699 -0.17285199 0.80012399 4278190080
0.182265 -0.17285199 0.79589802 4278190080
0.178711 -0.17285199 0.79895997 4278190080
0.121677 -0.16699199 0.790039 4278190080
0.12597699 -0.16489001 0.790039 4278190080
0.18588901 -0.16699199 0.790039 4278190080
0.18457 -0.16699199 0.79204601 4278190080
0.183735 -0.196289 0.84277302 4278190080
0.18457 -0.195466 0.84277302 4278190080
0.147563 -0.18457 0.80761701 4278190080
0.143555 -0.1807 0.80761701 4278190080
0.149414 -0.18457 0.80794799 4278190080
0.157086 -0.18457 0.80761701 4278190080
0.15527301 -0.18457 0.80789 4278190080
0.18790901 -0.18457 0.80761701 4278190080
0.19043 -0.182905 0.80761701 4278190080
0.19043 -0.18457 0.80915397 4278190080
0.130086 -0.178711 0.80175799 4278190080
0.131836 -0.178711 0.80310798 4278190080
0.137695 -0.178711 0.80622202 4278190080
0.16113301 -0.178711 0.80748099 4278190080
0.16699199 -0.178711 0.80553198 4278190080
0.17548101 -0.178711 0.80175799 4278190080
0.17285199 -0.178711 0.80333501 4278190080
0.124477 -0.16699199 0.79589802 4278190080
0.181531 -0.16699199 0.79589802 4278190080
0.178711 -0.16699199 0.79932803 4278190080
0.12793399 -0.17285199 0.80175799 4278190080
0.12597699 -0.170158 0.80175799 4278190080
0.131836 -0.17285199 0.804986 4278190080
0.175712 -0.17285199 0.80175799 4278190080
0.17285199 -0.17285199 0.80420798 4278190080
0.19043 -0.186681 0.81347698 4278190080
0.19043 -0.19328 0.83105499 4278190080
0.142262 -0.178711 0.80761701 4278190080
0.137695 -0.175276 0.80761701 4278190080
0.143555 -0.178711 0.80800301 4278190080
0.149414 -0.178711 0.80904502 4278190080
0.160708 -0.178711 0.80761701 4278190080
0.15527301 -0.178711 0.80940503 4278190080
0.16113301 -0.17838 0.80761701 4278190080
0.16699199 -0.17334799 0.80761701 4278190080
0.13620199 -0.17285199 0.80761701 4278190080
0.131836 -0.16877399 0.80761701 4278190080
0.137695 -0.17285199 0.80855799 4278190080
0.143555 -0.17285199 0.81052101 4278190080
0.149414 -0.17285199 0.81186098 4278190080
0.15527301 -0.17285199 0.81190503 4278190080
0.16113301 -0.17285199 0.810139 4278190080
0.167344 -0.17285199 0.80761701 4278190080
0.16699199 -0.17285199 0.80783302 4278190080
0.124465 -0.16699199 0.80175799 4278190080
0.12597699 -0.16699199 0.80397201 4278190080
0.176328 -0.16699199 0.80175799 4278190080
0.17285199 -0.16699199 0.805525 4278190080
0.19043 -0.18724 0.819336 4278190080
0.19043 -0.19043 0.82416201 4278190080
0.196289 -0.16699199 0.777448 4278190080
0.19043 -0.194232 0.836914 4278190080
0.19043 -0.167623 0.78417999 4278190080
0.19043 -0.17285199 0.78819001 4278190080
0.196289 -0.172032 0.78417999 4278190080
0.196289 -0.17285199 0.78486902 4278190080
0.143555 -0.16805901 0.81347698 4278190080
0.149414 -0.169568 0.81347698 4278190080
0.15527301 -0.16973799 0.81347698 4278190080
0.130263 -0.16699199 0.80761701 4278190080
0.131836 -0.16699199 0.80882502 4278190080
0.137695 -0.16699199 0.81253302 4278190080
0.16113301 -0.16699199 0.81301498 4278190080
0.17037401 -0.16699199 0.80761701 4278190080
0.16699199 -0.16699199 0.81023198 4278190080
0.17285199 -0.161156 0.80761701 4278190080
0.191663 -0.19043 0.82519501 4278190080
0.196289 -0.18804599 0.82519501 4278190080
0.195608 -0.16699199 0.77832001 4278190080
0.19043 -0.16699199 0.78364599 4278190080
0.131836 -0.164349 0.81347698 4278190080
0.14109799 -0.16699199 0.81347698 4278190080
0.137695 -0.166143 0.81347698 4278190080
0.143555 -0.16699199 0.81409198 4278190080
0.149414 -0.16699199 0.81488597 4278190080
0.15970699 -0.16699199 0.81347698 4278190080
0.15527301 -0.16699199 0.81483197 4278190080
0.16113301 -0.165787 0.81347698 4278190080
0.194792 -0.19043 0.83105499 4278190080
0.196289 -0.18907399 0.83105499 4278190080
0.137695 -0.163168 0.819336 4278190080
0.143555 -0.162146 0.819336 4278190080
0.120117 -0.149414 0.75388098 4278190080
0.12597699 -0.149414 0.75472599 4278190080
0.131836 -0.14401799 0.74902302 4278190080
0.119246 -0.149414 0.75488299 4278190080
0.120117 -0.146743 0.75488299 4278190080
0.126085 -0.149414 0.75488299 4278190080
0.131836 -0.14532501 0.75488299 4278190080
0.131836 -0.149414 0.75890601 4278190080
0.137695 -0.14479201 0.75488299 4278190080
0.16699199 -0.14473 0.75488299 4278190080
0.17285199 -0.14480101 0.75488299 4278190080
0.178711 -0.14444999 0.75488299 4278190080
0.18457 -0.14397299 0.75488299 4278190080
0.196289 -0.137695 0.75963902 4278190080
0.19043 -0.149414 0.76115698 4278190080
0.116115 -0.149414 0.76074201 4278190080
0.114258 -0.149414 0.76424599 4278190080
0.135902 -0.149414 0.76074201 4278190080
0.137695 -0.148341 0.76074201 4278190080
0.137695 -0.149414 0.761823 4278190080
0.143555 -0.145569 0.76074201 4278190080
0.149414 -0.145914 0.76074201 4278190080
0.16699199 -0.145483 0.76074201 4278190080
0.17285199 -0.14566 0.76074201 4278190080
0.178711 -0.145881 0.76074201 4278190080
0.18457 -0.14670201 0.76074201 4278190080
0.18457 -0.149414 0.76283002 4278190080
0.19043 -0.15314201 0.76660198 4278190080
0.196289 -0.15527301 0.76854199 4278190080
0.191976 -0.137695 0.76074201 4278190080
0.19043 -0.136895 0.76074201 4278190080
0.19043 -0.137695 0.761123 4278190080
0.19043 -0.131836 0.75785899 4278190080
0.196289 -0.12822901 0.75488299 4278190080
0.196289 -0.131836 0.75664097 4278190080
0.20214801 -0.127426 0.75488299 4278190080
0.20214801 -0.131836 0.75667101 4278190080
0.20800801 -0.131836 0.75744998 4278190080
0.131836 -0.143555 0.745992 4278190080
0.137695 -0.143555 0.743608 4278190080
0.143555 -0.143555 0.74773699 4278190080
0.17285199 -0.143555 0.74889702 4278190080
0.196289 -0.160678 0.772461 4278190080
0.196289 -0.16113301 0.772789 4278190080
0.114258 -0.15688001 0.76660198 4278190080
0.114258 -0.16113301 0.77166301 4278190080
0.120117 -0.156922 0.76660198 4278190080
0.192407 -0.15527301 0.772461 4278190080
0.19043 -0.154728 0.772461 4278190080
0.19043 -0.15527301 0.77400899 4278190080
0.113112 -0.149414 0.76660198 4278190080
0.114258 -0.145182 0.76660198 4278190080
0.142848 -0.149414 0.76660198 4278190080
0.143555 -0.14892299 0.76660198 4278190080
0.143555 -0.149414 0.76703203 4278190080
0.149414 -0.148468 0.76660198 4278190080
0.149414 -0.149414 0.76904899 4278190080
0.15527301 -0.146824 0.76660198 4278190080
0.16113301 -0.14593001 0.76660198 4278190080
0.16699199 -0.14648899 0.76660198 4278190080
0.17285199 -0.14662901 0.76660198 4278190080
0.17285199 -0.149414 0.771752 4278190080
0.17939 -0.149414 0.76660198 4278190080
0.178711 -0.149022 0.76660198 4278190080
0.178711 -0.149414 0.76707298 4278190080
0.20384 -0.137695 0.76660198 4278190080
0.20800801 -0.13387901 0.76660198 4278190080
0.20800801 -0.137695 0.77000898 4278190080
0.137695 -0.137695 0.74701899 4278190080
0.143555 -0.137695 0.74437201 4278190080
0.149414 -0.137695 0.74324298 4278190080
0.15527301 -0.137695 0.74323303 4278190080
0.16113301 -0.137695 0.74363601 4278190080
0.16699199 -0.137695 0.74581301 4278190080
0.17285199 -0.137695 0.74881202 4278190080
0.191314 -0.16113301 0.77832001 4278190080
0.19043 -0.16024899 0.77832001 4278190080
0.19043 -0.16113301 0.77936298 4278190080
0.127877 -0.143555 0.74902302 4278190080
0.12597699 -0.143555 0.75081003 4278190080
0.131836 -0.138992 0.74902302 4278190080
0.146062 -0.143555 0.74902302 4278190080
0.149414 -0.140498 0.74902302 4278190080
0.149414 -0.143555 0.75104702 4278190080
0.15527301 -0.139909 0.74902302 4278190080
0.15527301 -0.143555 0.751679 4278190080
0.16113301 -0.141091 0.74902302 4278190080
0.16113301 -0.143555 0.75058901 4278190080
0.17259 -0.143555 0.74902302 4278190080
0.16699199 -0.139494 0.74902302 4278190080
0.16699199 -0.143555 0.751535 4278190080
0.174096 -0.143555 0.74902302 4278190080
0.178711 -0.143555 0.75011498 4278190080
0.18457 -0.143555 0.75372797 4278190080
0.111797 -0.16113301 0.772461 4278190080
0.108398 -0.16113301 0.773673 4278190080
0.115058 -0.16113301 0.772461 4278190080
0.120117 -0.158957 0.772461 4278190080
0.120117 -0.16113301 0.77580303 4278190080
0.12597699 -0.157231 0.772461 4278190080
0.120117 -0.149625 0.75488299 4278190080
0.110374 -0.149414 0.772461 4278190080
0.108398 -0.149414 0.776196 4278190080
0.15406799 -0.149414 0.772461 4278190080
0.15527301 -0.14909799 0.772461 4278190080
0.15527301 -0.149414 0.773287 4278190080
0.16113301 -0.14754499 0.772461 4278190080
0.16113301 -0.149414 0.774773 4278190080
0.17021701 -0.149414 0.772461 4278190080
0.16699199 -0.148826 0.772461 4278190080
0.16699199 -0.149414 0.77355099 4278190080
0.143555 -0.131836 0.74900401 4278190080
0.149414 -0.131836 0.748043 4278190080
0.15527301 -0.131836 0.74803603 4278190080
0.16113301 -0.131836 0.74829 4278190080
0.121934 -0.143555 0.75488299 4278190080
0.120117 -0.143555 0.75696999 4278190080
0.18457 -0.14244001 0.75488299 4278190080
0.12597699 -0.137695 0.75470299 4278190080
0.133716 -0.137695 0.74902302 4278190080
0.131836 -0.137695 0.749942 4278190080
0.137695 -0.134276 0.74902302 4278190080
0.16699199 -0.13375901 0.74902302 4278190080
0.173061 -0.137695 0.74902302 4278190080
0.17285199 -0.137457 0.74902302 4278190080
0.178711 -0.137695 0.75471002 4278190080
0.213098 -0.137695 0.77832001 4278190080
0.21386699 -0.136989 0.77832001 4278190080
0.21386699 -0.137695 0.77892399 4278190080
0.12142 -0.16113301 0.77832001 4278190080
0.12597699 -0.15802801 0.77832001 4278190080
0.131836 -0.15666901 0.77832001 4278190080
0.114258 -0.15527301 0.76354599 4278190080
0.120117 -0.153937 0.76074201 4278190080
0.120117 -0.15527301 0.761482 4278190080
0.12597699 -0.15093701 0.76074201 4278190080
0.107025 -0.149414 0.77832001 4278190080
0.102539 -0.149414 0.78241301 4278190080
0.108398 -0.145862 0.77832001 4278190080
0.149414 -0.149414 0.78097302 4278190080
0.17285199 -0.149414 0.78185898 4278190080
0.118093 -0.143555 0.76074201 4278190080
0.120117 -0.13879 0.76074201 4278190080
0.131836 -0.131836 0.753708 4278190080
0.14346901 -0.131836 0.74902302 4278190080
0.137695 -0.131836 0.75046802 4278190080
0.143555 -0.13180099 0.74902302 4278190080
0.149414 -0.13025101 0.74902302 4278190080
0.15527301 -0.130449 0.74902302 4278190080
0.163018 -0.131836 0.74902302 4278190080
0.16113301 -0.130899 0.74902302 4278190080
0.16699199 -0.131836 0.75043601 4278190080
0.17285199 -0.131836 0.75371701 4278190080
0.12582199 -0.137695 0.75488299 4278190080
0.12597699 -0.137456 0.75488299 4278190080
0.178902 -0.137695 0.75488299 4278190080
0.178711 -0.137463 0.75488299 4278190080
0.18457 -0.137695 0.75918299 4278190080
0.124044 -0.16113301 0.78417999 4278190080
0.12597699 -0.159998 0.78417999 4278190080
0.12597699 -0.16113301 0.78554398 4278190080
0.131836 -0.158206 0.78417999 4278190080
0.137695 -0.157144 0.78417999 4278190080
0.18764199 -0.16113301 0.78417999 4278190080
0.11164 -0.15527301 0.76660198 4278190080
0.12459 -0.15527301 0.76660198 4278190080
0.12597699 -0.154136 0.76660198 4278190080
0.12597699 -0.15527301 0.76760399 4278190080
0.18457 -0.15175299 0.76660198 4278190080
0.14646401 -0.149414 0.78417999 4278190080
0.15469401 -0.149414 0.78417999 4278190080
0.149414 -0.146442 0.78417999 4278190080
0.17088801 -0.149414 0.78417999 4278190080
0.17485499 -0.149414 0.78417999 4278190080
0.17285199 -0.147421 0.78417999 4278190080
0.114791 -0.143555 0.76660198 4278190080
0.114258 -0.143555 0.76757002 4278190080
0.130504 -0.131836 0.75488299 4278190080
0.12597699 -0.131836 0.75904799 4278190080
0.131836 -0.13014799 0.75488299 4278190080
0.16699199 -0.126184 0.75488299 4278190080
0.174187 -0.131836 0.75488299 4278190080
0.17285199 -0.130465 0.75488299 4278190080
0.178711 -0.131836 0.75866097 4278190080
0.18457 -0.131836 0.76021999 4278190080
0.120749 -0.137695 0.76074201 4278190080
0.120117 -0.137695 0.76137799 4278190080
0.189317 -0.137695 0.76074201 4278190080
0.12939499 -0.16113301 0.790039 4278190080
0.12597699 -0.16113301 0.79359001 4278190080
0.131836 -0.158628 0.790039 4278190080
0.18524 -0.16113301 0.790039 4278190080
0.18457 -0.159189 0.790039 4278190080
0.18457 -0.16113301 0.79152399 4278190080
0.111714 -0.143555 0.772461 4278190080
0.102539 -0.15527301 0.77703202 4278190080
0.109274 -0.15527301 0.772461 4278190080
0.108398 -0.15527301 0.77437401 4278190080
0.1287 -0.15527301 0.772461 4278190080
0.131836 -0.152564 0.772461 4278190080
0.131836 -0.15527301 0.776344 4278190080
0.17285199 -0.149909 0.772461 4278190080
0.178711 -0.15188 0.772461 4278190080
0.18457 -0.153014 0.772461 4278190080
0.102539 -0.143555 0.78181303 4278190080
0.109013 -0.143555 0.77832001 4278190080
0.108398 -0.143555 0.779576 4278190080
0.116354 -0.137695 0.76660198 4278190080
0.114258 -0.137695 0.769907 4278190080
0.12411 -0.16113301 0.79589802 4278190080
0.12597699 -0.159382 0.79589802 4278190080
0.18200999 -0.16113301 0.79589802 4278190080
0.178711 -0.16113301 0.80139202 4278190080
0.123863 -0.131836 0.76074201 4278190080
0.120117 -0.131836 0.76368499 4278190080
0.12597699 -0.12825701 0.76074201 4278190080
0.178711 -0.127693 0.76074201 4278190080
0.18457 -0.126017 0.76074201 4278190080
0.102539 -0.154329 0.77832001 4278190080
0.13342001 -0.15527301 0.77832001 4278190080
0.137695 -0.15255 0.77832001 4278190080
0.137695 -0.15527301 0.78223598 4278190080
0.143555 -0.15220299 0.77832001 4278190080
0.149414 -0.152081 0.77832001 4278190080
0.15527301 -0.150699 0.77832001 4278190080
0.16113301 -0.15166301 0.77832001 4278190080
0.16699199 -0.151335 0.77832001 4278190080
0.17285199 -0.152604 0.77832001 4278190080
0.178711 -0.153126 0.77832001 4278190080
0.187893 -0.15527301 0.77832001 4278190080
0.18457 -0.15408599 0.77832001 4278190080
0.178326 -0.16113301 0.80175799 4278190080
0.113051 -0.137695 0.772461 4278190080
0.114258 -0.13236 0.772461 4278190080
0.118053 -0.131836 0.76660198 4278190080
0.120117 -0.127147 0.76660198 4278190080
0.139865 -0.15527301 0.78417999 4278190080
0.137695 -0.15527301 0.78601903 4278190080
0.143555 -0.15301099 0.78417999 4278190080
0.15527301 -0.15010899 0.78417999 4278190080
0.16113301 -0.150048 0.78417999 4278190080
0.16699199 -0.15293001 0.78417999 4278190080
0.178711 -0.15372799 0.78417999 4278190080
0.18564001 -0.15527301 0.78417999 4278190080
0.18457 -0.154902 0.78417999 4278190080
0.18457 -0.15527301 0.78715301 4278190080
0.16699199 -0.16113301 0.813173 4278190080
0.172859 -0.16113301 0.80761701 4278190080
0.17285199 -0.160882 0.80761701 4278190080
0.17285199 -0.16113301 0.80762702 4278190080
0.110469 -0.137695 0.77832001 4278190080
0.108398 -0.137695 0.783252 4278190080
0.114428 -0.131836 0.772461 4278190080
0.114258 -0.131836 0.77272803 4278190080
0.1344 -0.15527301 0.790039 4278190080
0.18337101 -0.15527301 0.790039 4278190080
0.149414 -0.16113301 0.817128 4278190080
0.15527301 -0.16113301 0.81654799 4278190080
0.166191 -0.16113301 0.81347698 4278190080
0.16113301 -0.16113301 0.815319 4278190080
0.16699199 -0.15906399 0.81347698 4278190080
0.108398 -0.132484 0.78417999 4278190080
0.111727 -0.131836 0.77832001 4278190080
0.18161701 -0.15527301 0.79589802 4278190080
0.178711 -0.15527301 0.80123901 4278190080
0.145687 -0.16113301 0.819336 4278190080
0.108459 -0.131836 0.78417999 4278190080
0.108398 -0.131836 0.78434902 4278190080
0.178258 -0.15527301 0.80175799 4278190080
0.17285199 -0.15527301 0.80740899 4278190080
0.107697 -0.131836 0.790039 4278190080
0.172702 -0.15527301 0.80761701 4278190080
0.107148 -0.131836 0.79589802 4278190080
0.108398 -0.137695 0.82968098 4278190080
0.106909 -0.131836 0.80175799 4278190080
0.108766 -0.137695 0.83105499 4278190080
0.108398 -0.136659 0.83105499 4278190080
0.10647 -0.131836 0.80761701 4278190080
0.106122 -0.131836 0.81347698 4278190080
0.108398 -0.129513 0.82519501 4278190080
0.108398 -0.129324 0.83105499 4278190080
0.108398 -0.131836 0.83284098 4278190080
0.196289 -0.120117 0.75285101 4278190080
0.20214801 -0.120117 0.75314999 4278190080
0.20800801 -0.120117 0.75479198 4278190080
0.196289 -0.12597699 0.75382 4278190080
0.20214801 -0.12597699 0.75428402 4278190080
0.20800801 -0.102539 0.760019 4278190080
0.19072101 -0.120117 0.75488299 4278190080
0.208621 -0.120117 0.75488299 4278190080
0.20800801 -0.119352 0.75488299 4278190080
0.21386699 -0.120117 0.75559598 4278190080
0.20214801 -0.096679702 0.76645398 4278190080
0.20800801 -0.096679702 0.76227403 4278190080
0.19340999 -0.12597699 0.75488299 4278190080
0.19043 -0.12597699 0.75617802 4278190080
0.206489 -0.12597699 0.75488299 4278190080
0.21202999 -0.12597699 0.75488299 4278190080
0.20800801 -0.12174 0.75488299 4278190080
0.20800801 -0.12597699 0.755117 4278190080
0.21386699 -0.12526 0.75488299 4278190080
0.20644601 -0.102539 0.76074201 4278190080
0.20214801 -0.102539 0.762523 4278190080
0.208171 -0.102539 0.76074201 4278190080
0.20800801 -0.101055 0.76074201 4278190080
0.20200101 -0.096679702 0.76660198 4278190080
0.19043 -0.119971 0.772461 4278190080
0.19043 -0.120117 0.77278203 4278190080
0.19742601 -0.096679702 0.772461 4278190080
0.20919301 -0.102539 0.76660198 4278190080
0.21386699 -0.102539 0.77027899 4278190080
0.19043 -0.121658 0.77832001 4278190080
0.20214801 -0.114258 0.75425798 4278190080
0.20214801 -0.108398 0.758246 4278190080
0.20800801 -0.108398 0.75734198 4278190080
0.21386699 -0.108398 0.75744098 4278190080
0.19043 -0.120117 0.781712 4278190080
0.204952 -0.114258 0.75488299 4278190080
0.20214801 -0.113164 0.75488299 4278190080
0.20800801 -0.114258 0.75554502 4278190080
0.21386699 -0.114258 0.756217 4278190080
0.20214801 -0.10502 0.76074201 4278190080
0.21386699 -0.107116 0.76074201 4278190080
0.137695 -0.120117 0.758178 4278190080
0.143555 -0.120117 0.756827 4278190080
0.149414 -0.120117 0.755611 4278190080
0.15527301 -0.120117 0.755831 4278190080
0.16113301 -0.120117 0.757065 4278190080
0.16699199 -0.120117 0.76035899 4278190080
0.137695 -0.12597699 0.75485301 4278190080
0.143555 -0.12597699 0.75244898 4278190080
0.149414 -0.12597699 0.751724 4278190080
0.15527301 -0.12597699 0.75210398 4278190080
0.16113301 -0.12597699 0.75298798 4278190080
0.21386699 -0.106648 0.76660198 4278190080
0.12597699 -0.120117 0.76476097 4278190080
0.131981 -0.120117 0.76074201 4278190080
0.131836 -0.120117 0.76080102 4278190080
0.137695 -0.116352 0.76074201 4278190080
0.143555 -0.1145 0.76074201 4278190080
0.16113301 -0.115291 0.76074201 4278190080
0.16760699 -0.120117 0.76074201 4278190080
0.16699199 -0.119553 0.76074201 4278190080
0.17285199 -0.120117 0.76390499 4278190080
0.137695 -0.096679702 0.77244699 4278190080
0.143555 -0.096679702 0.77015197 4278190080
0.149414 -0.096679702 0.771272 4278190080
0.19043 -0.114258 0.78319198 4278190080
0.13763499 -0.12597699 0.75488299 4278190080
0.131836 -0.12597699 0.75751299 4278190080
0.137695 -0.12592401 0.75488299 4278190080
0.143555 -0.122872 0.75488299 4278190080
0.149414 -0.121253 0.75488299 4278190080
0.15527301 -0.121545 0.75488299 4278190080
0.166473 -0.12597699 0.75488299 4278190080
0.16113301 -0.123301 0.75488299 4278190080
0.16699199 -0.12597699 0.75506002 4278190080
0.17285199 -0.12597699 0.75893003 4278190080
0.124166 -0.120117 0.76660198 4278190080
0.120117 -0.120117 0.77048802 4278190080
0.12597699 -0.11727 0.76660198 4278190080
0.177634 -0.120117 0.76660198 4278190080
0.17285199 -0.116282 0.76660198 4278190080
0.178711 -0.120117 0.76723301 4278190080
0.18584201 -0.120117 0.76660198 4278190080
0.18457 -0.120117 0.76874298 4278190080
0.137674 -0.096679702 0.772461 4278190080
0.131836 -0.096679702 0.77601397 4278190080
0.15177999 -0.096679702 0.772461 4278190080
0.15527301 -0.096679702 0.77528799 4278190080
0.149414 -0.114258 0.76016003 4278190080
0.15527301 -0.114258 0.760463 4278190080
0.118854 -0.120117 0.772461 4278190080
0.120117 -0.117502 0.772461 4278190080
0.18457 -0.117048 0.772461 4278190080
0.12875099 -0.096679702 0.77832001 4278190080
0.12597699 -0.096679702 0.78100801 4278190080
0.137695 -0.102539 0.769844 4278190080
0.143555 -0.102539 0.76870698 4278190080
0.149414 -0.102539 0.768323 4278190080
0.15527301 -0.102539 0.76855099 4278190080
0.16113301 -0.102539 0.77005303 4278190080
0.127295 -0.12597699 0.76074201 4278190080
0.12597699 -0.12597699 0.761684 4278190080
0.131836 -0.120224 0.76074201 4278190080
0.176686 -0.12597699 0.76074201 4278190080
0.17285199 -0.123857 0.76074201 4278190080
0.178711 -0.12597699 0.76180297 4278190080
0.18457501 -0.12597699 0.76074201 4278190080
0.18457 -0.12597699 0.76074702 4278190080
0.115208 -0.120117 0.77832001 4278190080
0.114258 -0.120117 0.779863 4278190080
0.187938 -0.120117 0.77832001 4278190080
0.123521 -0.096679702 0.78417999 4278190080
0.120117 -0.096679702 0.787817 4278190080
0.12597699 -0.092034198 0.78417999 4278190080
0.12597699 -0.102539 0.776851 4278190080
0.13257299 -0.102539 0.772461 4278190080
0.131836 -0.102539 0.77283901 4278190080
0.15527301 -0.098604701 0.772461 4278190080
0.165388 -0.102539 0.772461 4278190080
0.16113301 -0.100062 0.772461 4278190080
0.16699199 -0.102539 0.77335799 4278190080
0.17285199 -0.102539 0.776636 4278190080
0.131836 -0.114258 0.764346 4278190080
0.137695 -0.114258 0.76207203 4278190080
0.144916 -0.114258 0.76074201 4278190080
0.143555 -0.114258 0.76091403 4278190080
0.149414 -0.113471 0.76074201 4278190080
0.156776 -0.114258 0.76074201 4278190080
0.15527301 -0.113888 0.76074201 4278190080
0.16113301 -0.114258 0.76152003 4278190080
0.16699199 -0.114258 0.76418 4278190080
0.1208 -0.12597699 0.76660198 4278190080
0.120117 -0.12597699 0.76732397 4278190080
0.178711 -0.120845 0.76660198 4278190080
0.18457 -0.122117 0.76660198 4278190080
0.112045 -0.120117 0.78417999 4278190080
0.118753 -0.096679702 0.790039 4278190080
0.120117 -0.094018698 0.790039 4278190080
0.137695 -0.108398 0.76630002 4278190080
0.143555 -0.108398 0.76530999 4278190080
0.149414 -0.108398 0.76457 4278190080
0.15527301 -0.108398 0.76488298 4278190080
0.16113301 -0.108398 0.76625597 4278190080
0.124334 -0.102539 0.77832001 4278190080
0.120117 -0.102539 0.782462 4278190080
0.12597699 -0.100155 0.77832001 4278190080
0.176762 -0.102539 0.77832001 4278190080
0.178711 -0.102539 0.77906299 4278190080
0.116933 -0.12597699 0.772461 4278190080
0.114258 -0.12597699 0.77676803 4278190080
0.12846901 -0.114258 0.76660198 4278190080
0.12597699 -0.114258 0.76844102 4278190080
0.131836 -0.111226 0.76660198 4278190080
0.1707 -0.114258 0.76660198 4278190080
0.16699199 -0.111526 0.76660198 4278190080
0.17285199 -0.114258 0.767932 4278190080
0.178711 -0.114258 0.77229398 4278190080
0.108804 -0.120117 0.790039 4278190080
0.108398 -0.120117 0.790824 4278190080
0.11544 -0.096679702 0.79589802 4278190080
0.114258 -0.096679702 0.79794699 4278190080
0.136989 -0.108398 0.76660198 4278190080
0.131836 -0.108398 0.76877397 4278190080
0.137695 -0.10792 0.76660198 4278190080
0.143555 -0.106264 0.76660198 4278190080
0.149414 -0.105314 0.76660198 4278190080
0.15527301 -0.105708 0.76660198 4278190080
0.161786 -0.108398 0.76660198 4278190080
0.16113301 -0.10788 0.76660198 4278190080
0.16699199 -0.108398 0.76941103 4278190080
0.119035 -0.102539 0.78417999 4278190080
0.120117 -0.100731 0.78417999 4278190080
0.113455 -0.12597699 0.77832001 4278190080
0.114258 -0.12295 0.77832001 4278190080
0.107726 -0.120117 0.79589802 4278190080
0.122335 -0.114258 0.772461 4278190080
0.120117 -0.114258 0.77486002 4278190080
0.12597699 -0.108775 0.772461 4278190080
0.17285199 -0.108998 0.772461 4278190080
0.17893501 -0.114258 0.772461 4278190080
0.178711 -0.113997 0.772461 4278190080
0.18457 -0.114258 0.77627701 4278190080
0.112763 -0.096679702 0.80175799 4278190080
0.114258 -0.091583803 0.80175799 4278190080
0.115613 -0.102539 0.790039 4278190080
0.114258 -0.102539 0.79319 4278190080
0.110762 -0.12597699 0.78417999 4278190080
0.108398 -0.12597699 0.78855801 4278190080
0.126361 -0.108398 0.772461 4278190080
0.12597699 -0.108398 0.77272803 4278190080
0.131836 -0.103099 0.772461 4278190080
0.17195401 -0.108398 0.772461 4278190080
0.16699199 -0.103937 0.772461 4278190080
0.17285199 -0.108398 0.77300501 4278190080
0.178711 -0.108398 0.77591097 4278190080
0.107625 -0.120117 0.80175799 4278190080
0.112164 -0.096679702 0.80761701 4278190080
0.117725 -0.114258 0.77832001 4278190080
0.114258 -0.114258 0.783485 4278190080
0.120117 -0.109 0.77832001 4278190080
0.185719 -0.114258 0.77832001 4278190080
0.18457 -0.112295 0.77832001 4278190080
0.112996 -0.102539 0.79589802 4278190080
0.114258 -0.099736102 0.79589802 4278190080
0.108174 -0.12597699 0.790039 4278190080
0.108398 -0.121984 0.790039 4278190080
0.108398 -0.120117 0.81152099 4278190080
0.1205 -0.108398 0.77832001 4278190080
0.120117 -0.108398 0.77869803 4278190080
0.18081 -0.108398 0.77832001 4278190080
0.178711 -0.104118 0.77832001 4278190080
0.18457 -0.108398 0.78091198 4278190080
0.111984 -0.096679702 0.81347698 4278190080
0.113808 -0.114258 0.78417999 4278190080
0.114258 -0.113282 0.78417999 4278190080
0.110442 -0.102539 0.80175799 4278190080
0.107588 -0.12597699 0.79589802 4278190080
0.108952 -0.120117 0.81347698 4278190080
0.108398 -0.118542 0.81347698 4278190080
0.108398 -0.120117 0.81812602 4278190080
0.111653 -0.096679702 0.819336 4278190080
0.116427 -0.108398 0.78417999 4278190080
0.114258 -0.108398 0.78763402 4278190080
0.110609 -0.114258 0.790039 4278190080
0.108398 -0.114258 0.79428101 4278190080
0.107191 -0.12597699 0.80175799 4278190080
0.109475 -0.102539 0.80761701 4278190080
0.111615 -0.096679702 0.82519501 4278190080
0.112677 -0.108398 0.790039 4278190080
0.114258 -0.105299 0.790039 4278190080
0.108398 -0.118573 0.82519501 4278190080
0.108398 -0.120117 0.827555 4278190080
0.107064 -0.12597699 0.80761701 4278190080
0.110346 -0.102539 0.81347698 4278190080
0.108146 -0.114258 0.79589802 4278190080
0.108398 -0.111194 0.79589802 4278190080
0.111374 -0.096679702 0.83105499 4278190080
0.109243 -0.108398 0.79589802 4278190080
0.108398 -0.108398 0.79720199 4278190080
0.108681 -0.120117 0.83105499 4278190080
0.10724 -0.12597699 0.81347698 4278190080
0.108398 -0.121524 0.81347698 4278190080
0.1111 -0.102539 0.819336 4278190080
0.107461 -0.114258 0.80175799 4278190080
0.110793 -0.120117 0.836914 4278190080
0.107824 -0.108398 0.80175799 4278190080
0.108398 -0.10532 0.80175799 4278190080
0.108398 -0.12597699 0.821078 4278190080
0.110569 -0.102539 0.82519501 4278190080
0.107233 -0.114258 0.80761701 4278190080
0.107802 -0.108398 0.80761701 4278190080
0.108398 -0.104686 0.80761701 4278190080
0.109608 -0.12597699 0.82519501 4278190080
0.108398 -0.120821 0.82519501 4278190080
0.110413 -0.102539 0.83105499 4278190080
0.107371 -0.114258 0.81347698 4278190080
0.110127 -0.12597699 0.83105499 4278190080
0.108398 -0.104752 0.81347698 4278190080
0.108398 -0.108398 0.81878299 4278190080
0.11053 -0.102539 0.836914 4278190080
0.108398 -0.109301 0.819336 4278190080
0.108398 -0.114258 0.82326901 4278190080
0.108706 -0.108398 0.819336 4278190080
0.11032 -0.102539 0.84277302 4278190080
0.108992 -0.114258 0.82519501 4278190080
0.109344 -0.108398 0.82519501 4278190080
0.109608 -0.114258 0.83105499 4278190080
0.112151 -0.102539 0.84863299 4278190080
0.110681 -0.108398 0.83105499 4278190080
0.110342 -0.114258 0.836914 4278190080
0.110175 -0.108398 0.836914 4278190080
0.110452 -0.108398 0.84277302 4278190080
0.114258 -0.108398 0.84847498 4278190080
0.114258 -0.107422 0.84863299 4278190080
0.131836 -0.090820298 0.77824003 4278190080
0.131759 -0.090820298 0.77832001 4278190080
0.126561 -0.090820298 0.78417999 4278190080
0.12597699 -0.090820298 0.78483599 4278190080
0.122047 -0.090820298 0.790039 4278190080
0.120117 -0.090820298 0.79280299 4278190080
0.12597699 -0.086790897 0.790039 4278190080
0.118123 -0.090820298 0.79589802 4278190080
0.120117 -0.088167101 0.79589802 4278190080
0.12597699 -0.0849609 0.793046 4278190080
0.114613 -0.090820298 0.80175799 4278190080
0.114258 -0.090820298 0.80233699 4278190080
0.123672 -0.0849609 0.79589802 4278190080
0.120117 -0.0849609 0.800497 4278190080
0.113326 -0.090820298 0.80761701 4278190080
0.119215 -0.0849609 0.80175799 4278190080
0.114258 -0.0849609 0.80670702 4278190080
0.120117 -0.084238499 0.80175799 4278190080
0.113087 -0.090820298 0.81347698 4278190080
0.114092 -0.0849609 0.80761701 4278190080
0.114258 -0.084533498 0.80761701 4278190080
0.120117 -0.080122799 0.80761701 4278190080
0.112586 -0.090820298 0.819336 4278190080
0.121413 -0.0791016 0.80761701 4278190080
0.120117 -0.0791016 0.80939198 4278190080
0.113744 -0.0849609 0.81347698 4278190080
0.114258 -0.0836979 0.81347698 4278190080
0.111682 -0.090820298 0.82519501 4278190080
0.118676 -0.0791016 0.81347698 4278190080
0.120117 -0.074405402 0.81347698 4278190080
0.112809 -0.0849609 0.819336 4278190080
0.114258 -0.081062697 0.819336 4278190080
0.115843 -0.0791016 0.819336 4278190080
0.118136 -0.067382798 0.81347698 4278190080
0.120117 -0.066702001 0.81347698 4278190080
0.120117 -0.067382798 0.814735 4278190080
