# .PCD v0.7 - Point Cloud Data file format
VERSION 0.7
FIELDS x y z rgb
SIZE 4 4 4 4
TYPE F F F U
COUNT 1 1 1 1
WIDTH 1102
HEIGHT 1
VIEWPOINT 0 0 0 1 0 0 0
POINTS 1102
DATA ascii
-0.0615234 0.067382798 0.85118002 4278190080
-0.0556641 0.067382798 0.85132003 4278190080
-0.049804699 0.067382798 0.85068101 4278190080
-0.043884002 0.067382798 0.84863299 4278190080
-0.043945301 0.067382798 0.84866399 4278190080
-0.026009399 0.067382798 0.84863299 4278190080
-0.019224999 0.067382798 0.84863299 4278190080
-0.020507799 0.070281997 0.84863299 4278190080
-0.020507799 0.067382798 0.85163498 4278190080
-0.0146484 0.072621502 0.84863299 4278190080
-0.0849609 0.066148803 0.883789 4278190080
-0.0791016 0.064126097 0.883789 4278190080
-0.073242202 0.0633284 0.883789 4278190080
-0.065885499 0.0615234 0.883789 4278190080
-0.067382798 0.061957698 0.883789 4278190080
-0.0322266 0.0615234 0.888749 4278190080
-0.0256557 0.0615234 0.883789 4278190080
-0.026367201 0.0615234 0.88438499 4278190080
-0.103367 0.073242202 0.85449201 4278190080
-0.108398 0.076209903 0.85449201 4278190080
-0.0556641 0.079009697 0.85449201 4278190080
-0.0556641 0.0602604 0.88964802 4278190080
-0.049804699 0.060890399 0.88964802 4278190080
-0.043945301 0.060989901 0.88964802 4278190080
-0.0380859 0.060621999 0.88964802 4278190080
-0.0849609 0.083888903 0.81347698 4278190080
-0.0791016 0.084798001 0.81347698 4278190080
-0.0556641 0.084709004 0.81347698 4278190080
-0.049804699 0.082921498 0.81347698 4278190080
-0.039416701 0.0791016 0.81347698 4278190080
-0.043945301 0.0818533 0.81347698 4278190080
-0.0380859 0.0791016 0.81616199 4278190080
-0.0089525003 0.0791016 0.81347698 4278190080
-0.0087890597 0.079687104 0.81347698 4278190080
-0.0087890597 0.0791016 0.814013 4278190080
-0.102539 0.0725324 0.85449201 4278190080
-0.091036901 0.067382798 0.85449201 4278190080
-0.096679702 0.070698 0.85449201 4278190080
-0.090820298 0.067382798 0.85536599 4278190080
-0.0556641 0.060752299 0.89550799 4278190080
-0.102847 0.073242202 0.86035198 4278190080
-0.108398 0.075430997 0.86035198 4278190080
-0.0849609 0.066109702 0.88964802 4278190080
-0.0791016 0.063724399 0.88964802 4278190080
-0.073242202 0.0633808 0.88964802 4278190080
-0.063925497 0.0615234 0.88964802 4278190080
-0.067382798 0.062828504 0.88964802 4278190080
-0.0615234 0.0615234 0.89390999 4278190080
-0.049804699 0.0615234 0.89540303 4278190080
-0.043945301 0.0615234 0.89347601 4278190080
-0.033645701 0.0615234 0.88964802 4278190080
-0.0380859 0.0615234 0.89124298 4278190080
-0.0322266 0.061953101 0.88964802 4278190080
-0.096679702 0.084863499 0.819336 4278190080
-0.090820298 0.083177902 0.819336 4278190080
-0.0849609 0.083220102 0.819336 4278190080
-0.0791016 0.083844297 0.819336 4278190080
-0.049804699 0.084925801 0.819336 4278190080
-0.043945301 0.081924103 0.819336 4278190080
-0.036576699 0.0791016 0.819336 4278190080
-0.0380859 0.080203101 0.819336 4278190080
-0.0062968698 0.0791016 0.819336 4278190080
-0.102539 0.073064603 0.86035198 4278190080
-0.096679702 0.070486799 0.86035198 4278190080
-0.089207798 0.067382798 0.86035198 4278190080
-0.090820298 0.068566099 0.86035198 4278190080
-0.090820298 0.067382798 0.86573303 4278190080
-0.105122 0.073242202 0.866211 4278190080
-0.108398 0.075374998 0.866211 4278190080
-0.114258 0.083516203 0.82519501 4278190080
-0.108398 0.083517201 0.82519501 4278190080
-0.108398 0.0791016 0.83078903 4278190080
-0.102539 0.0791016 0.82835603 4278190080
-0.096679702 0.080298103 0.82519501 4278190080
-0.090820298 0.081873499 0.82519501 4278190080
-0.0849609 0.082203701 0.82519501 4278190080
-0.034651302 0.0791016 0.82519501 4278190080
-0.0322266 0.0791016 0.82833803 4278190080
-0.0053203101 0.0791016 0.82519501 4278190080
-0.073242202 0.063527502 0.89550799 4278190080
-0.067382798 0.062632099 0.89550799 4278190080
-0.059820998 0.0615234 0.89550799 4278190080
-0.0615234 0.061880101 0.89550799 4278190080
-0.049872998 0.0615234 0.89550799 4278190080
-0.049804699 0.061534502 0.89550799 4278190080
-0.043945301 0.061751202 0.89550799 4278190080
-0.0380859 0.062974699 0.89550799 4278190080
-0.102539 0.071379997 0.866211 4278190080
-0.090931997 0.067382798 0.866211 4278190080
-0.096679702 0.070293903 0.866211 4278190080
-0.0087890597 0.067382798 0.87183201 4278190080
-0.104127 0.073242202 0.87207001 4278190080
-0.108398 0.075617798 0.87207001 4278190080
-0.102539 0.073242202 0.87349802 4278190080
-0.0615234 0.064237103 0.90136701 4278190080
-0.120117 0.083817698 0.83105499 4278190080
-0.108617 0.0791016 0.83105499 4278190080
-0.114258 0.081987701 0.83105499 4278190080
-0.096762098 0.0791016 0.83105499 4278190080
-0.096679702 0.079115704 0.83105499 4278190080
-0.096679702 0.0791016 0.831092 4278190080
-0.090820298 0.080661297 0.83105499 4278190080
-0.090820298 0.0791016 0.83505899 4278190080
-0.0051546101 0.0791016 0.83105499 4278190080
-0.102539 0.072001703 0.87207001 4278190080
-0.091961697 0.067382798 0.87207001 4278190080
-0.096679702 0.0699756 0.87207001 4278190080
-0.0092630396 0.067382798 0.87207001 4278190080
-0.0146484 0.067382798 0.87544501 4278190080
-0.099638499 0.073242202 0.87792999 4278190080
-0.0103867 0.073242202 0.87792999 4278190080
-0.120117 0.083042704 0.836914 4278190080
-0.111997 0.0791016 0.836914 4278190080
-0.114258 0.080082402 0.836914 4278190080
-0.088382103 0.0791016 0.836914 4278190080
-0.0849609 0.0791016 0.83972901 4278190080
-0.0256634 0.0791016 0.836914 4278190080
-0.026367201 0.0791016 0.84229302 4278190080
-0.00677311 0.0791016 0.836914 4278190080
-0.092736401 0.067382798 0.87792999 4278190080
-0.096679702 0.069879502 0.87792999 4278190080
-0.016508199 0.067382798 0.87792999 4278190080
-0.020507799 0.067382798 0.88335401 4278190080
-0.0146484 0.068324201 0.87792999 4278190080
-0.12597699 0.084786803 0.84277302 4278190080
-0.120117 0.082536303 0.84277302 4278190080
-0.1135 0.0791016 0.84277302 4278190080
-0.114258 0.079437599 0.84277302 4278190080
-0.082139798 0.0791016 0.84277302 4278190080
-0.0791016 0.0791016 0.84601498 4278190080
-0.0268577 0.0791016 0.84277302 4278190080
-0.0322266 0.0791016 0.84768099 4278190080
-0.0067837201 0.0791016 0.84277302 4278190080
-0.090820298 0.067382798 0.88418198 4278190080
-0.0209806 0.067382798 0.883789 4278190080
-0.026367201 0.067382798 0.88816202 4278190080
-0.020507799 0.0675712 0.883789 4278190080
-0.12597699 0.084789 0.84863299 4278190080
-0.120117 0.082033999 0.84863299 4278190080
-0.11269 0.0791016 0.84863299 4278190080
-0.114258 0.079910398 0.84863299 4278190080
-0.075441703 0.0791016 0.84863299 4278190080
-0.073242202 0.0791016 0.85009301 4278190080
-0.067382798 0.0791016 0.85270703 4278190080
-0.0615234 0.0791016 0.854029 4278190080
-0.049804699 0.0791016 0.85383701 4278190080
-0.043945301 0.0791016 0.85262001 4278190080
-0.0334902 0.0791016 0.84863299 4278190080
-0.0380859 0.0791016 0.85127598 4278190080
-0.0062691001 0.0791016 0.84863299 4278190080
-0.086451799 0.067382798 0.88964802 4278190080
-0.027748199 0.067382798 0.88964802 4278190080
-0.026367201 0.068045102 0.88964802 4278190080
-0.12597699 0.084729001 0.85449201 4278190080
-0.120117 0.082078002 0.85449201 4278190080
-0.11315 0.0791016 0.85449201 4278190080
-0.114258 0.080089703 0.85449201 4278190080
-0.056007501 0.0791016 0.85449201 4278190080
-0.0615234 0.081408501 0.85449201 4278190080
-0.055428099 0.0791016 0.85449201 4278190080
-0.0556641 0.0791016 0.85452199 4278190080
-0.049804699 0.080466002 0.85449201 4278190080
-0.043945301 0.080985099 0.85449201 4278190080
-0.12597699 0.084518999 0.86035198 4278190080
-0.120117 0.082309797 0.86035198 4278190080
-0.112285 0.0791016 0.86035198 4278190080
-0.114258 0.0812691 0.86035198 4278190080
-0.120117 0.082808301 0.866211 4278190080
-0.111813 0.0791016 0.866211 4278190080
-0.114258 0.081803098 0.866211 4278190080
-0.0556641 0.0849609 0.77161598 4278190080
-0.049804699 0.0849609 0.77216798 4278190080
-0.056859698 0.0849609 0.772461 4278190080
-0.0615234 0.0849609 0.775859 4278190080
-0.0556641 0.090661302 0.772461 4278190080
-0.048408501 0.0849609 0.772461 4278190080
-0.049804699 0.087273203 0.772461 4278190080
-0.043945301 0.0849609 0.77343303 4278190080
-0.0380859 0.0849609 0.775626 4278190080
-0.073242202 0.090215199 0.77832001 4278190080
-0.062429301 0.0849609 0.77832001 4278190080
-0.067382798 0.089426398 0.77832001 4278190080
-0.033629101 0.0849609 0.77832001 4278190080
-0.0322266 0.0849609 0.77916199 4278190080
-0.026367201 0.0849609 0.78317702 4278190080
-0.0791016 0.089471601 0.78417999 4278190080
-0.073242202 0.088478699 0.78417999 4278190080
-0.063547403 0.0849609 0.78417999 4278190080
-0.067382798 0.087952003 0.78417999 4278190080
-0.0249836 0.0849609 0.78417999 4278190080
-0.020507799 0.0849609 0.78738099 4278190080
-0.0791016 0.087883398 0.790039 4278190080
-0.073242202 0.0870867 0.790039 4278190080
-0.063742399 0.0849609 0.790039 4278190080
-0.067382798 0.086641103 0.790039 4278190080
-0.017143199 0.0849609 0.790039 4278190080
-0.0146484 0.0849609 0.79198903 4278190080
-0.0791016 0.087386303 0.79589802 4278190080
-0.073242202 0.086547397 0.79589802 4278190080
-0.0655692 0.0849609 0.79589802 4278190080
-0.067382798 0.085580103 0.79589802 4278190080
-0.0126877 0.0849609 0.79589802 4278190080
0.0029296901 0.088815801 0.80761701 4278190080
0.0029296901 0.085567601 0.81347698 4278190080
-0.0849609 0.089745499 0.80175799 4278190080
-0.0791016 0.086709298 0.80175799 4278190080
-0.073242202 0.086228497 0.80175799 4278190080
-0.065477103 0.0849609 0.80175799 4278190080
-0.067382798 0.085722201 0.80175799 4278190080
-0.0100298 0.0849609 0.80175799 4278190080
-0.0087890597 0.088533498 0.80175799 4278190080
-0.0087890597 0.0849609 0.80455798 4278190080
0.0029296901 0.087040797 0.819336 4278190080
-0.073242202 0.090820298 0.77657598 4278190080
-0.067382798 0.090820298 0.77455598 4278190080
-0.0615234 0.090820298 0.77302301 4278190080
-0.0556641 0.090820298 0.772484 4278190080
-0.049804699 0.090820298 0.77291101 4278190080
-0.043945301 0.090820298 0.77431703 4278190080
-0.0380859 0.090820298 0.776649 4278190080
-0.108398 0.090505697 0.80761701 4278190080
-0.0849609 0.085855201 0.80761701 4278190080
-0.0849609 0.0849609 0.80840802 4278190080
-0.0791016 0.085263498 0.80761701 4278190080
-0.0791016 0.0849609 0.810274 4278190080
-0.073242202 0.085876897 0.80761701 4278190080
-0.063438199 0.0849609 0.80761701 4278190080
-0.067382798 0.085478902 0.80761701 4278190080
-0.0615234 0.0849609 0.80969399 4278190080
-0.0074936198 0.0849609 0.80761701 4278190080
-0.0029296901 0.090170503 0.80761701 4278190080
0.0029296901 0.086337604 0.82519501 4278190080
0.0029296901 0.096679702 0.80589497 4278190080
0.0029296901 0.085730404 0.83105499 4278190080
-0.096679702 0.095385998 0.77832001 4278190080
-0.076163098 0.090820298 0.77832001 4278190080
-0.0791016 0.090820298 0.78002697 4278190080
-0.035137098 0.090820298 0.77832001 4278190080
-0.0322266 0.090820298 0.779989 4278190080
-0.026367201 0.090820298 0.78411901 4278190080
-0.114258 0.089787103 0.81347698 4278190080
-0.108398 0.089462303 0.81347698 4278190080
-0.096679702 0.0849609 0.81926 4278190080
-0.090016499 0.0849609 0.81347698 4278190080
-0.090820298 0.086121403 0.81347698 4278190080
-0.090820298 0.0849609 0.81432402 4278190080
-0.077716202 0.0849609 0.81347698 4278190080
-0.073242202 0.085573398 0.81347698 4278190080
-0.067382798 0.085906401 0.81347698 4278190080
-0.058003299 0.0849609 0.81347698 4278190080
-0.0615234 0.085352696 0.81347698 4278190080
-0.0556641 0.0849609 0.81376499 4278190080
-0.0062907902 0.0849609 0.81347698 4278190080
-0.0029296901 0.0880991 0.81347698 4278190080
0.0055006701 0.096679702 0.80761701 4278190080
0.0029296901 0.086700603 0.836914 4278190080
0.0029296901 0.088983998 0.84277302 4278190080
0.0052972999 0.096679702 0.81347698 4278190080
0.0087890597 0.101172 0.81347698 4278190080
-0.102539 0.095100403 0.78417999 4278190080
-0.096679702 0.096062198 0.78417999 4278190080
-0.090820298 0.0960752 0.78417999 4278190080
-0.0815612 0.090820298 0.78417999 4278190080
-0.026266901 0.090820298 0.78417999 4278190080
-0.026367201 0.091200903 0.78417999 4278190080
-0.020507799 0.090820298 0.78765398 4278190080
-0.12597699 0.090801403 0.819336 4278190080
-0.120117 0.089194901 0.819336 4278190080
-0.114258 0.086894199 0.819336 4278190080
-0.114258 0.0849609 0.82216799 4278190080
-0.108398 0.0849609 0.823026 4278190080
-0.096823499 0.0849609 0.819336 4278190080
-0.096679702 0.085132703 0.819336 4278190080
-0.077692397 0.0849609 0.819336 4278190080
-0.0791016 0.0849609 0.82088 4278190080
-0.073242202 0.087819196 0.819336 4278190080
-0.067382798 0.087554298 0.819336 4278190080
-0.0615234 0.086994298 0.819336 4278190080
-0.0498401 0.0849609 0.819336 4278190080
-0.0556641 0.087587401 0.819336 4278190080
-0.049804699 0.0849609 0.81937099 4278190080
-0.043945301 0.0849609 0.822496 4278190080
-0.0050622202 0.0849609 0.819336 4278190080
-0.0029296901 0.086889103 0.819336 4278190080
0.0057868999 0.096679702 0.819336 4278190080
0.0087890597 0.100001 0.819336 4278190080
-0.108398 0.095572598 0.790039 4278190080
-0.102539 0.092835099 0.790039 4278190080
-0.096679702 0.095288403 0.790039 4278190080
-0.090820298 0.096069902 0.790039 4278190080
-0.083975799 0.090820298 0.790039 4278190080
-0.0849609 0.093722597 0.790039 4278190080
-0.017718401 0.090820298 0.790039 4278190080
-0.0146484 0.090820298 0.792705 4278190080
-0.12597699 0.088554598 0.82519501 4278190080
-0.117483 0.0849609 0.82519501 4278190080
-0.120117 0.086340003 0.82519501 4278190080
-0.120117 0.0849609 0.82694697 4278190080
-0.102744 0.0849609 0.82519501 4278190080
-0.10248 0.0849609 0.82519501 4278190080
-0.102539 0.085312098 0.82519501 4278190080
-0.102539 0.0849609 0.82527697 4278190080
-0.082484499 0.0849609 0.82519501 4278190080
-0.0849609 0.0849609 0.82860398 4278190080
-0.0043281298 0.0849609 0.82519501 4278190080
-0.0029296901 0.085851997 0.82519501 4278190080
0.0066089602 0.096679702 0.82519501 4278190080
0.0087890597 0.099068999 0.82519501 4278190080
-0.108398 0.092065498 0.79589802 4278190080
-0.102539 0.0923227 0.79589802 4278190080
-0.096679702 0.094878003 0.79589802 4278190080
-0.090820298 0.0932777 0.79589802 4278190080
-0.084016398 0.090820298 0.79589802 4278190080
-0.0849609 0.091801502 0.79589802 4278190080
-0.0849609 0.090820298 0.79917598 4278190080
-0.0122827 0.090820298 0.79589802 4278190080
-0.0087890597 0.090820298 0.80024898 4278190080
0.0072931098 0.096679702 0.83105499 4278190080
0.0087890597 0.098465003 0.83105499 4278190080
-0.131836 0.089842699 0.83105499 4278190080
-0.123732 0.0849609 0.83105499 4278190080
-0.12597699 0.086250402 0.83105499 4278190080
-0.087497503 0.0849609 0.83105499 4278190080
-0.0047121001 0.0849609 0.83105499 4278190080
-0.0029296901 0.085851997 0.83105499 4278190080
-0.090820298 0.108398 0.77490503 4278190080
-0.0556641 0.108398 0.77762198 4278190080
-0.049804699 0.108398 0.77749097 4278190080
-0.108398 0.091032401 0.80175799 4278190080
-0.108398 0.090820298 0.80413997 4278190080
-0.102539 0.092095301 0.80175799 4278190080
-0.096679702 0.0934994 0.80175799 4278190080
-0.086051002 0.090820298 0.80175799 4278190080
-0.090820298 0.092787303 0.80175799 4278190080
-0.0074813399 0.090820298 0.80175799 4278190080
-0.0029296901 0.090820298 0.80657899 4278190080
-0.096679702 0.096679702 0.77591699 4278190080
-0.073242202 0.096679702 0.77819598 4278190080
-0.067382798 0.096679702 0.77602601 4278190080
-0.0615234 0.096679702 0.77461302 4278190080
-0.0556641 0.096679702 0.77369797 4278190080
-0.049804699 0.096679702 0.774387 4278190080
-0.043945301 0.096679702 0.77574497 4278190080
-0.0380859 0.096679702 0.77771401 4278190080
0.0029296901 0.090820298 0.804241 4278190080
-0.131836 0.089213498 0.836914 4278190080
-0.124165 0.0849609 0.836914 4278190080
-0.12597699 0.086154103 0.836914 4278190080
-0.12597699 0.0849609 0.841717 4278190080
-0.089497402 0.0849609 0.836914 4278190080
-0.0849609 0.0849609 0.84175903 4278190080
-0.0062382198 0.0849609 0.836914 4278190080
-0.0029296901 0.089023702 0.836914 4278190080
-0.092848502 0.108398 0.77832001 4278190080
-0.096679702 0.108398 0.781802 4278190080
-0.086573802 0.108398 0.77832001 4278190080
-0.090820298 0.109577 0.77832001 4278190080
-0.073242202 0.108398 0.78275001 4278190080
-0.067382798 0.108398 0.78004903 4278190080
-0.059942499 0.108398 0.77832001 4278190080
-0.0615234 0.108398 0.77857202 4278190080
-0.0556641 0.110602 0.77832001 4278190080
-0.045648601 0.108398 0.77832001 4278190080
-0.049804699 0.110514 0.77832001 4278190080
-0.043945301 0.108398 0.77867597 4278190080
-0.0380859 0.108398 0.78076398 4278190080
-0.0322266 0.108398 0.78348303 4278190080
-0.109269 0.090820298 0.80761701 4278190080
-0.114258 0.094830804 0.80761701 4278190080
-0.114258 0.090820298 0.81195199 4278190080
-0.107729 0.090820298 0.80761701 4278190080
-0.102539 0.092329703 0.80761701 4278190080
-0.096679702 0.094538301 0.80761701 4278190080
-0.088441603 0.090820298 0.80761701 4278190080
-0.090820298 0.092697099 0.80761701 4278190080
-0.090820298 0.090820298 0.81042302 4278190080
-0.0029296901 0.093561299 0.80761701 4278190080
-0.099314697 0.096679702 0.77832001 4278190080
-0.102539 0.096679702 0.78142601 4278190080
-0.0938081 0.096679702 0.77832001 4278190080
-0.090820298 0.101004 0.77832001 4278190080
-0.090820298 0.096679702 0.78168201 4278190080
-0.073423102 0.096679702 0.77832001 4278190080
-0.0791016 0.096679702 0.78194797 4278190080
-0.073242202 0.0970321 0.77832001 4278190080
-0.0368862 0.096679702 0.77832001 4278190080
-0.0380859 0.099006899 0.77832001 4278190080
-0.0322266 0.096679702 0.78080302 4278190080
-0.126186 0.0849609 0.84277302 4278190080
-0.131836 0.088312 0.84277302 4278190080
-0.083536901 0.0849609 0.84277302 4278190080
-0.0849609 0.087667197 0.84277302 4278190080
-0.0791016 0.0849609 0.846407 4278190080
-0.00626445 0.0849609 0.84277302 4278190080
-0.0029296901 0.088363901 0.84277302 4278190080
0.0029296901 0.106519 0.80175799 4278190080
0.0029296901 0.102539 0.80353397 4278190080
-0.098718502 0.108398 0.78417999 4278190080
-0.102539 0.108398 0.789666 4278190080
-0.096679702 0.109866 0.78417999 4278190080
-0.086227097 0.108398 0.78417999 4278190080
-0.090820298 0.110643 0.78417999 4278190080
-0.0849609 0.108398 0.78700298 4278190080
-0.075887397 0.108398 0.78417999 4278190080
-0.0791016 0.108398 0.78590202 4278190080
-0.073242202 0.111999 0.78417999 4278190080
-0.0309981 0.108398 0.78417999 4278190080
-0.026367201 0.108398 0.78672999 4278190080
-0.12597699 0.090820298 0.81929898 4278190080
-0.115778 0.090820298 0.81347698 4278190080
-0.120117 0.090820298 0.81766301 4278190080
-0.105357 0.090820298 0.81347698 4278190080
-0.108398 0.090820298 0.81835699 4278190080
-0.102539 0.092821702 0.81347698 4278190080
-0.092546001 0.090820298 0.81347698 4278190080
-0.104293 0.096679702 0.78417999 4278190080
-0.108398 0.096679702 0.78867 4278190080
-0.088842601 0.096679702 0.78417999 4278190080
-0.081451401 0.096679702 0.78417999 4278190080
-0.0849609 0.096679702 0.78786099 4278190080
-0.0275384 0.096679702 0.78417999 4278190080
-0.026367201 0.096679702 0.78503001 4278190080
-0.020507799 0.096679702 0.78860098 4278190080
-0.12620699 0.0849609 0.84863299 4278190080
-0.131836 0.087862603 0.84863299 4278190080
-0.076541297 0.0849609 0.84863299 4278190080
-0.073242202 0.0849609 0.85123098 4278190080
-0.067382798 0.0849609 0.85331798 4278190080
-0.0615234 0.089453503 0.84863299 4278190080
-0.0380859 0.0849609 0.85396099 4278190080
-0.0069518099 0.0849609 0.84863299 4278190080
-0.0029296901 0.088556603 0.84863299 4278190080
-0.102766 0.108398 0.790039 4278190080
-0.102539 0.108621 0.790039 4278190080
-0.096679702 0.111436 0.790039 4278190080
-0.090820298 0.11338 0.790039 4278190080
-0.0214772 0.108398 0.790039 4278190080
-0.020507799 0.109843 0.790039 4278190080
-0.020507799 0.108398 0.79069197 4278190080
-0.0146484 0.110868 0.790039 4278190080
-0.0146484 0.108398 0.79497898 4278190080
-0.0087890597 0.108398 0.793863 4278190080
-0.0029296901 0.108398 0.79456502 4278190080
-0.108897 0.096679702 0.790039 4278190080
-0.018805301 0.096679702 0.790039 4278190080
-0.0146484 0.096679702 0.79355401 4278190080
-0.096679702 0.102539 0.77518803 4278190080
-0.090820298 0.102539 0.77729398 4278190080
-0.067382798 0.102539 0.77789599 4278190080
-0.0615234 0.102539 0.77663201 4278190080
-0.0556641 0.102539 0.77577102 4278190080
-0.049804699 0.102539 0.77604699 4278190080
-0.043945301 0.102539 0.77707797 4278190080
-0.126012 0.090820298 0.819336 4278190080
-0.12597699 0.091405898 0.819336 4278190080
-0.108926 0.090820298 0.819336 4278190080
-0.108398 0.091205798 0.819336 4278190080
-0.108398 0.090820298 0.82032502 4278190080
-0.102539 0.090820298 0.82313699 4278190080
-0.09448 0.090820298 0.819336 4278190080
-0.096679702 0.093856104 0.819336 4278190080
-0.096679702 0.090820298 0.82122898 4278190080
-0.0791016 0.090820298 0.82489699 4278190080
-0.073242202 0.090820298 0.82201701 4278190080
-0.067382798 0.090820298 0.822393 4278190080
-0.12633599 0.0849609 0.85449201 4278190080
-0.131836 0.087820403 0.85449201 4278190080
-0.063707203 0.0849609 0.85449201 4278190080
-0.0615234 0.0861784 0.85449201 4278190080
-0.0615234 0.0849609 0.85522199 4278190080
-0.0556641 0.085490897 0.85449201 4278190080
-0.0556641 0.0849609 0.85572702 4278190080
-0.049804699 0.0849609 0.85655898 4278190080
-0.0399548 0.0849609 0.85449201 4278190080
-0.043945301 0.0849609 0.85890901 4278190080
-0.105123 0.108398 0.79589802 4278190080
-0.108398 0.108398 0.80107403 4278190080
-0.102539 0.110842 0.79589802 4278190080
-0.096679702 0.113482 0.79589802 4278190080
-0.110833 0.096679702 0.79589802 4278190080
-0.0126539 0.096679702 0.79589802 4278190080
-0.0087890597 0.096679702 0.80056298 4278190080
-0.099833503 0.102539 0.77832001 4278190080
-0.102539 0.102539 0.781295 4278190080
-0.096679702 0.104031 0.77832001 4278190080
-0.090122603 0.102539 0.77832001 4278190080
-0.0791016 0.102539 0.78397101 4278190080
-0.0684205 0.102539 0.77832001 4278190080
-0.073242202 0.102539 0.78028202 4278190080
-0.067382798 0.103695 0.77832001 4278190080
-0.0615234 0.107615 0.77832001 4278190080
-0.040604699 0.102539 0.77832001 4278190080
-0.043945301 0.107107 0.77832001 4278190080
-0.0380859 0.102539 0.77932501 4278190080
-0.0322266 0.102539 0.78217602 4278190080
-0.131162 0.090820298 0.82519501 4278190080
-0.131836 0.091929898 0.82519501 4278190080
-0.131836 0.090820298 0.82589602 4278190080
-0.0793617 0.090820298 0.82519501 4278190080
-0.0849609 0.090820298 0.828596 4278190080
-0.0791016 0.090938002 0.82519501 4278190080
-0.126679 0.0849609 0.86035198 4278190080
-0.131836 0.0874006 0.86035198 4278190080
-0.12597699 0.0849609 0.86461198 4278190080
-0.0556641 0.0906123 0.86035198 4278190080
-0.049804699 0.0903183 0.86035198 4278190080
-0.108898 0.108398 0.80175799 4278190080
-0.108398 0.108982 0.80175799 4278190080
-0.102539 0.112419 0.80175799 4278190080
-0.112756 0.096679702 0.80175799 4278190080
-0.114258 0.096679702 0.805884 4278190080
-0.0079435101 0.096679702 0.80175799 4278190080
-0.103527 0.102539 0.78417999 4278190080
-0.108398 0.102539 0.78992701 4278190080
-0.102539 0.103604 0.78417999 4278190080
-0.085497603 0.102539 0.78417999 4278190080
-0.080482103 0.102539 0.78417999 4278190080
-0.0849609 0.102539 0.78498203 4278190080
-0.0791016 0.103144 0.78417999 4278190080
-0.029115001 0.102539 0.78417999 4278190080
-0.026367201 0.102539 0.78596997 4278190080
-0.020507799 0.102539 0.78997397 4278190080
-0.136373 0.090820298 0.83105499 4278190080
-0.087688103 0.090820298 0.83105499 4278190080
-0.0849609 0.0934304 0.83105499 4278190080
-0.125643 0.0849609 0.866211 4278190080
-0.12597699 0.085120402 0.866211 4278190080
-0.114258 0.0849609 0.87194902 4278190080
-0.111734 0.108398 0.80761701 4278190080
-0.114258 0.108398 0.81302202 4278190080
-0.108398 0.112026 0.80761701 4278190080
-0.115162 0.096679702 0.80761701 4278190080
-0.114258 0.100877 0.80761701 4278190080
-0.096679702 0.096679702 0.81323397 4278190080
-0.00389969 0.096679702 0.80761701 4278190080
-0.00086510199 0.096679702 0.80761701 4278190080
-0.0029296901 0.096679702 0.80906898 4278190080
-0.108457 0.102539 0.790039 4278190080
-0.108398 0.102612 0.790039 4278190080
-0.0204293 0.102539 0.790039 4278190080
-0.020507799 0.10305 0.790039 4278190080
-0.0146484 0.102539 0.794653 4278190080
-0.13598201 0.090820298 0.836914 4278190080
-0.137695 0.094120301 0.836914 4278190080
-0.090408199 0.090820298 0.836914 4278190080
-0.114161 0.0849609 0.87207001 4278190080
-0.114783 0.108398 0.81347698 4278190080
-0.114258 0.108907 0.81347698 4278190080
-0.108398 0.113673 0.81347698 4278190080
-0.119102 0.096679702 0.81347698 4278190080
-0.120117 0.096679702 0.81515598 4278190080
-0.096946001 0.096679702 0.81347698 4278190080
-0.102539 0.096679702 0.81892401 4278190080
-0.096570298 0.096679702 0.81347698 4278190080
-0.096679702 0.096756503 0.81347698 4278190080
-0.096679702 0.096679702 0.81379098 4278190080
-0.109588 0.102539 0.79589802 4278190080
-0.108398 0.104052 0.79589802 4278190080
-0.0136304 0.102539 0.79589802 4278190080
-0.0087890597 0.107652 0.79589802 4278190080
-0.0087890597 0.102539 0.80164498 4278190080
-0.0029296901 0.107817 0.79589802 4278190080
-0.136457 0.090820298 0.84277302 4278190080
-0.137695 0.0921707 0.84277302 4278190080
-0.086924598 0.090820298 0.84277302 4278190080
-0.0849609 0.090820298 0.84404999 4278190080
-0.0791016 0.090820298 0.84631199 4278190080
-0.0615234 0.090820298 0.84659499 4278190080
-0.067382798 0.114258 0.78250402 4278190080
-0.0615234 0.114258 0.78054202 4278190080
-0.0556641 0.114258 0.77951598 4278190080
-0.049804699 0.114258 0.77975798 4278190080
-0.043945301 0.114258 0.78042698 4278190080
-0.0380859 0.114258 0.78184903 4278190080
-0.0322266 0.114258 0.78412098 4278190080
-0.118855 0.108398 0.819336 4278190080
-0.120117 0.108398 0.82406503 4278190080
-0.114258 0.11294 0.819336 4278190080
-0.131836 0.096679702 0.82258099 4278190080
-0.12558199 0.096679702 0.819336 4278190080
-0.12597699 0.096679702 0.81972498 4278190080
-0.102804 0.096679702 0.819336 4278190080
-0.102056 0.096679702 0.819336 4278190080
-0.102539 0.0968474 0.819336 4278190080
-0.102539 0.096679702 0.819879 4278190080
-0.11138 0.102539 0.80175799 4278190080
-0.0086967899 0.102539 0.80175799 4278190080
-0.0029296901 0.105636 0.80175799 4278190080
-0.13722201 0.090820298 0.84863299 4278190080
-0.137695 0.091457501 0.84863299 4278190080
-0.075086601 0.090820298 0.84863299 4278190080
-0.073242202 0.090820298 0.84973001 4278190080
-0.064708002 0.090820298 0.84863299 4278190080
-0.067382798 0.090820298 0.851551 4278190080
-0.058412299 0.090820298 0.84863299 4278190080
-0.0556641 0.090820298 0.84938699 4278190080
-0.0029296901 0.090820298 0.85233998 4278190080
-0.0849609 0.114258 0.78933102 4278190080
-0.0791016 0.114258 0.78785402 4278190080
-0.0712322 0.114258 0.78417999 4278190080
-0.073242202 0.114258 0.78506303 4278190080
-0.067382798 0.118742 0.78417999 4278190080
-0.032130402 0.114258 0.78417999 4278190080
-0.0322266 0.114388 0.78417999 4278190080
-0.026367201 0.114258 0.78751898 4278190080
-0.020507799 0.118304 0.78417999 4278190080
-0.020507799 0.114258 0.78789002 4278190080
-0.0146484 0.114258 0.78442699 4278190080
-0.131836 0.108398 0.82992601 4278190080
-0.122149 0.108398 0.82519501 4278190080
-0.12597699 0.108398 0.82696003 4278190080
-0.120117 0.109254 0.82519501 4278190080
-0.114258 0.113144 0.82519501 4278190080
-0.133242 0.096679702 0.82519501 4278190080
-0.114044 0.102539 0.80761701 4278190080
-0.114258 0.102539 0.80802703 4278190080
-0.0044140802 0.102539 0.80761701 4278190080
-0.0015174201 0.102539 0.80761701 4278190080
-0.0029296901 0.103363 0.80761701 4278190080
-0.0029296901 0.102539 0.80973899 4278190080
-0.135176 0.090820298 0.85449201 4278190080
-0.137695 0.093781702 0.85449201 4278190080
-0.0517921 0.090820298 0.85449201 4278190080
-0.0556641 0.090820298 0.86027199 4278190080
-0.0029296901 0.091691002 0.85449201 4278190080
-0.086707897 0.114258 0.790039 4278190080
-0.090820298 0.114258 0.79093498 4278190080
-0.0849609 0.114583 0.790039 4278190080
-0.0791016 0.117171 0.790039 4278190080
-0.132439 0.108398 0.83105499 4278190080
-0.131836 0.109932 0.83105499 4278190080
-0.12597699 0.113061 0.83105499 4278190080
-0.120117 0.113984 0.83105499 4278190080
-0.136032 0.096679702 0.83105499 4278190080
-0.137695 0.096679702 0.834108 4278190080
-0.117727 0.102539 0.81347698 4278190080
-0.120117 0.102539 0.81795597 4278190080
-0.095474102 0.114258 0.79589802 4278190080
-0.096679702 0.114258 0.796947 4278190080
-0.090820298 0.116755 0.79589802 4278190080
-0.0849609 0.116838 0.79589802 4278190080
-0.13575301 0.090820298 0.86035198 4278190080
-0.137695 0.093054302 0.86035198 4278190080
-0.131836 0.090820298 0.86618501 4278190080
-0.0559127 0.090820298 0.86035198 4278190080
-0.0556641 0.090820298 0.86050802 4278190080
-0.049804699 0.090820298 0.86076099 4278190080
-0.136434 0.108398 0.836914 4278190080
-0.137695 0.108398 0.83791298 4278190080
-0.13959301 0.096679702 0.836914 4278190080
-0.131836 0.102539 0.82281297 4278190080
-0.122118 0.102539 0.819336 4278190080
-0.12597699 0.102539 0.82297999 4278190080
-0.120117 0.104392 0.819336 4278190080
-0.13924 0.108398 0.84277302 4278190080
-0.137695 0.114003 0.84277302 4278190080
-0.137695 0.093433298 0.866211 4278190080
-0.131816 0.090820298 0.866211 4278190080
-0.100231 0.114258 0.80175799 4278190080
-0.102539 0.114258 0.80617201 4278190080
-0.096679702 0.117245 0.80175799 4278190080
-0.090820298 0.11799 0.80175799 4278190080
-0.142316 0.096679702 0.84277302 4278190080
-0.133315 0.102539 0.82519501 4278190080
-0.131836 0.104731 0.82519501 4278190080
-0.12597699 0.10574 0.82519501 4278190080
-0.14058299 0.108398 0.84863299 4278190080
-0.143223 0.096679702 0.84863299 4278190080
-0.103649 0.114258 0.80761701 4278190080
-0.102539 0.115511 0.80761701 4278190080
-0.096679702 0.119055 0.80761701 4278190080
-0.13705499 0.102539 0.83105499 4278190080
-0.137695 0.102539 0.83193201 4278190080
-0.14275201 0.108398 0.85449201 4278190080
-0.143555 0.108398 0.856264 4278190080
-0.143199 0.096679702 0.85449201 4278190080
-0.143555 0.096679702 0.85504502 4278190080
-0.107885 0.114258 0.81347698 4278190080
-0.108398 0.114258 0.81445801 4278190080
-0.102539 0.119296 0.81347698 4278190080
-0.096679702 0.119544 0.81347698 4278190080
-0.090820298 0.119323 0.81347698 4278190080
-0.140341 0.102539 0.836914 4278190080
-0.137695 0.107085 0.836914 4278190080
-0.14543 0.108398 0.866211 4278190080
-0.112719 0.114258 0.819336 4278190080
-0.108398 0.119124 0.819336 4278190080
-0.102539 0.119288 0.819336 4278190080
-0.096679702 0.118288 0.819336 4278190080
-0.141914 0.102539 0.84277302 4278190080
-0.141958 0.102539 0.84863299 4278190080
-0.112304 0.114258 0.82519501 4278190080
-0.114258 0.114258 0.82889098 4278190080
-0.108398 0.11748 0.82519501 4278190080
-0.102539 0.118653 0.82519501 4278190080
-0.096679702 0.118992 0.82519501 4278190080
-0.141689 0.102539 0.85449201 4278190080
-0.143555 0.102539 0.85932702 4278190080
-0.131836 0.114258 0.83419102 4278190080
-0.12597699 0.114258 0.832223 4278190080
-0.118886 0.114258 0.83105499 4278190080
-0.120117 0.114258 0.83159202 4278190080
-0.114258 0.116693 0.83105499 4278190080
-0.096679702 0.118144 0.83105499 4278190080
-0.13291 0.114258 0.836914 4278190080
-0.131836 0.119285 0.836914 4278190080
-0.114258 0.116139 0.836914 4278190080
-0.108398 0.119458 0.836914 4278190080
-0.145091 0.102539 0.866211 4278190080
-0.137411 0.114258 0.84277302 4278190080
-0.137695 0.114258 0.843023 4278190080
-0.15527301 0.117425 0.84863299 4278190080
-0.149414 0.120102 0.84863299 4278190080
-0.139277 0.114258 0.84863299 4278190080
-0.15527301 0.118472 0.85449201 4278190080
-0.140587 0.114258 0.85449201 4278190080
-0.143555 0.114258 0.859393 4278190080
-0.143555 0.11537 0.86035198 4278190080
-0.143555 0.117913 0.866211 4278190080
-0.143555 0.114258 0.86878598 4278190080
-0.141554 0.114258 0.87207001 4278190080
-0.0615234 0.120117 0.78245598 4278190080
-0.0556641 0.120117 0.78171998 4278190080
-0.049804699 0.120117 0.78144801 4278190080
-0.043945301 0.120117 0.781919 4278190080
-0.0380859 0.120117 0.784118 4278190080
-0.020507799 0.120117 0.78279001 4278190080
-0.073242202 0.120117 0.787817 4278190080
-0.065947399 0.120117 0.78417999 4278190080
-0.067382798 0.120117 0.78472799 4278190080
-0.0615234 0.124194 0.78417999 4278190080
-0.043945301 0.123385 0.78417999 4278190080
-0.037937999 0.120117 0.78417999 4278190080
-0.0380859 0.120237 0.78417999 4278190080
-0.0322266 0.125395 0.78417999 4278190080
-0.0322266 0.120117 0.78663701 4278190080
-0.0222112 0.120117 0.78417999 4278190080
-0.026367201 0.12503099 0.78417999 4278190080
-0.026367201 0.120117 0.78762901 4278190080
-0.076164097 0.120117 0.790039 4278190080
-0.0791016 0.120117 0.791924 4278190080
-0.073242202 0.123811 0.790039 4278190080
-0.0813087 0.120117 0.79589802 4278190080
-0.0849609 0.120117 0.79939902 4278190080
-0.0791016 0.124021 0.79589802 4278190080
-0.087086797 0.120117 0.80175799 4278190080
-0.090820298 0.120117 0.80606002 4278190080
-0.0849609 0.122461 0.80175799 4278190080
-0.0556641 0.12597699 0.78360498 4278190080
-0.049804699 0.12597699 0.783176 4278190080
-0.0322266 0.12597699 0.78377497 4278190080
-0.026367201 0.12597699 0.78352398 4278190080
-0.0322266 0.131836 0.78334701 4278190080
-0.092961401 0.120117 0.80761701 4278190080
-0.090820298 0.122198 0.80761701 4278190080
-0.090820298 0.120117 0.81146997 4278190080
-0.0849609 0.125412 0.80761701 4278190080
-0.067382798 0.12597699 0.78712398 4278190080
-0.058223002 0.12597699 0.78417999 4278190080
-0.0615234 0.12597699 0.78492498 4278190080
-0.0556641 0.127234 0.78417999 4278190080
-0.047492001 0.12597699 0.78417999 4278190080
-0.049804699 0.127755 0.78417999 4278190080
-0.043945301 0.12597699 0.78605801 4278190080
-0.032705899 0.12597699 0.78417999 4278190080
-0.0380859 0.12597699 0.78698897 4278190080
-0.026367201 0.128334 0.78417999 4278190080
-0.049804699 0.143555 0.79226702 4278190080
-0.043945301 0.143555 0.791749 4278190080
-0.067382798 0.131836 0.789949 4278190080
-0.0615234 0.131836 0.78785801 4278190080
-0.0556641 0.131836 0.78620797 4278190080
-0.049804699 0.131836 0.78665698 4278190080
-0.043945301 0.131836 0.78864402 4278190080
-0.032992501 0.131836 0.78417999 4278190080
-0.0380859 0.131836 0.78896999 4278190080
-0.0297531 0.131836 0.78417999 4278190080
-0.026367201 0.131836 0.78531998 4278190080
-0.089931399 0.120117 0.81347698 4278190080
-0.090820298 0.120117 0.81451899 4278190080
-0.0849609 0.123778 0.81347698 4278190080
-0.071408898 0.12597699 0.790039 4278190080
-0.073242202 0.12597699 0.79112798 4278190080
-0.073242202 0.143555 0.79994398 4278190080
-0.067382798 0.143555 0.79609001 4278190080
-0.0615234 0.143555 0.796229 4278190080
-0.053781699 0.143555 0.79589802 4278190080
-0.0556641 0.143555 0.79776698 4278190080
-0.067465201 0.131836 0.790039 4278190080
-0.073242202 0.131836 0.79547799 4278190080
-0.067382798 0.13197599 0.790039 4278190080
-0.0615234 0.136776 0.790039 4278190080
-0.0556641 0.136565 0.790039 4278190080
-0.093064301 0.120117 0.819336 4278190080
-0.090820298 0.122857 0.819336 4278190080
-0.077388003 0.12597699 0.79589802 4278190080
-0.0791016 0.12597699 0.79767799 4278190080
-0.074798502 0.143555 0.80175799 4278190080
-0.0791016 0.143555 0.804721 4278190080
-0.067382798 0.14699 0.80175799 4278190080
-0.0615234 0.147503 0.80175799 4278190080
-0.073592797 0.131836 0.79589802 4278190080
-0.073242202 0.132709 0.79589802 4278190080
-0.0956093 0.120117 0.82519501 4278190080
-0.090820298 0.124193 0.82519501 4278190080
-0.081487201 0.12597699 0.80175799 4278190080
-0.0791016 0.130393 0.80175799 4278190080
-0.049804699 0.137695 0.79002899 4278190080
-0.043945301 0.137695 0.78632301 4278190080
-0.0380859 0.137695 0.78744102 4278190080
-0.026367201 0.137695 0.78522599 4278190080
-0.090820298 0.143555 0.81208998 4278190080
-0.084288597 0.143555 0.80761701 4278190080
-0.0849609 0.143555 0.80830503 4278190080
-0.0791016 0.146202 0.80761701 4278190080
-0.077921301 0.131836 0.80175799 4278190080
-0.0791016 0.134615 0.80175799 4278190080
-0.0791016 0.131836 0.80308503 4278190080
-0.12597699 0.120117 0.835621 4278190080
-0.120117 0.120117 0.83491099 4278190080
-0.094879903 0.120117 0.83105499 4278190080
-0.096679702 0.120117 0.83279699 4278190080
-0.0843952 0.12597699 0.80761701 4278190080
-0.067382798 0.137695 0.793369 4278190080
-0.0615234 0.137695 0.79046702 4278190080
-0.0498759 0.137695 0.790039 4278190080
-0.0556641 0.137695 0.79077297 4278190080
-0.049804699 0.137722 0.790039 4278190080
-0.043945301 0.140554 0.790039 4278190080
-0.090820298 0.136516 0.80761701 4278190080
-0.082671002 0.131836 0.80761701 4278190080
-0.0918312 0.143555 0.81347698 4278190080
-0.096679702 0.143555 0.81738102 4278190080
-0.090820298 0.144333 0.81347698 4278190080
-0.0849609 0.147617 0.81347698 4278190080
-0.0849609 0.143555 0.81647903 4278190080
-0.143555 0.12574001 0.836914 4278190080
-0.130404 0.120117 0.836914 4278190080
-0.131836 0.120117 0.83736598 4278190080
-0.114557 0.120117 0.836914 4278190080
-0.114258 0.120444 0.836914 4278190080
-0.114258 0.120117 0.83703101 4278190080
-0.108398 0.12584101 0.836914 4278190080
-0.108398 0.120117 0.84070098 4278190080
-0.082679503 0.12597699 0.81347698 4278190080
-0.0849609 0.12597699 0.81672502 4278190080
-0.0791016 0.137695 0.79958099 4278190080
-0.070315599 0.137695 0.79589802 4278190080
-0.073242202 0.137695 0.798621 4278190080
-0.067382798 0.143186 0.79589802 4278190080
-0.0615234 0.143133 0.79589802 4278190080
-0.0556641 0.142216 0.79589802 4278190080
-0.096679702 0.133818 0.81347698 4278190080
-0.090820298 0.13284101 0.81347698 4278190080
-0.083238497 0.131836 0.81347698 4278190080
-0.0849609 0.13551 0.81347698 4278190080
-0.098141097 0.143555 0.819336 4278190080
-0.096679702 0.14512999 0.819336 4278190080
-0.096679702 0.143555 0.821343 4278190080
-0.087956399 0.143555 0.819336 4278190080
-0.090820298 0.147488 0.819336 4278190080
-0.090820298 0.143555 0.82178098 4278190080
-0.082302198 0.143555 0.819336 4278190080
-0.086947203 0.12597699 0.819336 4278190080
-0.0849609 0.128869 0.819336 4278190080
-0.15527301 0.120117 0.84337801 4278190080
-0.149414 0.120117 0.84852999 4278190080
-0.143555 0.123932 0.84277302 4278190080
-0.13488001 0.120117 0.84277302 4278190080
-0.137695 0.120117 0.84623498 4278190080
-0.049804699 0.149414 0.795748 4278190080
-0.108398 0.131836 0.824673 4278190080
-0.102539 0.132071 0.819336 4278190080
-0.096679702 0.133738 0.819336 4278190080
-0.082764097 0.131836 0.819336 4278190080
-0.0849609 0.131836 0.82333899 4278190080
-0.090820298 0.137695 0.802571 4278190080
-0.0808108 0.137695 0.80175799 4278190080
-0.0791016 0.13951901 0.80175799 4278190080
-0.082014702 0.143555 0.82519501 4278190080
-0.0849609 0.143555 0.83088797 4278190080
-0.108398 0.12797999 0.82519501 4278190080
-0.0890508 0.12597699 0.82519501 4278190080
-0.090820298 0.12597699 0.83084202 4278190080
-0.156332 0.120117 0.84863299 4278190080
-0.15527301 0.123315 0.84863299 4278190080
-0.149396 0.120117 0.84863299 4278190080
-0.149414 0.120117 0.848665 4278190080
-0.138881 0.120117 0.84863299 4278190080
-0.143555 0.124312 0.84863299 4278190080
-0.137695 0.122711 0.84863299 4278190080
-0.073242202 0.149414 0.80098802 4278190080
-0.050099801 0.149414 0.79589802 4278190080
-0.0556641 0.149414 0.79838002 4278190080
-0.049804699 0.149535 0.79589802 4278190080
-0.108698 0.131836 0.82519501 4278190080
-0.107131 0.131836 0.82519501 4278190080
-0.108398 0.132387 0.82519501 4278190080
-0.108398 0.131836 0.82673001 4278190080
-0.102539 0.13346501 0.82519501 4278190080
-0.096679702 0.136695 0.82519501 4278190080
-0.086587101 0.131836 0.82519501 4278190080
-0.0849609 0.133581 0.82519501 4278190080
-0.092662603 0.137695 0.80761701 4278190080
-0.096679702 0.137695 0.81022 4278190080
-0.087914497 0.137695 0.80761701 4278190080
-0.090820298 0.139357 0.80761701 4278190080
-0.083699502 0.137695 0.80761701 4278190080
-0.0849609 0.137695 0.81069499 4278190080
-0.085183501 0.143555 0.83105499 4278190080
-0.090820298 0.143555 0.83471698 4278190080
-0.0849609 0.143665 0.83105499 4278190080
-0.143555 0.12597699 0.83666402 4278190080
-0.12597699 0.12597699 0.83288199 4278190080
-0.120117 0.12597699 0.83346301 4278190080
-0.114258 0.12597699 0.835159 4278190080
-0.108398 0.12597699 0.83682698 4278190080
-0.091097802 0.12597699 0.83105499 4278190080
-0.096679702 0.12597699 0.83665198 4278190080
-0.090820298 0.12844101 0.83105499 4278190080
-0.12597699 0.131836 0.83433503 4278190080
-0.120117 0.131836 0.83440399 4278190080
-0.114258 0.131836 0.83353603 4278190080
-0.108398 0.131836 0.83404702 4278190080
-0.102539 0.131836 0.83424598 4278190080
-0.096679702 0.131836 0.83539402 4278190080
-0.090653203 0.131836 0.83105499 4278190080
-0.090820298 0.131836 0.83154899 4278190080
-0.15707199 0.120117 0.85449201 4278190080
-0.153761 0.120117 0.85449201 4278190080
-0.149414 0.123037 0.85449201 4278190080
-0.140615 0.120117 0.85449201 4278190080
-0.143555 0.124165 0.85449201 4278190080
-0.073785998 0.149414 0.80175799 4278190080
-0.072256602 0.149414 0.80175799 4278190080
-0.073242202 0.150186 0.80175799 4278190080
-0.067382798 0.149414 0.80462801 4278190080
-0.058474701 0.149414 0.80175799 4278190080
-0.0615234 0.149414 0.804133 4278190080
-0.049804699 0.154964 0.80175799 4278190080
-0.098369204 0.137695 0.81347698 4278190080
-0.102539 0.137695 0.81713402 4278190080
-0.096679702 0.14016099 0.81347698 4278190080
-0.090820298 0.137695 0.81677902 4278190080
-0.0849609 0.137695 0.81427401 4278190080
-0.102539 0.143555 0.84132701 4278190080
-0.096058801 0.143555 0.836914 4278190080
-0.096679702 0.143555 0.83937502 4278190080
-0.090820298 0.144475 0.836914 4278190080
-0.0849609 0.147329 0.836914 4278190080
-0.13105699 0.131836 0.836914 4278190080
-0.131836 0.131836 0.83979303 4278190080
-0.12597699 0.133873 0.836914 4278190080
-0.120117 0.13319799 0.836914 4278190080
-0.114258 0.133304 0.836914 4278190080
-0.108398 0.13443699 0.836914 4278190080
-0.14366101 0.12597699 0.836914 4278190080
-0.143392 0.12597699 0.836914 4278190080
-0.143555 0.126139 0.836914 4278190080
-0.129483 0.12597699 0.836914 4278190080
-0.131836 0.12597699 0.83913797 4278190080
-0.107845 0.12597699 0.836914 4278190080
-0.098417297 0.12597699 0.836914 4278190080
-0.102539 0.127868 0.836914 4278190080
-0.102539 0.12597699 0.83779001 4278190080
-0.141229 0.120117 0.86035198 4278190080
-0.143555 0.12508801 0.86035198 4278190080
-0.104438 0.137695 0.819336 4278190080
-0.102539 0.140141 0.819336 4278190080
-0.092775799 0.137695 0.819336 4278190080
-0.090820298 0.140807 0.819336 4278190080
-0.081604697 0.137695 0.819336 4278190080
-0.076260798 0.149414 0.80761701 4278190080
-0.0791016 0.149414 0.81296498 4278190080
-0.073242202 0.152694 0.80761701 4278190080
-0.067382798 0.153488 0.80761701 4278190080
-0.0615234 0.153752 0.80761701 4278190080
-0.104512 0.143555 0.84277302 4278190080
-0.102539 0.14492001 0.84277302 4278190080
-0.096679702 0.14382 0.84277302 4278190080
-0.090820298 0.14629 0.84277302 4278190080
-0.143555 0.131836 0.84378999 4278190080
-0.13311701 0.131836 0.84277302 4278190080
-0.137695 0.131836 0.84470397 4278190080
-0.131836 0.13254499 0.84277302 4278190080
-0.12597699 0.135939 0.84277302 4278190080
-0.120117 0.135447 0.84277302 4278190080
-0.114258 0.137284 0.84277302 4278190080
-0.141837 0.120117 0.866211 4278190080
-0.14910799 0.12597699 0.84277302 4278190080
-0.149414 0.12597699 0.84337997 4278190080
-0.141087 0.12597699 0.84277302 4278190080
-0.143555 0.131056 0.84277302 4278190080
-0.13418899 0.12597699 0.84277302 4278190080
-0.105436 0.137695 0.82519501 4278190080
-0.102539 0.141578 0.82519501 4278190080
-0.102539 0.137695 0.82903302 4278190080
-0.095819697 0.137695 0.82519501 4278190080
-0.096679702 0.138487 0.82519501 4278190080
-0.096679702 0.137695 0.826873 4278190080
-0.083217598 0.137695 0.82519501 4278190080
-0.0849609 0.137695 0.82997298 4278190080
-0.0803435 0.149414 0.81347698 4278190080
-0.0791016 0.15048601 0.81347698 4278190080
-0.114258 0.143555 0.85044801 4278190080
-0.107423 0.143555 0.84863299 4278190080
-0.108398 0.143555 0.849702 4278190080
-0.102539 0.14649799 0.84863299 4278190080
-0.096679702 0.14662801 0.84863299 4278190080
-0.090820298 0.147779 0.84863299 4278190080
-0.14890701 0.131836 0.84863299 4278190080
-0.149414 0.131836 0.84968102 4278190080
-0.143555 0.13395201 0.84863299 4278190080
-0.137695 0.135197 0.84863299 4278190080
-0.131836 0.135015 0.84863299 4278190080
-0.120117 0.137096 0.84863299 4278190080
-0.141434 0.120117 0.87207001 4278190080
-0.152934 0.12597699 0.84863299 4278190080
-0.15527301 0.12597699 0.852952 4278190080
-0.149414 0.131091 0.84863299 4278190080
-0.14030901 0.12597699 0.84863299 4278190080
-0.136035 0.12597699 0.84863299 4278190080
-0.137695 0.12838601 0.84863299 4278190080
-0.137695 0.12597699 0.85094798 4278190080
-0.102539 0.137695 0.83373803 4278190080
-0.096679702 0.137695 0.83396602 4278190080
-0.087129802 0.137695 0.83105499 4278190080
-0.090820298 0.137695 0.83356601 4278190080
-0.117933 0.143555 0.85449201 4278190080
-0.114258 0.143555 0.85887301 4278190080
-0.108398 0.147912 0.85449201 4278190080
-0.102539 0.147833 0.85449201 4278190080
-0.096679702 0.147763 0.85449201 4278190080
-0.150986 0.131836 0.85449201 4278190080
-0.149414 0.131836 0.85537797 4278190080
-0.143555 0.137412 0.85449201 4278190080
-0.081740104 0.149414 0.819336 4278190080
-0.113691 0.143555 0.86035198 4278190080
-0.108398 0.146751 0.86035198 4278190080
-0.102539 0.14678399 0.86035198 4278190080
-0.144659 0.131836 0.86035198 4278190080
-0.143555 0.13311601 0.86035198 4278190080
-0.137695 0.131836 0.862903 4278190080
-0.106257 0.137695 0.836914 4278190080
-0.108398 0.137695 0.838503 4278190080
-0.102539 0.139305 0.836914 4278190080
-0.096679702 0.142517 0.836914 4278190080
-0.15592299 0.12597699 0.85449201 4278190080
-0.15527301 0.126651 0.85449201 4278190080
-0.149414 0.12597699 0.858621 4278190080
-0.080981001 0.149414 0.82519501 4278190080
-0.0791016 0.15185601 0.82519501 4278190080
-0.113467 0.143555 0.866211 4278190080
-0.114258 0.143555 0.86705703 4278190080
-0.108398 0.146191 0.866211 4278190080
-0.102539 0.147052 0.866211 4278190080
-0.13538399 0.131836 0.866211 4278190080
-0.131836 0.13598099 0.866211 4278190080
-0.12597699 0.137362 0.866211 4278190080
-0.12597699 0.137695 0.84846699 4278190080
-0.113785 0.137695 0.84277302 4278190080
-0.114258 0.137695 0.84325999 4278190080
-0.108398 0.14048401 0.84277302 4278190080
-0.14592101 0.12597699 0.86035198 4278190080
-0.143555 0.12597699 0.86084098 4278190080
-0.082062699 0.149414 0.83105499 4278190080
-0.117126 0.143555 0.87207001 4278190080
-0.114258 0.14613301 0.87207001 4278190080
-0.108398 0.14732701 0.87207001 4278190080
-0.137558 0.131836 0.87207001 4278190080
-0.131836 0.137679 0.87207001 4278190080
-0.149414 0.137695 0.85400802 4278190080
-0.137695 0.137695 0.85240602 4278190080
-0.126228 0.137695 0.84863299 4278190080
-0.131836 0.137695 0.85081297 4278190080
-0.125558 0.137695 0.84863299 4278190080
-0.12597699 0.137795 0.84863299 4278190080
-0.119019 0.137695 0.84863299 4278190080
-0.120117 0.137695 0.84947401 4278190080
-0.114258 0.14214399 0.84863299 4278190080
-0.108398 0.14266101 0.84863299 4278190080
-0.13955399 0.12597699 0.866211 4278190080
-0.137695 0.12831999 0.866211 4278190080
-0.083610199 0.149414 0.836914 4278190080
-0.0849609 0.149414 0.83857 4278190080
-0.114258 0.14681201 0.87792999 4278190080
-0.108398 0.146795 0.87792999 4278190080
-0.102539 0.14921001 0.87792999 4278190080
-0.137695 0.131613 0.87207001 4278190080
-0.149546 0.137695 0.85449201 4278190080
-0.145935 0.137695 0.85449201 4278190080
-0.149414 0.137815 0.85449201 4278190080
-0.149414 0.137695 0.85472 4278190080
-0.142801 0.137695 0.85449201 4278190080
-0.137695 0.13927799 0.85449201 4278190080
-0.131836 0.14071 0.85449201 4278190080
-0.12597699 0.141524 0.85449201 4278190080
-0.120117 0.142186 0.85449201 4278190080
-0.0884284 0.149414 0.84277302 4278190080
-0.0849609 0.151647 0.84277302 4278190080
-0.13948201 0.137695 0.86035198 4278190080
-0.137695 0.139388 0.86035198 4278190080
