# .PCD v0.7 - Point Cloud Data file format
VERSION 0.7
FIELDS x y z rgb
SIZE 4 4 4 4
TYPE F F F U
COUNT 1 1 1 1
WIDTH 1073
HEIGHT 1
VIEWPOINT 0 0 0 1 0 0 0
POINTS 1073
DATA ascii
-0.049804699 -0.15527301 0.54801297 4278190080
-0.049804699 -0.131836 0.54386598 4278190080
-0.043920498 -0.131836 0.538086 4278190080
-0.043945301 -0.131836 0.53810602 4278190080
0.052664399 -0.137695 0.538086 4278190080
0.0556641 -0.137695 0.54040599 4278190080
0.102539 -0.137695 0.54291499 4278190080
0.108398 -0.137695 0.53981298 4278190080
0.114258 -0.137695 0.53845602 4278190080
0.120117 -0.137695 0.53864402 4278190080
0.12597699 -0.137695 0.53882802 4278190080
0.051493201 -0.143555 0.538086 4278190080
0.0556641 -0.143555 0.541264 4278190080
0.096679702 -0.143555 0.54350501 4278190080
0.102539 -0.143555 0.54072702 4278190080
0.111366 -0.143555 0.538086 4278190080
0.108398 -0.143555 0.53846002 4278190080
0.117862 -0.143555 0.538086 4278190080
0.114258 -0.140733 0.538086 4278190080
0.120117 -0.143555 0.538284 4278190080
0.12597699 -0.143555 0.53957701 4278190080
-0.047878601 -0.149414 0.54394501 4278190080
-0.049804699 -0.149414 0.54581702 4278190080
0.057385702 -0.15527301 0.54394501 4278190080
0.0615234 -0.15527301 0.54646403 4278190080
0.067382798 -0.15527301 0.54788297 4278190080
0.073242202 -0.15527301 0.54720801 4278190080
0.083752997 -0.15527301 0.54394501 4278190080
0.0791016 -0.15527301 0.54552299 4278190080
0.0849609 -0.15432 0.54394501 4278190080
-0.049192101 -0.143555 0.54394501 4278190080
-0.049804699 -0.138193 0.54394501 4278190080
-0.049804699 -0.143555 0.54453498 4278190080
0.055895001 -0.16113301 0.54394501 4278190080
0.0615234 -0.16113301 0.54613799 4278190080
0.067382798 -0.16113301 0.54637802 4278190080
0.0776361 -0.16113301 0.54394501 4278190080
0.073242202 -0.16113301 0.54522997 4278190080
0.0791016 -0.159861 0.54394501 4278190080
0.058090899 -0.149414 0.54394501 4278190080
0.0615234 -0.149414 0.546619 4278190080
0.067382798 -0.149414 0.549371 4278190080
0.0791016 -0.149414 0.54826802 4278190080
0.09003 -0.149414 0.54394501 4278190080
0.0849609 -0.149414 0.54621297 4278190080
0.090820298 -0.14877599 0.54394501 4278190080
-0.0508692 -0.15527301 0.54980499 4278190080
-0.049846102 -0.137695 0.54394501 4278190080
-0.047082402 -0.16113301 0.54980499 4278190080
-0.049804699 -0.15706 0.54980499 4278190080
-0.049804699 -0.16113301 0.55256301 4278190080
0.059996601 -0.131836 0.54394501 4278190080
0.0615234 -0.131836 0.54535502 4278190080
0.067382798 -0.131836 0.54967201 4278190080
0.096679702 -0.131836 0.546269 4278190080
0.10514 -0.131836 0.54394501 4278190080
0.102539 -0.131836 0.54559898 4278190080
0.108398 -0.127461 0.54394501 4278190080
0.0594646 -0.137695 0.54394501 4278190080
0.0615234 -0.137695 0.54582602 4278190080
0.090820298 -0.137695 0.54866302 4278190080
0.100183 -0.137695 0.54394501 4278190080
0.096679702 -0.137695 0.54528999 4278190080
0.102539 -0.135639 0.54394501 4278190080
-0.0498689 -0.131836 0.54394501 4278190080
-0.049804699 -0.13031401 0.54394501 4278190080
0.058718201 -0.143555 0.54394501 4278190080
0.0615234 -0.143555 0.54635698 4278190080
0.0959078 -0.143555 0.54394501 4278190080
0.090820298 -0.143555 0.54680997 4278190080
0.096679702 -0.142194 0.54394501 4278190080
0.073242202 -0.149565 0.54980499 4278190080
-0.0526409 -0.149414 0.54980499 4278190080
-0.0556641 -0.149414 0.55417001 4278190080
-0.053691901 -0.143555 0.54980499 4278190080
-0.0556641 -0.143555 0.55223101 4278190080
-0.054820102 -0.15527301 0.555664 4278190080
-0.0556641 -0.152447 0.555664 4278190080
-0.0556641 -0.15527301 0.55678397 4278190080
0.072509602 -0.149414 0.54980499 4278190080
0.067382798 -0.147559 0.54980499 4278190080
0.073508099 -0.149414 0.54980499 4278190080
0.073242202 -0.149414 0.54987198 4278190080
0.0791016 -0.147063 0.54980499 4278190080
0.0849609 -0.143777 0.54980499 4278190080
-0.054528099 -0.137695 0.54980499 4278190080
-0.0556641 -0.137695 0.55111402 4278190080
-0.051922701 -0.16113301 0.555664 4278190080
-0.0556641 -0.16113301 0.56119001 4278190080
0.067608997 -0.131836 0.54980499 4278190080
0.073242202 -0.131836 0.553065 4278190080
0.094093703 -0.131836 0.54980499 4278190080
0.065568097 -0.137695 0.54980499 4278190080
0.067382798 -0.13230599 0.54980499 4278190080
0.067382798 -0.137695 0.55162901 4278190080
0.073242202 -0.137695 0.55539 4278190080
0.0791016 -0.137695 0.55422699 4278190080
0.088862099 -0.137695 0.54980499 4278190080
0.0849609 -0.137695 0.55211598 4278190080
0.090820298 -0.136585 0.54980499 4278190080
-0.054680198 -0.131836 0.54980499 4278190080
-0.0556641 -0.131836 0.550964 4278190080
0.066311203 -0.143555 0.54980499 4278190080
0.067382798 -0.143555 0.55067599 4278190080
0.073242202 -0.143555 0.552836 4278190080
0.0791016 -0.143555 0.55205601 4278190080
0.085222498 -0.143555 0.54980499 4278190080
0.0849609 -0.143555 0.54994202 4278190080
-0.056085199 -0.149414 0.555664 4278190080
-0.056809202 -0.143555 0.555664 4278190080
-0.057358898 -0.15527301 0.56152302 4278190080
-0.057359699 -0.137695 0.555664 4278190080
-0.055806998 -0.16113301 0.56152302 4278190080
-0.0575554 -0.131836 0.555664 4278190080
-0.057959601 -0.149414 0.56152302 4278190080
-0.059290402 -0.15527301 0.56738299 4278190080
-0.058832001 -0.143555 0.56152302 4278190080
-0.058107901 -0.16113301 0.56738299 4278190080
-0.059684299 -0.137695 0.56152302 4278190080
-0.0615234 -0.137695 0.56494302 4278190080
-0.060243599 -0.149414 0.56738299 4278190080
-0.0615234 -0.149414 0.57021499 4278190080
-0.060324799 -0.131836 0.56152302 4278190080
-0.0615234 -0.12949499 0.56152302 4278190080
-0.0615234 -0.131836 0.56321001 4278190080
-0.061289199 -0.143555 0.56738299 4278190080
-0.0615234 -0.142593 0.56738299 4278190080
-0.0615234 -0.143555 0.567837 4278190080
-0.061369799 -0.15527301 0.57324201 4278190080
-0.0615234 -0.154653 0.57324201 4278190080
-0.0615234 -0.15527301 0.57357597 4278190080
-0.060242798 -0.16113301 0.57324201 4278190080
-0.0615234 -0.16113301 0.57686901 4278190080
-0.062335402 -0.137695 0.56738299 4278190080
-0.063193902 -0.149414 0.57324201 4278190080
-0.0628208 -0.131836 0.56738299 4278190080
-0.063693799 -0.143555 0.57324201 4278190080
-0.065343097 -0.15527301 0.57910198 4278190080
-0.067382798 -0.15527301 0.58442998 4278190080
-0.063530996 -0.16113301 0.57910198 4278190080
-0.064031102 -0.137695 0.57324201 4278190080
-0.065234996 -0.149414 0.57910198 4278190080
-0.064281702 -0.131836 0.57324201 4278190080
-0.065183498 -0.143555 0.57910198 4278190080
-0.068162598 -0.15527301 0.584961 4278190080
-0.073242202 -0.15527301 0.58855897 4278190080
-0.067382798 -0.153927 0.584961 4278190080
-0.073242202 -0.16113301 0.58862197 4278190080
-0.067269802 -0.16113301 0.584961 4278190080
-0.067382798 -0.159328 0.584961 4278190080
-0.067382798 -0.16113301 0.58513302 4278190080
-0.065299504 -0.137695 0.57910198 4278190080
-0.066947497 -0.149414 0.584961 4278190080
-0.067382798 -0.149414 0.58679801 4278190080
-0.065627798 -0.131836 0.57910198 4278190080
-0.067382798 -0.127514 0.57910198 4278190080
-0.067382798 -0.131836 0.58178002 4278190080
-0.066690698 -0.143555 0.584961 4278190080
-0.067382798 -0.143555 0.58694297 4278190080
-0.0750577 -0.15527301 0.59082001 4278190080
-0.0791016 -0.15527301 0.59535098 4278190080
-0.073242202 -0.14979701 0.59082001 4278190080
-0.067256801 -0.137695 0.584961 4278190080
-0.067382798 -0.13739599 0.584961 4278190080
-0.067382798 -0.137695 0.58555198 4278190080
-0.073876098 -0.16113301 0.59082001 4278190080
-0.0791016 -0.149414 0.59220898 4278190080
-0.073022097 -0.149414 0.59082001 4278190080
-0.073242202 -0.149414 0.590967 4278190080
-0.0703777 -0.131836 0.584961 4278190080
-0.0722991 -0.143555 0.59082001 4278190080
-0.073242202 -0.143555 0.59269899 4278190080
-0.070912696 -0.137695 0.59082001 4278190080
-0.073242202 -0.137695 0.59524602 4278190080
-0.079673298 -0.15527301 0.59667999 4278190080
-0.0768428 -0.16113301 0.59667999 4278190080
-0.0791016 -0.15638401 0.59667999 4278190080
-0.0791016 -0.16113301 0.599186 4278190080
-0.079801202 -0.149414 0.59667999 4278190080
-0.0791016 -0.145624 0.59667999 4278190080
-0.071986698 -0.131836 0.59082001 4278190080
-0.0765156 -0.143555 0.59667999 4278190080
-0.0791016 -0.143555 0.59818798 4278190080
-0.073567897 -0.137695 0.59667999 4278190080
-0.073242202 -0.136655 0.59667999 4278190080
-0.082200199 -0.15527301 0.602539 4278190080
-0.0849609 -0.15527301 0.60607302 4278190080
-0.080166496 -0.16113301 0.602539 4278190080
-0.080385998 -0.149414 0.602539 4278190080
-0.072393499 -0.131836 0.59667999 4278190080
-0.073242202 -0.131836 0.602292 4278190080
-0.0791016 -0.14214601 0.602539 4278190080
-0.0745444 -0.137695 0.602539 4278190080
-0.081522197 -0.16113301 0.60839802 4278190080
-0.0849609 -0.156211 0.60839802 4278190080
-0.0849609 -0.154539 0.60839802 4278190080
-0.073242202 -0.131836 0.60263598 4278190080
-0.080988601 -0.149414 0.60839802 4278190080
-0.0791016 -0.14066 0.60839802 4278190080
-0.0849609 -0.154907 0.61425799 4278190080
-0.075799704 -0.137695 0.60839802 4278190080
-0.073242202 -0.13539501 0.60839802 4278190080
-0.084860697 -0.16113301 0.61425799 4278190080
-0.0849609 -0.160134 0.61425799 4278190080
-0.0849609 -0.16113301 0.61437899 4278190080
-0.069650799 -0.131836 0.60839802 4278190080
-0.081587099 -0.149414 0.61425799 4278190080
-0.0791016 -0.138511 0.61425799 4278190080
-0.0849609 -0.15460999 0.62011701 4278190080
-0.078317001 -0.137695 0.61425799 4278190080
-0.0791016 -0.137695 0.61875498 4278190080
-0.082097299 -0.149414 0.62011701 4278190080
-0.0849609 -0.15318599 0.62597698 4278190080
-0.0791016 -0.137695 0.62059599 4278190080
-0.081665397 -0.143555 0.62597698 4278190080
-0.0791016 -0.139284 0.62597698 4278190080
-0.0824643 -0.149414 0.62597698 4278190080
-0.0849609 -0.15363599 0.631836 4278190080
-0.0791016 -0.15527301 0.63769102 4278190080
-0.0791016 -0.14055 0.631836 4278190080
-0.077535696 -0.137695 0.62597698 4278190080
-0.073242202 -0.13300499 0.62597698 4278190080
-0.082369 -0.149414 0.631836 4278190080
-0.076765902 -0.137695 0.631836 4278190080
-0.0029296901 -0.12597699 0.520289 4278190080
-0.0029296901 -0.120117 0.52033299 4278190080
0.0029296901 -0.108398 0.52048898 4278190080
0.0087890597 -0.108398 0.52044499 4278190080
0.0029296901 -0.120117 0.51996702 4278190080
0.0087890597 -0.120117 0.51997602 4278190080
-0.0146484 -0.108398 0.52457201 4278190080
-0.0087890597 -0.108398 0.52279103 4278190080
0.00278461 -0.108398 0.52050799 4278190080
-0.0029296901 -0.108398 0.52125102 4278190080
0.0029296901 -0.12597699 0.51987398 4278190080
0.0087890597 -0.12597699 0.51982099 4278190080
-0.020507799 -0.114258 0.52564299 4278190080
-0.0146484 -0.114258 0.52351397 4278190080
-0.0087890597 -0.114258 0.5219 4278190080
-0.00042855699 -0.114258 0.52050799 4278190080
-0.0029296901 -0.114258 0.52074802 4278190080
0.0029296901 -0.114258 0.52019 4278190080
0.0087890597 -0.114258 0.52016598 4278190080
-0.0146484 -0.102539 0.52491498 4278190080
-0.0087890597 -0.102539 0.52319801 4278190080
-0.0029296901 -0.102539 0.52163899 4278190080
-0.0146484 -0.096679702 0.52530801 4278190080
-0.0087890597 -0.096679702 0.52365601 4278190080
-0.0029296901 -0.096679702 0.52223498 4278190080
0.0029296901 -0.096679702 0.52128601 4278190080
0.0087890597 -0.096679702 0.52119398 4278190080
0.0146484 -0.096679702 0.52159798 4278190080
0.020507799 -0.096679702 0.522421 4278190080
0.026367201 -0.096679702 0.52379799 4278190080
0.0322266 -0.096679702 0.52555799 4278190080
-0.020507799 -0.12597699 0.523987 4278190080
-0.0146484 -0.12597699 0.52241802 4278190080
-0.0046186401 -0.12597699 0.52050799 4278190080
-0.0087890597 -0.12597699 0.52105403 4278190080
-0.020507799 -0.120117 0.52434599 4278190080
-0.0146484 -0.120117 0.52265102 4278190080
-0.0039555999 -0.120117 0.52050799 4278190080
-0.0087890597 -0.120117 0.52135199 4278190080
-0.0029296901 -0.117612 0.52050799 4278190080
0.0029296901 -0.102539 0.52081198 4278190080
0.0087890597 -0.102539 0.52073699 4278190080
0.0146484 -0.102539 0.52126002 4278190080
0.020507799 -0.102539 0.52212799 4278190080
0.026367201 -0.102539 0.52342498 4278190080
0.0322266 -0.102539 0.525289 4278190080
0.0143522 -0.120117 0.52050799 4278190080
0.0146484 -0.120117 0.52053601 4278190080
0.020507799 -0.120117 0.521492 4278190080
0.026367201 -0.120117 0.52294803 4278190080
0.0322266 -0.120117 0.52491599 4278190080
0.0029296901 -0.108056 0.52050799 4278190080
0.0095772697 -0.108398 0.52050799 4278190080
0.0087890597 -0.107121 0.52050799 4278190080
0.0146484 -0.108398 0.52091902 4278190080
0.020507799 -0.108398 0.52189702 4278190080
0.026367201 -0.108398 0.523085 4278190080
0.0322266 -0.108398 0.52501798 4278190080
-0.026367201 -0.102539 0.529544 4278190080
-0.018924 -0.102539 0.52636701 4278190080
-0.020507799 -0.102539 0.52691102 4278190080
-0.0322266 -0.108398 0.53163397 4278190080
-0.026367201 -0.108398 0.528979 4278190080
-0.0201237 -0.108398 0.52636701 4278190080
-0.020507799 -0.108398 0.526492 4278190080
0.0140324 -0.12597699 0.52050799 4278190080
0.0146484 -0.12597699 0.52058798 4278190080
0.020507799 -0.12597699 0.52149999 4278190080
0.026367201 -0.12597699 0.522919 4278190080
0.0322266 -0.12597699 0.52508402 4278190080
-0.026367201 -0.096679702 0.52988899 4278190080
-0.017459599 -0.096679702 0.52636701 4278190080
-0.020507799 -0.096679702 0.52749503 4278190080
-0.0322266 -0.114258 0.53052598 4278190080
-0.0225395 -0.114258 0.52636701 4278190080
-0.026367201 -0.114258 0.52771199 4278190080
-0.020507799 -0.109289 0.52636701 4278190080
0.0122323 -0.114258 0.52050799 4278190080
0.0146484 -0.114258 0.52074897 4278190080
0.020507799 -0.114258 0.52172798 4278190080
0.026367201 -0.114258 0.52298599 4278190080
0.0322266 -0.114258 0.52494699 4278190080
0.0342509 -0.096679702 0.52636701 4278190080
0.0380859 -0.096679702 0.52787203 4278190080
0.043945301 -0.096679702 0.53059399 4278190080
-0.0322266 -0.120117 0.53018701 4278190080
-0.0254668 -0.120117 0.52636701 4278190080
-0.026367201 -0.120117 0.52672899 4278190080
0.034972399 -0.102539 0.52636701 4278190080
0.0380859 -0.102539 0.52762097 4278190080
0.043945301 -0.102539 0.530348 4278190080
-0.0322266 -0.12597699 0.52994198 4278190080
-0.025919599 -0.12597699 0.52636701 4278190080
-0.026367201 -0.12597699 0.526564 4278190080
0.035726398 -0.120117 0.52636701 4278190080
0.0380859 -0.120117 0.52734101 4278190080
0.043945301 -0.120117 0.53057802 4278190080
-0.0332116 -0.108398 0.53222698 4278190080
-0.0380859 -0.108398 0.53509301 4278190080
-0.0322266 -0.104527 0.53222698 4278190080
-0.0380859 -0.102539 0.53594899 4278190080
-0.031626601 -0.102539 0.53222698 4278190080
-0.0322266 -0.102539 0.532525 4278190080
0.035096001 -0.12597699 0.52636701 4278190080
0.0380859 -0.12597699 0.52767098 4278190080
0.043945301 -0.12597699 0.53077197 4278190080
0.035356201 -0.108398 0.52636701 4278190080
0.0380859 -0.108398 0.52756798 4278190080
0.043945301 -0.108398 0.53024298 4278190080
-0.0347104 -0.114258 0.53222698 4278190080
-0.0380859 -0.114258 0.534491 4278190080
-0.0380859 -0.096679702 0.53658497 4278190080
-0.030578 -0.096679702 0.53222698 4278190080
-0.0322266 -0.096679702 0.53314698 4278190080
0.035658699 -0.114258 0.52636701 4278190080
0.0380859 -0.114258 0.527354 4278190080
0.043945301 -0.114258 0.530316 4278190080
0.046750899 -0.096679702 0.53222698 4278190080
0.049804699 -0.096679702 0.53395498 4278190080
-0.035357598 -0.120117 0.53222698 4278190080
-0.0380859 -0.120117 0.53397501 4278190080
0.0470597 -0.102539 0.53222698 4278190080
0.049804699 -0.102539 0.53382802 4278190080
0.0556641 -0.102539 0.53785801 4278190080
-0.0358353 -0.12597699 0.53222698 4278190080
-0.0380859 -0.12597699 0.53364098 4278190080
0.046554901 -0.120117 0.53222698 4278190080
0.049804699 -0.120117 0.53424901 4278190080
-0.041542199 -0.108398 0.538086 4278190080
-0.043945301 -0.108398 0.54011798 4278190080
0.046171501 -0.12597699 0.53222698 4278190080
0.049804699 -0.12597699 0.53456002 4278190080
-0.042369399 -0.114258 0.538086 4278190080
-0.043945301 -0.114258 0.53936201 4278190080
-0.040633202 -0.102539 0.538086 4278190080
-0.043945301 -0.102539 0.54082501 4278190080
0.047053002 -0.108398 0.53222698 4278190080
0.049804699 -0.108398 0.53392798 4278190080
-0.039762601 -0.096679702 0.538086 4278190080
-0.043945301 -0.096679702 0.54184699 4278190080
-0.043154102 -0.120117 0.538086 4278190080
-0.043945301 -0.120117 0.53874099 4278190080
0.0555331 -0.096679702 0.538086 4278190080
0.0556641 -0.096679702 0.53817701 4278190080
0.0615234 -0.096679702 0.542638 4278190080
0.131836 -0.096679702 0.54382497 4278190080
0.047019999 -0.114258 0.53222698 4278190080
0.049804699 -0.114258 0.533925 4278190080
0.055922601 -0.102539 0.538086 4278190080
0.0556641 -0.098354302 0.538086 4278190080
0.0615234 -0.102539 0.54286301 4278190080
0.120117 -0.102539 0.54348701 4278190080
0.12597699 -0.102539 0.543311 4278190080
0.131836 -0.102539 0.54283702 4278190080
-0.0436791 -0.12597699 0.538086 4278190080
-0.043945301 -0.12597699 0.53829402 4278190080
0.0551209 -0.120117 0.538086 4278190080
0.0556641 -0.120117 0.53847301 4278190080
0.0615234 -0.120117 0.54390198 4278190080
0.114258 -0.120117 0.541776 4278190080
0.120117 -0.120117 0.540658 4278190080
0.12597699 -0.120117 0.54111201 4278190080
-0.047609601 -0.108398 0.54394501 4278190080
-0.049804699 -0.108398 0.54620802 4278190080
-0.048439499 -0.114258 0.54394501 4278190080
-0.049804699 -0.114258 0.54535699 4278190080
0.054297399 -0.12597699 0.538086 4278190080
0.0556641 -0.12597699 0.53909099 4278190080
0.114258 -0.12597699 0.540609 4278190080
0.120117 -0.12597699 0.54005301 4278190080
0.12597699 -0.12597699 0.54023802 4278190080
-0.0467932 -0.102539 0.54394501 4278190080
-0.049804699 -0.102539 0.54722202 4278190080
0.055616099 -0.108398 0.538086 4278190080
0.0556641 -0.107644 0.538086 4278190080
0.0556641 -0.108398 0.53811902 4278190080
0.0615234 -0.108398 0.54293299 4278190080
0.120117 -0.108398 0.54255301 4278190080
0.12597699 -0.108398 0.54264897 4278190080
0.131836 -0.108398 0.54241902 4278190080
-0.0457987 -0.096679702 0.54394501 4278190080
-0.049804699 -0.096679702 0.54825997 4278190080
-0.049214099 -0.120117 0.54394501 4278190080
-0.049804699 -0.120117 0.54451102 4278190080
-0.049572598 -0.12597699 0.54394501 4278190080
-0.049804699 -0.12597699 0.54417598 4278190080
0.062819697 -0.096679702 0.54394501 4278190080
0.067382798 -0.096679702 0.54846603 4278190080
0.120117 -0.096679702 0.54468203 4278190080
0.129308 -0.096679702 0.54394501 4278190080
0.12597699 -0.096679702 0.54410797 4278190080
0.131836 -0.096001498 0.54394501 4278190080
0.055312201 -0.114258 0.538086 4278190080
0.0556641 -0.114258 0.53834701 4278190080
0.0615234 -0.114258 0.54321802 4278190080
0.114258 -0.114258 0.54299903 4278190080
0.120117 -0.114258 0.54149503 4278190080
0.12597699 -0.114258 0.54185498 4278190080
0.062651902 -0.102539 0.54394501 4278190080
0.067382798 -0.102539 0.54850399 4278190080
0.119049 -0.102539 0.54394501 4278190080
0.114258 -0.102539 0.54667199 4278190080
0.120117 -0.100239 0.54394501 4278190080
0.12597699 -0.097851597 0.54394501 4278190080
-0.052814499 -0.108398 0.54980499 4278190080
-0.0556641 -0.108398 0.55331898 4278190080
0.061572999 -0.120117 0.54394501 4278190080
0.067382798 -0.120117 0.54919499 4278190080
0.102539 -0.120117 0.54805702 4278190080
0.111784 -0.120117 0.54394501 4278190080
0.108398 -0.120117 0.54849797 4278190080
-0.053665601 -0.114258 0.54980499 4278190080
-0.0556641 -0.114258 0.55204898 4278190080
0.060763501 -0.12597699 0.54394501 4278190080
0.0615234 -0.120452 0.54394501 4278190080
0.0615234 -0.12597699 0.544649 4278190080
0.067382798 -0.12597699 0.54888099 4278190080
0.096679702 -0.12597699 0.54927599 4278190080
0.102539 -0.12597699 0.54689902 4278190080
0.109434 -0.12597699 0.54394501 4278190080
0.108398 -0.12597699 0.54489899 4278190080
-0.0518292 -0.102539 0.54980499 4278190080
-0.0556641 -0.102539 0.55465502 4278190080
-0.054534402 -0.12597699 0.54980499 4278190080
-0.0556641 -0.12597699 0.55107498 4278190080
-0.0510832 -0.096679702 0.54980499 4278190080
-0.0556641 -0.096679702 0.55554199 4278190080
-0.054375499 -0.120117 0.54980499 4278190080
-0.0556641 -0.120117 0.55131501 4278190080
0.062528402 -0.108398 0.54394501 4278190080
0.067382798 -0.108398 0.548693 4278190080
0.0791016 -0.108398 0.54969001 4278190080
0.11624 -0.108398 0.54394501 4278190080
0.114258 -0.108398 0.54471999 4278190080
0.069082104 -0.096679702 0.54980499 4278190080
0.073242202 -0.096679702 0.55338597 4278190080
0.114619 -0.096679702 0.54980499 4278190080
0.114258 -0.096679702 0.55056 4278190080
0.062284801 -0.114258 0.54394501 4278190080
0.067382798 -0.114258 0.54886103 4278190080
0.113393 -0.114258 0.54394501 4278190080
0.114258 -0.111027 0.54394501 4278190080
-0.057895299 -0.108398 0.555664 4278190080
-0.0615234 -0.108398 0.55923402 4278190080
0.069255501 -0.102539 0.54980499 4278190080
0.073242202 -0.102539 0.55285001 4278190080
0.0791016 -0.102539 0.55496299 4278190080
0.110984 -0.102539 0.54980499 4278190080
0.108398 -0.102539 0.55188501 4278190080
0.114258 -0.097385399 0.54980499 4278190080
-0.059078898 -0.114258 0.555664 4278190080
-0.0615234 -0.114258 0.55835098 4278190080
0.068762898 -0.120117 0.54980499 4278190080
0.073242202 -0.120117 0.55190903 4278190080
0.100917 -0.120117 0.54980499 4278190080
0.096679702 -0.120117 0.55311298 4278190080
0.102539 -0.119015 0.54980499 4278190080
0.108398 -0.117983 0.54980499 4278190080
-0.056705602 -0.102539 0.555664 4278190080
-0.0615234 -0.102539 0.56050801 4278190080
0.069103703 -0.12597699 0.54980499 4278190080
0.073242202 -0.12597699 0.55183601 4278190080
0.096078902 -0.12597699 0.54980499 4278190080
0.096679702 -0.125466 0.54980499 4278190080
-0.059064001 -0.12597699 0.555664 4278190080
-0.0615234 -0.12597699 0.55824399 4278190080
-0.055761199 -0.096679702 0.555664 4278190080
-0.0556641 -0.0957167 0.555664 4278190080
-0.059910402 -0.120117 0.555664 4278190080
-0.0615234 -0.120117 0.55723298 4278190080
0.069612898 -0.108398 0.54980499 4278190080
0.078390703 -0.108398 0.54980499 4278190080
0.073242202 -0.108398 0.55189002 4278190080
0.0791016 -0.107933 0.54980499 4278190080
0.109867 -0.108398 0.54980499 4278190080
0.108398 -0.108398 0.55111903 4278190080
-0.062346801 -0.114258 0.56152302 4278190080
0.0791016 -0.0969368 0.555664 4278190080
0.108398 -0.097740501 0.555664 4278190080
0.0790511 -0.096679702 0.555664 4278190080
0.0791016 -0.096679702 0.55568498 4278190080
0.109893 -0.096679702 0.555664 4278190080
0.108398 -0.096679702 0.55669498 4278190080
0.068921097 -0.114258 0.54980499 4278190080
0.073242202 -0.114258 0.55246699 4278190080
0.102539 -0.114258 0.55324697 4278190080
0.109452 -0.114258 0.54980499 4278190080
0.108398 -0.114258 0.55113202 4278190080
-0.0615234 -0.099736303 0.56152302 4278190080
-0.062364802 -0.12597699 0.56152302 4278190080
-0.060628299 -0.096679702 0.56152302 4278190080
-0.0615234 -0.096679702 0.56246901 4278190080
-0.0658473 -0.108398 0.57324201 4278190080
-0.065177999 -0.114258 0.56738299 4278190080
-0.0645492 -0.120117 0.56738299 4278190080
-0.067382798 -0.120117 0.57212502 4278190080
-0.064022198 -0.12597699 0.56738299 4278190080
-0.064301498 -0.102539 0.57324201 4278190080
-0.067382798 -0.102539 0.57638001 4278190080
-0.066059001 -0.114258 0.57324201 4278190080
-0.067382798 -0.114258 0.57441503 4278190080
-0.067382798 -0.118168 0.57324201 4278190080
-0.064267002 -0.096679702 0.57324201 4278190080
-0.065279096 -0.12597699 0.57324201 4278190080
-0.067382798 -0.121202 0.57324201 4278190080
-0.067382798 -0.12597699 0.57758802 4278190080
-0.067382798 -0.099202402 0.57910198 4278190080
-0.065324202 -0.096679702 0.57910198 4278190080
-0.067941897 -0.12597699 0.57910198 4278190080
-0.067382798 -0.098237202 0.584961 4278190080
-0.066089697 -0.096679702 0.584961 4278190080
-0.067382798 -0.096679702 0.58605599 4278190080
-0.069399998 -0.12597699 0.584961 4278190080
-0.0087890597 -0.073242202 0.52569997 4278190080
-0.0029296901 -0.073242202 0.52438098 4278190080
-0.0146484 -0.090820298 0.52551597 4278190080
-0.0087890597 -0.090820298 0.52419102 4278190080
-0.0029296901 -0.090820298 0.52269202 4278190080
-0.0029296901 -0.067382798 0.52527398 4278190080
-0.0029296901 -0.0615234 0.52624398 4278190080
-0.0146484 -0.0849609 0.52591997 4278190080
-0.0087890597 -0.0849609 0.52488798 4278190080
-0.0029296901 -0.0849609 0.52328497 4278190080
-0.0087890597 -0.0791016 0.52516299 4278190080
-0.0029296901 -0.0791016 0.52375698 4278190080
0.0029296901 -0.073242202 0.523592 4278190080
0.0087890597 -0.073242202 0.52335501 4278190080
0.0146484 -0.073242202 0.52355599 4278190080
0.020507799 -0.073242202 0.52442902 4278190080
0.026367201 -0.073242202 0.52555901 4278190080
0.0029296901 -0.0791016 0.52287197 4278190080
0.0087890597 -0.0791016 0.52265197 4278190080
0.0146484 -0.0791016 0.52288598 4278190080
0.020507799 -0.0791016 0.52378601 4278190080
0.026367201 -0.0791016 0.52500099 4278190080
-0.020507799 -0.073242202 0.53016299 4278190080
-0.01088 -0.073242202 0.52636701 4278190080
-0.0146484 -0.073242202 0.52754903 4278190080
-0.0087890597 -0.068187602 0.52636701 4278190080
0.0029296901 -0.0849609 0.52214402 4278190080
0.0087890597 -0.0849609 0.52206802 4278190080
0.0146484 -0.0849609 0.52250099 4278190080
0.020507799 -0.0849609 0.523274 4278190080
0.026367201 -0.0849609 0.52453899 4278190080
0.0322266 -0.0849609 0.52626801 4278190080
0.0029296901 -0.090820298 0.52183098 4278190080
0.0087890597 -0.090820298 0.52154899 4278190080
0.0146484 -0.090820298 0.521963 4278190080
0.020507799 -0.090820298 0.52277601 4278190080
0.026367201 -0.090820298 0.52422798 4278190080
0.0322266 -0.090820298 0.52600998 4278190080
-0.026367201 -0.090820298 0.53056097 4278190080
-0.016866099 -0.090820298 0.52636701 4278190080
-0.020507799 -0.090820298 0.52775103 4278190080
0.0029296901 -0.067382798 0.524418 4278190080
0.0087890597 -0.067382798 0.52403098 4278190080
0.0146484 -0.067382798 0.52424997 4278190080
0.020507799 -0.067382798 0.52496099 4278190080
0.026367201 -0.067382798 0.52617902 4278190080
-0.020507799 -0.067382798 0.53108501 4278190080
-0.0146484 -0.067382798 0.52842802 4278190080
-0.0082711 -0.067382798 0.52636701 4278190080
-0.0087890597 -0.067382798 0.526474 4278190080
0.0029296901 -0.0615234 0.525289 4278190080
0.0087890597 -0.0615234 0.52482301 4278190080
0.0146484 -0.0615234 0.52497202 4278190080
0.020507799 -0.0615234 0.52573901 4278190080
-0.020507799 -0.0791016 0.52917498 4278190080
-0.0127968 -0.0791016 0.52636701 4278190080
-0.0146484 -0.0791016 0.52692997 4278190080
-0.020507799 -0.0615234 0.53201997 4278190080
-0.0146484 -0.0615234 0.52933502 4278190080
-0.00361335 -0.0615234 0.52636701 4278190080
-0.0087890597 -0.0615234 0.52729303 4278190080
-0.0029296901 -0.060838901 0.52636701 4278190080
-0.026367201 -0.0849609 0.531331 4278190080
-0.0158101 -0.0849609 0.52636701 4278190080
-0.020507799 -0.0849609 0.52814502 4278190080
-0.0146484 -0.082380801 0.52636701 4278190080
0.0292667 -0.073242202 0.52636701 4278190080
0.0322266 -0.073242202 0.527192 4278190080
0.0380859 -0.073242202 0.529217 4278190080
0.043945301 -0.073242202 0.531739 4278190080
0.031231301 -0.0791016 0.52636701 4278190080
0.0322266 -0.0791016 0.52664399 4278190080
0.0380859 -0.0791016 0.52881998 4278190080
0.043945301 -0.0791016 0.531452 4278190080
0.033200402 -0.090820298 0.52636701 4278190080
0.0380859 -0.090820298 0.528139 4278190080
0.043945301 -0.090820298 0.53086603 4278190080
-0.0322266 -0.073242202 0.53668201 4278190080
-0.0245844 -0.073242202 0.53222698 4278190080
-0.026367201 -0.073242202 0.53312498 4278190080
-0.0380859 -0.090820298 0.53764498 4278190080
-0.029343501 -0.090820298 0.53222698 4278190080
-0.0322266 -0.090820298 0.53380799 4278190080
0.032498501 -0.0849609 0.52636701 4278190080
0.0322266 -0.083391897 0.52636701 4278190080
0.0380859 -0.0849609 0.52841198 4278190080
0.043945301 -0.0849609 0.53113198 4278190080
0.027072201 -0.067382798 0.52636701 4278190080
0.026367201 -0.065562002 0.52636701 4278190080
0.0322266 -0.067382798 0.52773798 4278190080
0.0380859 -0.067382798 0.52963001 4278190080
0.043945301 -0.067382798 0.53214699 4278190080
-0.0322266 -0.067382798 0.537974 4278190080
-0.0228626 -0.067382798 0.53222698 4278190080
-0.026367201 -0.067382798 0.53389698 4278190080
0.0240102 -0.0615234 0.52636701 4278190080
0.026367201 -0.0615234 0.526793 4278190080
0.0322266 -0.0615234 0.528247 4278190080
0.0380859 -0.0615234 0.53013498 4278190080
-0.0208889 -0.0615234 0.53222698 4278190080
-0.026367201 -0.0615234 0.53520101 4278190080
-0.020507799 -0.0607647 0.53222698 4278190080
-0.0322266 -0.0791016 0.53561401 4278190080
-0.026354199 -0.0791016 0.53222698 4278190080
-0.026367201 -0.0791016 0.532233 4278190080
0.044858001 -0.073242202 0.53222698 4278190080
0.049804699 -0.073242202 0.53482598 4278190080
-0.0278609 -0.0849609 0.53222698 4278190080
-0.0322266 -0.0849609 0.53479201 4278190080
-0.026367201 -0.0791445 0.53222698 4278190080
0.045398001 -0.0791016 0.53222698 4278190080
0.049804699 -0.0791016 0.53455597 4278190080
0.046278499 -0.090820298 0.53222698 4278190080
0.049804699 -0.090820298 0.53420001 4278190080
-0.0340624 -0.073242202 0.538086 4278190080
-0.0380859 -0.073242202 0.54114097 4278190080
0.0547661 -0.073242202 0.538086 4278190080
0.0556641 -0.073242202 0.53865999 4278190080
0.0615234 -0.073242202 0.54262 4278190080
-0.0385493 -0.090820298 0.538086 4278190080
-0.043945301 -0.090820298 0.54303098 4278190080
-0.0380859 -0.088430397 0.538086 4278190080
-0.0355439 -0.0791016 0.538086 4278190080
-0.0380859 -0.0791016 0.53995401 4278190080
-0.032372698 -0.067382798 0.538086 4278190080
-0.0380859 -0.067382798 0.54238802 4278190080
-0.0322266 -0.066861302 0.538086 4278190080
0.046066601 -0.0849609 0.53222698 4278190080
0.049804699 -0.0849609 0.53415501 4278190080
-0.037134599 -0.0849609 0.538086 4278190080
-0.0380859 -0.0849609 0.53872901 4278190080
-0.030524701 -0.0615234 0.538086 4278190080
-0.0322266 -0.0615234 0.53924799 4278190080
0.042860601 -0.0615234 0.53222698 4278190080
0.043945301 -0.0615234 0.532691 4278190080
0.049804699 -0.0615234 0.53546703 4278190080
0.0441043 -0.067382798 0.53222698 4278190080
0.043945301 -0.0665152 0.53222698 4278190080
0.049804699 -0.067382798 0.53514802 4278190080
0.0553228 -0.0791016 0.538086 4278190080
0.0556641 -0.0791016 0.538302 4278190080
0.0615234 -0.0791016 0.54273403 4278190080
0.0554737 -0.090820298 0.538086 4278190080
0.0556641 -0.090820298 0.53821898 4278190080
0.0615234 -0.090820298 0.54271001 4278190080
-0.040977001 -0.073242202 0.54394501 4278190080
-0.043945301 -0.073242202 0.54681897 4278190080
0.062904201 -0.073242202 0.54394501 4278190080
0.067382798 -0.073242202 0.547997 4278190080
0.12597699 -0.073242202 0.54786903 4278190080
0.131836 -0.073242202 0.54757702 4278190080
0.137695 -0.073242202 0.547553 4278190080
-0.042168301 -0.0791016 0.54394501 4278190080
-0.043945301 -0.0791016 0.54559898 4278190080
-0.044781201 -0.090820298 0.54394501 4278190080
-0.049804699 -0.090820298 0.549474 4278190080
-0.043945301 -0.085838303 0.54394501 4278190080
-0.043762598 -0.0849609 0.54394501 4278190080
-0.043945301 -0.0849609 0.54410899 4278190080
-0.037976898 -0.0615234 0.54394501 4278190080
-0.0380859 -0.0615234 0.544029 4278190080
-0.039566498 -0.067382798 0.54394501 4278190080
-0.043945301 -0.067382798 0.54846698 4278190080
-0.0380859 -0.061831102 0.54394501 4278190080
0.0628061 -0.0791016 0.54394501 4278190080
0.067382798 -0.0791016 0.54808801 4278190080
0.120117 -0.0791016 0.548567 4278190080
0.12597699 -0.0791016 0.54687101 4278190080
0.131836 -0.0791016 0.54673898 4278190080
0.137695 -0.0791016 0.54706699 4278190080
0.0539646 -0.0615234 0.538086 4278190080
0.0556641 -0.0615234 0.53915697 4278190080
0.0615234 -0.0615234 0.542974 4278190080
0.055514801 -0.0849609 0.538086 4278190080
0.0556641 -0.0849609 0.53818399 4278190080
0.0615234 -0.0849609 0.54267699 4278190080
0.054253001 -0.067382798 0.538086 4278190080
0.0556641 -0.067382798 0.53898001 4278190080
0.0615234 -0.067382798 0.54294801 4278190080
0.062785298 -0.090820298 0.54394501 4278190080
0.067382798 -0.090820298 0.54822201 4278190080
0.120117 -0.090820298 0.54601097 4278190080
0.12597699 -0.090820298 0.54496402 4278190080
0.131836 -0.090820298 0.54492003 4278190080
-0.046441101 -0.073242202 0.54980499 4278190080
-0.049804699 -0.073242202 0.553922 4278190080
0.069328502 -0.073242202 0.54980499 4278190080
0.073242202 -0.073242202 0.55360198 4278190080
0.121409 -0.073242202 0.54980499 4278190080
0.120117 -0.073242202 0.55071199 4278190080
-0.0488557 -0.0849609 0.54980499 4278190080
-0.049804699 -0.0849609 0.55084997 4278190080
-0.0476081 -0.0791016 0.54980499 4278190080
-0.049804699 -0.0791016 0.55240899 4278190080
-0.043443099 -0.0615234 0.54980499 4278190080
-0.043945301 -0.0615234 0.55035698 4278190080
-0.050073698 -0.090820298 0.54980499 4278190080
-0.049804699 -0.089453101 0.54980499 4278190080
0.069147803 -0.0791016 0.54980499 4278190080
0.073242202 -0.0791016 0.55386001 4278190080
0.119246 -0.0791016 0.54980499 4278190080
0.120117 -0.075121999 0.54980499 4278190080
-0.044985101 -0.067382798 0.54980499 4278190080
-0.043945301 -0.063225001 0.54980499 4278190080
0.0626086 -0.0615234 0.54394501 4278190080
0.067382798 -0.0615234 0.54797 4278190080
0.131836 -0.0615234 0.549357 4278190080
0.137695 -0.0615234 0.549757 4278190080
0.062837102 -0.0849609 0.54394501 4278190080
0.067382798 -0.0849609 0.54828799 4278190080
0.120117 -0.0849609 0.54719698 4278190080
0.12597699 -0.0849609 0.54581499 4278190080
0.131836 -0.0849609 0.54574299 4278190080
0.137695 -0.0849609 0.547445 4278190080
0.062617399 -0.067382798 0.54394501 4278190080
0.067382798 -0.067382798 0.54799998 4278190080
0.12597699 -0.067382798 0.54907298 4278190080
0.131836 -0.067382798 0.54856998 4278190080
0.137695 -0.067382798 0.54834098 4278190080
-0.051327098 -0.073242202 0.555664 4278190080
-0.0556641 -0.073242202 0.56075501 4278190080
-0.049804699 -0.068374202 0.555664 4278190080
0.069099396 -0.090820298 0.54980499 4278190080
0.073242202 -0.090820298 0.55378902 4278190080
0.116947 -0.090820298 0.54980499 4278190080
0.114258 -0.090820298 0.55422199 4278190080
0.0758605 -0.073242202 0.555664 4278190080
0.0791016 -0.073242202 0.55803001 4278190080
0.116192 -0.073242202 0.555664 4278190080
0.114258 -0.073242202 0.55749202 4278190080
-0.054302901 -0.0849609 0.555664 4278190080
-0.0556641 -0.0849609 0.55716699 4278190080
-0.052944198 -0.0791016 0.555664 4278190080
-0.0556641 -0.0791016 0.55826598 4278190080
-0.0481744 -0.0615234 0.555664 4278190080
-0.049804699 -0.0615234 0.55761498 4278190080
-0.055153001 -0.090820298 0.555664 4278190080
-0.0556641 -0.090820298 0.55628699 4278190080
-0.0495397 -0.067382798 0.555664 4278190080
-0.049804699 -0.067382798 0.55599099 4278190080
0.075467601 -0.0791016 0.555664 4278190080
0.0791016 -0.0791016 0.55838197 4278190080
0.114546 -0.0791016 0.555664 4278190080
0.114258 -0.0791016 0.555893 4278190080
0.069195896 -0.0615234 0.54980499 4278190080
0.073242202 -0.0615234 0.55369598 4278190080
0.120117 -0.0615234 0.554618 4278190080
0.1285 -0.0615234 0.54980499 4278190080
0.12597699 -0.0615234 0.550183 4278190080
0.131836 -0.0586714 0.54980499 4278190080
0.137695 -0.061242498 0.54980499 4278190080
0.069184497 -0.0849609 0.54980499 4278190080
0.073242202 -0.0849609 0.55339998 4278190080
0.0849609 -0.0849609 0.55246902 4278190080
0.118 -0.0849609 0.54980499 4278190080
0.114258 -0.0849609 0.55551898 4278190080
0.0690891 -0.067382798 0.54980499 4278190080
0.073242202 -0.067382798 0.55414897 4278190080
0.124398 -0.067382798 0.54980499 4278190080
0.120117 -0.067382798 0.55277097 4278190080
0.12597699 -0.063458398 0.54980499 4278190080
-0.056281801 -0.073242202 0.56152302 4278190080
-0.0556641 -0.0710098 0.56152302 4278190080
0.075802103 -0.090820298 0.555664 4278190080
0.081474498 -0.090820298 0.555664 4278190080
0.0791016 -0.090820298 0.55791998 4278190080
0.113014 -0.090820298 0.555664 4278190080
0.108398 -0.090820298 0.55718797 4278190080
-0.059030998 -0.0849609 0.56152302 4278190080
-0.0615234 -0.0849609 0.56508303 4278190080
-0.0586669 -0.0791016 0.56152302 4278190080
-0.0615234 -0.0791016 0.56449199 4278190080
-0.0615234 -0.0615234 0.56420797 4278190080
-0.053268202 -0.0615234 0.56152302 4278190080
-0.0556641 -0.0615234 0.56415099 4278190080
0.114258 -0.070680499 0.56152302 4278190080
-0.060672302 -0.090820298 0.56152302 4278190080
-0.0615234 -0.090820298 0.56233799 4278190080
-0.054675698 -0.067382798 0.56152302 4278190080
-0.0556641 -0.067382798 0.56266499 4278190080
0.075539 -0.0615234 0.555664 4278190080
0.0791016 -0.0615234 0.55884099 4278190080
0.119322 -0.0615234 0.555664 4278190080
0.076291896 -0.0849609 0.555664 4278190080
0.0818872 -0.0849609 0.555664 4278190080
0.0791016 -0.0849609 0.55757201 4278190080
0.114115 -0.0849609 0.555664 4278190080
0.114258 -0.083300903 0.555664 4278190080
0.076180696 -0.067382798 0.555664 4278190080
0.0791016 -0.067382798 0.55733401 4278190080
0.118883 -0.067382798 0.555664 4278190080
0.083388202 -0.0791016 0.56738299 4278190080
0.0849609 -0.077217601 0.56738299 4278190080
0.0849609 -0.0791016 0.56870699 4278190080
-0.061061598 -0.073242202 0.56738299 4278190080
-0.0615234 -0.073242202 0.56790203 4278190080
-0.0615234 -0.074103199 0.56738299 4278190080
0.114258 -0.073187098 0.56738299 4278190080
0.114258 -0.073242202 0.56743699 4278190080
-0.0615234 -0.060761102 0.56738299 4278190080
-0.060930502 -0.067382798 0.56738299 4278190080
-0.0615234 -0.066535801 0.56738299 4278190080
-0.0615234 -0.067382798 0.56789702 4278190080
0.083554603 -0.0615234 0.56152302 4278190080
0.0849609 -0.0615234 0.56223202 4278190080
0.114625 -0.0615234 0.56152302 4278190080
0.083272703 -0.067382798 0.56152302 4278190080
0.0849609 -0.067382798 0.56276298 4278190080
0.117191 -0.067382798 0.56152302 4278190080
0.114258 -0.075952299 0.57324201 4278190080
0.0849609 -0.080222398 0.56738299 4278190080
0.116803 -0.073242202 0.57324201 4278190080
-0.0615234 -0.059668399 0.57324201 4278190080
0.115296 -0.0615234 0.56738299 4278190080
-0.062428501 -0.067382798 0.57324201 4278190080
0.117657 -0.067382798 0.56738299 4278190080
-0.0615234 -0.059064101 0.57910198 4278190080
-0.063000202 -0.067382798 0.57910198 4278190080
0.12597699 -0.0615234 0.59444499 4278190080
0.131836 -0.0615234 0.59667999 4278190080
0.122301 -0.0615234 0.59667999 4278190080
0.12597699 -0.059292901 0.59667999 4278190080
0.131836 -0.061523199 0.59667999 4278190080
-0.0087890597 -0.049804699 0.53031898 4278190080
-0.0029296901 -0.049804699 0.528642 4278190080
-0.0146484 -0.0556641 0.53030801 4278190080
-0.0087890597 -0.0556641 0.528611 4278190080
0.0022221799 -0.0556641 0.52636701 4278190080
-0.0029296901 -0.0556641 0.52730697 4278190080
-0.0087890597 -0.043945301 0.53175801 4278190080
-0.0029296901 -0.043945301 0.530011 4278190080
-0.0029296901 -0.0380859 0.53145999 4278190080
-0.0087890597 -0.026367201 0.53605002 4278190080
-0.0029296901 -0.026367201 0.53403199 4278190080
-0.0146484 -0.0322266 0.53686899 4278190080
-0.0087890597 -0.0322266 0.53464001 4278190080
-0.000223756 -0.0322266 0.53222698 4278190080
-0.0029296901 -0.0322266 0.53292602 4278190080
-0.020507799 -0.049804699 0.53500599 4278190080
-0.0145006 -0.049804699 0.53222698 4278190080
-0.0146484 -0.049804699 0.53227597 4278190080
-0.026367201 -0.0556641 0.53665602 4278190080
-0.0180075 -0.0556641 0.53222698 4278190080
-0.020507799 -0.0556641 0.53361899 4278190080
-0.0146484 -0.049953699 0.53222698 4278190080
-0.020507799 -0.0380859 0.53803802 4278190080
-0.0146484 -0.0380859 0.53544301 4278190080
-0.0055690999 -0.0380859 0.53222698 4278190080
-0.0087890597 -0.0380859 0.53316301 4278190080
-0.0029296901 -0.0350223 0.53222698 4278190080
-0.020507799 -0.043945301 0.53647798 4278190080
-0.0102166 -0.043945301 0.53222698 4278190080
-0.0146484 -0.043945301 0.53368098 4278190080
-0.0087890597 -0.042008501 0.53222698 4278190080
-0.020507799 -0.026367201 0.54111999 4278190080
-0.014087 -0.026367201 0.538086 4278190080
-0.0146484 -0.026367201 0.538302 4278190080
-0.026367201 -0.0322266 0.54283398 4278190080
-0.017205499 -0.0322266 0.538086 4278190080
-0.020507799 -0.0322266 0.53964299 4278190080
-0.0146484 -0.0272489 0.538086 4278190080
-0.0322266 -0.049804699 0.54218799 4278190080
-0.0260826 -0.049804699 0.538086 4278190080
-0.026367201 -0.049804699 0.538243 4278190080
-0.028423799 -0.0556641 0.538086 4278190080
-0.0322266 -0.0556641 0.54064697 4278190080
-0.026367201 -0.050380599 0.538086 4278190080
-0.020595901 -0.0380859 0.538086 4278190080
-0.026367201 -0.0380859 0.541237 4278190080
-0.020507799 -0.0379108 0.538086 4278190080
-0.0322266 -0.043945301 0.54360598 4278190080
-0.0234419 -0.043945301 0.538086 4278190080
-0.026367201 -0.043945301 0.539653 4278190080
-0.028119599 -0.0322266 0.54394501 4278190080
-0.0322266 -0.0322266 0.54653198 4278190080
-0.026367201 -0.027207701 0.54394501 4278190080
-0.0322266 -0.026367201 0.54803801 4278190080
-0.0260035 -0.026367201 0.54394501 4278190080
-0.026367201 -0.026367201 0.54413003 4278190080
-0.034178901 -0.049804699 0.54394501 4278190080
-0.0380859 -0.049804699 0.54732901 4278190080
-0.036147699 -0.0556641 0.54394501 4278190080
-0.0380859 -0.0556641 0.54556602 4278190080
-0.032604098 -0.043945301 0.54394501 4278190080
-0.0380859 -0.043945301 0.548747 4278190080
-0.0322266 -0.042438298 0.54394501 4278190080
-0.030661101 -0.0380859 0.54394501 4278190080
-0.0322266 -0.0380859 0.544927 4278190080
-0.0355184 -0.0322266 0.54980499 4278190080
-0.0380859 -0.0322266 0.55229598 4278190080
-0.033951301 -0.026367201 0.54980499 4278190080
-0.0380859 -0.026367201 0.55397099 4278190080
-0.040377501 -0.049804699 0.54980499 4278190080
-0.043945301 -0.049804699 0.55364197 4278190080
0.0029296901 -0.0556641 0.52623999 4278190080
0.0087890597 -0.0556641 0.52564597 4278190080
0.0146484 -0.0556641 0.52568299 4278190080
0.020507799 -0.0556641 0.52634197 4278190080
-0.041861199 -0.0556641 0.54980499 4278190080
-0.043945301 -0.0556641 0.552113 4278190080
0.0029296901 -0.0380859 0.52995902 4278190080
0.0087890597 -0.0380859 0.52869499 4278190080
0.0146484 -0.0380859 0.52833599 4278190080
0.020507799 -0.0380859 0.52876103 4278190080
0.026367201 -0.0380859 0.52961397 4278190080
0.0322266 -0.0380859 0.53069103 4278190080
0.0029296901 -0.043945301 0.528458 4278190080
0.0087890597 -0.043945301 0.52753401 4278190080
0.0146484 -0.043945301 0.527255 4278190080
0.020507799 -0.043945301 0.52783 4278190080
0.026367201 -0.043945301 0.52890199 4278190080
0.0322266 -0.043945301 0.53008699 4278190080
0.0380859 -0.043945301 0.531771 4278190080
0.0029296901 -0.049804699 0.527318 4278190080
0.0087890597 -0.049804699 0.52653301 4278190080
0.0146484 -0.049804699 0.52648902 4278190080
0.020507799 -0.049804699 0.52706999 4278190080
0.026367201 -0.049804699 0.52805299 4278190080
0.0322266 -0.049804699 0.52946901 4278190080
0.0380859 -0.049804699 0.53125602 4278190080
0.0029296901 -0.0322266 0.53140301 4278190080
0.0087890597 -0.0322266 0.52981102 4278190080
0.0146484 -0.0322266 0.52944398 4278190080
0.020507799 -0.0322266 0.52967602 4278190080
0.026367201 -0.0322266 0.53030902 4278190080
0.0322266 -0.0322266 0.53133303 4278190080
0.0087890597 -0.026367201 0.53106302 4278190080
0.0146484 -0.026367201 0.530361 4278190080
0.020507799 -0.026367201 0.530509 4278190080
0.026367201 -0.026367201 0.53107202 4278190080
0.0322266 -0.026367201 0.53211302 4278190080
-0.040996399 -0.0322266 0.555664 4278190080
-0.043945301 -0.0322266 0.55892998 4278190080
-0.0372946 -0.0380859 0.54980499 4278190080
-0.0380859 -0.0380859 0.55053598 4278190080
-0.039034098 -0.043945301 0.54980499 4278190080
-0.043945301 -0.043945301 0.55513799 4278190080
-0.0380859 -0.040498901 0.54980499 4278190080
-0.0395757 -0.026367201 0.555664 4278190080
-0.043945301 -0.026367201 0.56052202 4278190080
-0.0380859 -0.0213286 0.555664 4278190080
-0.045605801 -0.049804699 0.555664 4278190080
-0.049804699 -0.049804699 0.56069797 4278190080
0.0029296901 -0.054963902 0.52636701 4278190080
0.0087890597 -0.0508953 0.52636701 4278190080
0.0146484 -0.050682399 0.52636701 4278190080
0.020653799 -0.0556641 0.52636701 4278190080
0.020507799 -0.055459499 0.52636701 4278190080
0.026367201 -0.0556641 0.52735502 4278190080
0.0322266 -0.0556641 0.528889 4278190080
0.0380859 -0.0556641 0.530743 4278190080
-0.046714298 -0.0556641 0.555664 4278190080
-0.049804699 -0.0556641 0.55944902 4278190080
0.0377312 -0.0380859 0.53222698 4278190080
0.0380859 -0.0380859 0.532323 4278190080
0.043945301 -0.0380859 0.53448898 4278190080
0.049804699 -0.0380859 0.53728199 4278190080
0.040561799 -0.049804699 0.53222698 4278190080
0.043945301 -0.049804699 0.53354698 4278190080
0.049804699 -0.049804699 0.53643698 4278190080
0.0392517 -0.043945301 0.53222698 4278190080
0.0380859 -0.039119098 0.53222698 4278190080
0.043945301 -0.043945301 0.53401601 4278190080
0.049804699 -0.043945301 0.53688103 4278190080
0.0029296901 -0.0276569 0.53222698 4278190080
0.035303701 -0.0322266 0.53222698 4278190080
0.0380859 -0.0322266 0.53302401 4278190080
0.043945301 -0.0322266 0.53507102 4278190080
0.049804699 -0.0322266 0.53773397 4278190080
0.00390065 -0.026367201 0.53222698 4278190080
0.0029296901 -0.026367201 0.53245699 4278190080
0.032643601 -0.026367201 0.53222698 4278190080
0.0322266 -0.0253822 0.53222698 4278190080
0.0380859 -0.026367201 0.53369302 4278190080
0.043945301 -0.026367201 0.53563702 4278190080
-0.046046901 -0.0322266 0.56152302 4278190080
-0.049804699 -0.0322266 0.56629801 4278190080
-0.042748101 -0.0380859 0.555664 4278190080
-0.043945301 -0.0380859 0.55697501 4278190080
-0.050622601 -0.049804699 0.56152302 4278190080
-0.0556641 -0.049804699 0.56613499 4278190080
-0.049804699 -0.0459028 0.56152302 4278190080
-0.044402201 -0.043945301 0.555664 4278190080
-0.043945301 -0.042256098 0.555664 4278190080
0.051331799 -0.0380859 0.538086 4278190080
0.0556641 -0.0380859 0.54034001 4278190080
-0.0523628 -0.0556641 0.56152302 4278190080
-0.0556641 -0.0556641 0.56435102 4278190080
0.041840401 -0.0556641 0.53222698 4278190080
0.043945301 -0.0556641 0.53303599 4278190080
0.049804699 -0.0556641 0.53599602 4278190080
0.052773699 -0.049804699 0.538086 4278190080
0.0556641 -0.049804699 0.53965902 4278190080
0.0615234 -0.049804699 0.54360098 4278190080
-0.044748299 -0.026367201 0.56152302 4278190080
-0.043945301 -0.023224199 0.56152302 4278190080
0.052016102 -0.043945301 0.538086 4278190080
0.0556641 -0.043945301 0.54002601 4278190080
0.0615234 -0.043945301 0.54381901 4278190080
0.0505068 -0.0322266 0.538086 4278190080
0.049804699 -0.0282689 0.538086 4278190080
0.0556641 -0.0322266 0.54065198 4278190080
-0.050744999 -0.0322266 0.56738299 4278190080
-0.0556641 -0.0322266 0.572258 4278190080
-0.049804699 -0.027813699 0.56738299 4278190080
0.0494183 -0.026367201 0.538086 4278190080
0.049804699 -0.026367201 0.53825599 4278190080
0.0556641 -0.026367201 0.54107302 4278190080
-0.047536001 -0.0380859 0.56152302 4278190080
-0.049804699 -0.0380859 0.56438798 4278190080
-0.056381099 -0.0556641 0.56738299 4278190080
-0.055994 -0.049804699 0.56738299 4278190080
-0.0556641 -0.046448901 0.56738299 4278190080
0.061956599 -0.049804699 0.54394501 4278190080
0.067382798 -0.049804699 0.54824799 4278190080
0.053366501 -0.0556641 0.538086 4278190080
0.0556641 -0.0556641 0.53939998 4278190080
0.0615234 -0.0556641 0.54333401 4278190080
0.061262202 -0.0380859 0.54394501 4278190080
0.0615234 -0.0380859 0.54410899 4278190080
0.067382798 -0.0380859 0.54857701 4278190080
-0.0494514 -0.043945301 0.56152302 4278190080
-0.049804699 -0.043945301 0.56196302 4278190080
-0.049518202 -0.026367201 0.56738299 4278190080
-0.049804699 -0.026367201 0.56774402 4278190080
0.0616729 -0.043945301 0.54394501 4278190080
0.0615234 -0.041398901 0.54394501 4278190080
0.067382798 -0.043945301 0.54864001 4278190080
0.0610094 -0.0322266 0.54394501 4278190080
0.0615234 -0.0322266 0.54426003 4278190080
0.067382798 -0.0322266 0.54889297 4278190080
0.060438901 -0.026367201 0.54394501 4278190080
0.0615234 -0.026367201 0.544586 4278190080
0.067382798 -0.026367201 0.548805 4278190080
-0.0556641 -0.027503099 0.57324201 4278190080
-0.0575643 -0.0556641 0.57324201 4278190080
