# .PCD v0.7 - Point Cloud Data file format
VERSION 0.7
FIELDS x y z rgb
SIZE 4 4 4 4
TYPE F F F U
COUNT 1 1 1 1
WIDTH 1110
HEIGHT 1
VIEWPOINT 0 0 0 1 0 0 0
POINTS 1110
DATA ascii
0.37792999 -0.0031948099 0.631836 4278190080
0.304382 0.0087890597 0.678711 4278190080
0.30761701 0.0087890597 0.68148202 4278190080
0.35449201 0.0087890597 0.68137199 4278190080
0.36043501 0.0087890597 0.678711 4278190080
0.36035201 0.0087890597 0.67878401 4278190080
0.37919801 -0.0029296901 0.631836 4278190080
0.383789 -0.00098586106 0.631836 4278190080
0.383789 -0.0029296901 0.63559902 4278190080
0.38964799 0.0020637501 0.631836 4278190080
0.40136701 0.00929463 0.63769501 4278190080
0.40736899 0.0087890597 0.63769501 4278190080
0.40722701 0.0091310702 0.63769501 4278190080
0.40722701 0.0087890597 0.639 4278190080
0.397475 0.0029296901 0.64355499 4278190080
0.39550799 0.0029296901 0.64626098 4278190080
0.40136701 0.0065348102 0.64355499 4278190080
0.31104299 0.0087890597 0.68457001 4278190080
0.31347701 0.0087890597 0.68628001 4278190080
0.319336 0.0087890597 0.68901402 4278190080
0.32519501 0.0087890597 0.69017899 4278190080
0.33105499 0.0087890597 0.68879801 4278190080
0.336914 0.0087890597 0.687078 4278190080
0.34277299 0.0087890597 0.68592697 4278190080
0.348979 0.0087890597 0.68457001 4278190080
0.34863299 0.0087890597 0.68473399 4278190080
0.37792999 -0.0054367799 0.63769501 4278190080
0.383789 -0.0033971099 0.63769501 4278190080
0.38550699 -0.0029296901 0.63769501 4278190080
0.38964799 -0.000567079 0.63769501 4278190080
0.39550799 0.0025863601 0.63769501 4278190080
0.38964799 0.0087890597 0.648386 4278190080
0.39550799 0.0117909 0.64355499 4278190080
0.39550799 0.0087890597 0.64596599 4278190080
0.40334001 0.0087890597 0.64355499 4278190080
0.40136701 0.0090945996 0.64355499 4278190080
0.40136701 0.0087890597 0.64455301 4278190080
0.319336 0.0118467 0.69042999 4278190080
0.32519501 0.0093885697 0.69042999 4278190080
0.383789 0.0029296901 0.65336001 4278190080
0.394539 0.0029296901 0.649414 4278190080
0.38964799 0.0068154298 0.649414 4278190080
0.38964799 0.0029296901 0.652592 4278190080
0.37792999 -0.0081909904 0.64355499 4278190080
0.37792999 -0.0087890597 0.645037 4278190080
0.383789 -0.00564611 0.64355499 4278190080
0.389341 -0.0029296901 0.64355499 4278190080
0.38964799 -0.0026837599 0.64355499 4278190080
0.39550799 0.00223422 0.64355499 4278190080
0.38871601 0.0087890597 0.649414 4278190080
0.383789 0.0087890597 0.65118903 4278190080
0.38151699 0.0029296901 0.65527302 4278190080
0.37792999 0.0029296901 0.65694797 4278190080
0.383499 -0.0087890597 0.649414 4278190080
0.383789 -0.0086567402 0.649414 4278190080
0.38933501 -0.0029296901 0.649414 4278190080
0.38964799 -0.00256562 0.649414 4278190080
0.380752 0.0087890597 0.65527302 4278190080
0.37792999 0.0087890597 0.65989 4278190080
0.38110599 -0.0087890597 0.65527302 4278190080
0.37792999 -0.0087890597 0.65914398 4278190080
0.383789 -0.0063808002 0.65527302 4278190080
0.37792999 -0.0029296901 0.658687 4278190080
0.38703799 -0.0029296901 0.65527302 4278190080
0.383789 -0.00084519398 0.65527302 4278190080
0.383789 -0.0029296901 0.65814501 4278190080
0.37792999 0.043945301 0.566728 4278190080
0.37207001 0.043945301 0.56575602 4278190080
0.34277299 0.0322266 0.577887 4278190080
0.34863299 0.0322266 0.57727802 4278190080
0.35449201 0.0322266 0.57574302 4278190080
0.36035201 0.0322266 0.57450002 4278190080
0.366211 0.0322266 0.57470298 4278190080
0.37207001 0.036126301 0.57324201 4278190080
0.37207001 0.0322266 0.57833397 4278190080
0.34863299 0.026367201 0.57854497 4278190080
0.35449201 0.026367201 0.576949 4278190080
0.36035201 0.026367201 0.57690901 4278190080
0.37792999 0.042830199 0.56738299 4278190080
0.37792999 0.0380859 0.57207102 4278190080
0.37207001 0.041196302 0.56738299 4278190080
0.37207001 0.0380859 0.57095897 4278190080
0.37792999 0.0258049 0.584961 4278190080
0.32519501 0.020507799 0.58442301 4278190080
0.33105499 0.020507799 0.58357102 4278190080
0.336914 0.020507799 0.583188 4278190080
0.34277299 0.020507799 0.58273202 4278190080
0.34863299 0.025637301 0.57910198 4278190080
0.34863299 0.020507799 0.58282399 4278190080
0.35449201 0.0240492 0.57910198 4278190080
0.35449201 0.020507799 0.582986 4278190080
0.36035201 0.0241435 0.57910198 4278190080
0.36035201 0.020507799 0.58434302 4278190080
0.33105499 0.0322266 0.58343399 4278190080
0.33984399 0.0322266 0.57910198 4278190080
0.336914 0.0322266 0.58124202 4278190080
0.34277299 0.034366801 0.57910198 4278190080
0.34863299 0.036554001 0.57910198 4278190080
0.35449201 0.037129 0.57910198 4278190080
0.36035201 0.037331302 0.57910198 4278190080
0.366211 0.037898902 0.57910198 4278190080
0.37207001 0.0336155 0.57910198 4278190080
0.32519501 0.026367201 0.58455199 4278190080
0.33105499 0.026367201 0.58300102 4278190080
0.336914 0.026367201 0.58196598 4278190080
0.34581801 0.026367201 0.57910198 4278190080
0.34277299 0.0277544 0.57910198 4278190080
0.34277299 0.026367201 0.57993501 4278190080
0.36457601 0.026367201 0.57910198 4278190080
0.366211 0.027766099 0.57910198 4278190080
0.366211 0.026367201 0.58017898 4278190080
0.37207001 0.031520098 0.57910198 4278190080
0.37207001 0.026367201 0.58182901 4278190080
0.37958899 0.043945301 0.56738299 4278190080
0.383789 0.043945301 0.57160997 4278190080
0.36806601 0.043945301 0.56738299 4278190080
0.31347701 0.0146484 0.58988398 4278190080
0.319336 0.0146484 0.58874899 4278190080
0.32519501 0.0178273 0.584961 4278190080
0.32519501 0.0146484 0.58737302 4278190080
0.33105499 0.015937701 0.584961 4278190080
0.33105499 0.0146484 0.58672798 4278190080
0.336914 0.0152453 0.584961 4278190080
0.336914 0.0146484 0.58606201 4278190080
0.34277299 0.0164323 0.584961 4278190080
0.34277299 0.0146484 0.58754897 4278190080
0.34863299 0.018351199 0.584961 4278190080
0.34863299 0.0146484 0.58898002 4278190080
0.35449201 0.018615101 0.584961 4278190080
0.35449201 0.0146484 0.58989203 4278190080
0.36035201 0.020043699 0.584961 4278190080
0.37792999 0.0368446 0.57324201 4278190080
0.37792999 0.0322266 0.57867402 4278190080
0.36901599 0.0380859 0.57324201 4278190080
0.37207001 0.0380859 0.57622302 4278190080
0.319336 0.0322266 0.58931899 4278190080
0.32600799 0.0322266 0.584961 4278190080
0.32519501 0.0322266 0.58553803 4278190080
0.33105499 0.036125802 0.584961 4278190080
0.37792999 0.031983301 0.57910198 4278190080
0.37792999 0.026367201 0.58433998 4278190080
0.31347701 0.020507799 0.58896798 4278190080
0.32356599 0.020507799 0.584961 4278190080
0.319336 0.020507799 0.58732003 4278190080
0.36168501 0.020507799 0.584961 4278190080
0.366211 0.022123501 0.584961 4278190080
0.366211 0.020507799 0.586882 4278190080
0.37207001 0.023742801 0.584961 4278190080
0.37207001 0.020507799 0.58858103 4278190080
0.31347701 0.026367201 0.589001 4278190080
0.32438901 0.026367201 0.584961 4278190080
0.319336 0.026367201 0.58779401 4278190080
0.32519501 0.030025201 0.584961 4278190080
0.30175799 0.0146484 0.596044 4278190080
0.310175 0.0146484 0.59082001 4278190080
0.30761701 0.0146484 0.59215099 4278190080
0.35811999 0.0146484 0.59082001 4278190080
0.36035201 0.0153909 0.59082001 4278190080
0.36035201 0.0146484 0.591892 4278190080
0.366211 0.0174942 0.59082001 4278190080
0.366211 0.0146484 0.59455901 4278190080
0.37207001 0.0189422 0.59082001 4278190080
0.37207001 0.0146484 0.59637803 4278190080
0.37977701 0.0380859 0.57324201 4278190080
0.383789 0.042202801 0.57324201 4278190080
0.383789 0.0380859 0.57615799 4278190080
0.38964799 0.0380859 0.57853299 4278190080
0.37792999 0.0179449 0.59667999 4278190080
0.37792999 0.0146484 0.60050702 4278190080
0.383789 0.020162299 0.59667999 4278190080
0.37792999 0.021976201 0.59082001 4278190080
0.37792999 0.020507799 0.592623 4278190080
0.383789 0.0246081 0.59082001 4278190080
0.383789 0.020507799 0.596178 4278190080
0.369872 0.043945301 0.57324201 4278190080
0.37207001 0.043945301 0.57464302 4278190080
0.336914 0.0380859 0.58354998 4278190080
0.34277299 0.0380859 0.58197302 4278190080
0.34863299 0.0380859 0.579961 4278190080
0.35449201 0.0380859 0.57968199 4278190080
0.36035201 0.0380859 0.57970297 4278190080
0.366211 0.0380859 0.579238 4278190080
0.376632 0.0380859 0.57910198 4278190080
0.37207001 0.0380859 0.58083302 4278190080
0.30761701 0.0322266 0.59540302 4278190080
0.314533 0.0322266 0.59082001 4278190080
0.31347701 0.0322266 0.591555 4278190080
0.319336 0.035225902 0.59082001 4278190080
0.301103 0.0146484 0.59667999 4278190080
0.319336 0.0146484 0.60174 4278190080
0.32519501 0.0146484 0.600003 4278190080
0.33105499 0.0146484 0.59976101 4278190080
0.336914 0.0146484 0.59969503 4278190080
0.34277299 0.0146484 0.60148102 4278190080
0.37256601 0.0146484 0.59667999 4278190080
0.31075901 0.026367201 0.59082001 4278190080
0.30761701 0.026367201 0.59369898 4278190080
0.31347701 0.031346802 0.59082001 4278190080
0.30175799 0.020507799 0.59636199 4278190080
0.307933 0.020507799 0.59082001 4278190080
0.30761701 0.020507799 0.59104002 4278190080
0.37583199 0.020507799 0.59082001 4278190080
0.37792999 0.043945301 0.57867599 4278190080
0.38529301 0.043945301 0.57324201 4278190080
0.38964799 0.043945301 0.57823998 4278190080
0.37873101 0.026367201 0.584961 4278190080
0.383789 0.030957701 0.584961 4278190080
0.383789 0.026367201 0.589091 4278190080
0.34277299 0.043945301 0.584508 4278190080
0.34863299 0.043945301 0.58330703 4278190080
0.35449201 0.043945301 0.582919 4278190080
0.36035201 0.043945301 0.58431703 4278190080
0.32519501 0.0380859 0.59061903 4278190080
0.33336601 0.0380859 0.584961 4278190080
0.33105499 0.0380859 0.58675998 4278190080
0.336914 0.0403901 0.584961 4278190080
0.366211 0.041761901 0.584961 4278190080
0.37654299 0.0380859 0.584961 4278190080
0.37207001 0.039742801 0.584961 4278190080
0.381585 0.0146484 0.602539 4278190080
0.383789 0.0161003 0.602539 4278190080
0.383789 0.0146484 0.604608 4278190080
0.38964799 0.0190206 0.602539 4278190080
0.29657799 0.0146484 0.602539 4278190080
0.29589799 0.0146484 0.60337698 4278190080
0.31785399 0.0146484 0.602539 4278190080
0.31347701 0.0146484 0.60472703 4278190080
0.319336 0.0155883 0.602539 4278190080
0.32519501 0.018191 0.602539 4278190080
0.33105499 0.0174149 0.602539 4278190080
0.336914 0.0169334 0.602539 4278190080
0.34466201 0.0146484 0.602539 4278190080
0.34277299 0.0154123 0.602539 4278190080
0.34863299 0.0146484 0.604963 4278190080
0.30621001 0.0322266 0.59667999 4278190080
0.30175799 0.0322266 0.60134703 4278190080
0.30761701 0.034650698 0.59667999 4278190080
0.38465101 0.020507799 0.59667999 4278190080
0.38964799 0.02361 0.59667999 4278190080
0.38964799 0.020507799 0.60028398 4278190080
0.37792999 0.041634299 0.57910198 4278190080
0.37792999 0.0380859 0.58073002 4278190080
0.383789 0.0380859 0.58248901 4278190080
0.39040601 0.0380859 0.57910198 4278190080
0.39550799 0.0380859 0.584032 4278190080
0.30341199 0.026367201 0.59667999 4278190080
0.30175799 0.026367201 0.598557 4278190080
0.37836999 0.0322266 0.57910198 4278190080
0.383789 0.0358686 0.57910198 4278190080
0.383789 0.0322266 0.58332199 4278190080
0.38964799 0.037465502 0.57910198 4278190080
0.301431 0.020507799 0.59667999 4278190080
0.30175799 0.0217291 0.59667999 4278190080
0.31347701 0.0380859 0.59563202 4278190080
0.32486099 0.0380859 0.59082001 4278190080
0.319336 0.0380859 0.593642 4278190080
0.32519501 0.038252901 0.59082001 4278190080
0.33105499 0.043368101 0.59082001 4278190080
0.38701001 0.026367201 0.59082001 4278190080
0.38964799 0.026367201 0.59328902 4278190080
0.39550799 0.031601101 0.59082001 4278190080
0.34174299 0.043945301 0.584961 4278190080
0.336914 0.043945301 0.58775502 4278190080
0.34277299 0.044381 0.584961 4278190080
0.34863299 0.0460039 0.584961 4278190080
0.35449201 0.046207 0.584961 4278190080
0.361873 0.043945301 0.584961 4278190080
0.36035201 0.0445465 0.584961 4278190080
0.366211 0.043945301 0.58694899 4278190080
0.37207001 0.043945301 0.58895302 4278190080
0.293497 0.0146484 0.60839802 4278190080
0.290039 0.0146484 0.61399603 4278190080
0.31161401 0.0146484 0.60839802 4278190080
0.31347701 0.016874701 0.60839802 4278190080
0.35184199 0.0146484 0.60839802 4278190080
0.34863299 0.0173792 0.60839802 4278190080
0.35449201 0.0146484 0.61196297 4278190080
0.30068901 0.0322266 0.602539 4278190080
0.30175799 0.034384601 0.602539 4278190080
0.38782799 0.0146484 0.60839802 4278190080
0.38964799 0.0158229 0.60839802 4278190080
0.38964799 0.0146484 0.61000001 4278190080
0.39550799 0.018699801 0.60839802 4278190080
0.39550799 0.0146484 0.61402398 4278190080
0.37860101 0.043945301 0.57910198 4278190080
0.37792999 0.045977801 0.57910198 4278190080
0.383789 0.043945301 0.58086699 4278190080
0.39013699 0.043945301 0.57910198 4278190080
0.38964799 0.044819001 0.57910198 4278190080
0.39550799 0.043945301 0.58437902 4278190080
0.299339 0.026367201 0.602539 4278190080
0.29589799 0.026367201 0.60799998 4278190080
0.29764399 0.020507799 0.602539 4278190080
0.29589799 0.020507799 0.60509402 4278190080
0.319336 0.020507799 0.607171 4278190080
0.32519501 0.020507799 0.604707 4278190080
0.33105499 0.020507799 0.60544902 4278190080
0.336914 0.020507799 0.60632801 4278190080
0.34277299 0.020507799 0.60824901 4278190080
0.39252201 0.020507799 0.602539 4278190080
0.39550799 0.022647601 0.602539 4278190080
0.39550799 0.020507799 0.60517502 4278190080
0.37792999 0.0380859 0.58597201 4278190080
0.38604599 0.0380859 0.584961 4278190080
0.38964799 0.0380859 0.58795601 4278190080
0.396927 0.0380859 0.584961 4278190080
0.40136701 0.0380859 0.58934098 4278190080
0.31164399 0.0380859 0.59667999 4278190080
0.30761701 0.0380859 0.59948498 4278190080
0.31347701 0.039212301 0.59667999 4278190080
0.319336 0.042783301 0.59667999 4278190080
0.37792999 0.036467101 0.584961 4278190080
0.38819 0.0322266 0.584961 4278190080
0.383789 0.034959599 0.584961 4278190080
0.38964799 0.033126701 0.584961 4278190080
0.39550799 0.036760401 0.584961 4278190080
0.39550799 0.0322266 0.58986402 4278190080
0.39407799 0.026367201 0.59667999 4278190080
0.39550799 0.026367201 0.597866 4278190080
0.28987801 0.0146484 0.61425799 4278190080
0.290039 0.0152668 0.61425799 4278190080
0.31081301 0.0146484 0.61425799 4278190080
0.31347701 0.0187073 0.61425799 4278190080
0.35575399 0.0146484 0.61425799 4278190080
0.35449201 0.016066801 0.61425799 4278190080
0.29783401 0.0322266 0.60839802 4278190080
0.29589799 0.0322266 0.61277199 4278190080
0.32519501 0.043945301 0.59504998 4278190080
0.331563 0.043945301 0.59082001 4278190080
0.33105499 0.043945301 0.59152502 4278190080
0.336914 0.049125101 0.59082001 4278190080
0.37394801 0.043945301 0.59082001 4278190080
0.37207001 0.045662001 0.59082001 4278190080
0.29565099 0.026367201 0.60839802 4278190080
0.29589799 0.0270823 0.60839802 4278190080
0.33105499 0.026367201 0.612643 4278190080
0.336914 0.026367201 0.612212 4278190080
0.39578399 0.0146484 0.61425799 4278190080
0.40136701 0.0193727 0.61425799 4278190080
0.40136701 0.0146484 0.61889398 4278190080
0.29421899 0.020507799 0.60839802 4278190080
0.31847799 0.020507799 0.60839802 4278190080
0.319336 0.021649599 0.60839802 4278190080
0.32519501 0.023508299 0.60839802 4278190080
0.33105499 0.023662999 0.60839802 4278190080
0.336914 0.02328 0.60839802 4278190080
0.34305799 0.020507799 0.60839802 4278190080
0.34277299 0.0206846 0.60839802 4278190080
0.34863299 0.020507799 0.61256099 4278190080
0.39800501 0.020507799 0.60839802 4278190080
0.40136701 0.020507799 0.61278099 4278190080
0.30452999 0.0380859 0.602539 4278190080
0.30175799 0.0380859 0.60646302 4278190080
0.30761701 0.042861599 0.602539 4278190080
0.38896599 0.043945301 0.584961 4278190080
0.383789 0.049112201 0.584961 4278190080
0.38964799 0.048003402 0.584961 4278190080
0.38964799 0.043945301 0.585518 4278190080
0.39611799 0.043945301 0.584961 4278190080
0.39550799 0.045058701 0.584961 4278190080
0.40136701 0.043945301 0.58974898 4278190080
0.29522499 0.0322266 0.61425799 4278190080
0.29589799 0.033920798 0.61425799 4278190080
0.39821699 0.026367201 0.602539 4278190080
0.39550799 0.0290676 0.602539 4278190080
0.28876001 0.0146484 0.62011701 4278190080
0.31021199 0.0146484 0.62011701 4278190080
0.31347701 0.0194197 0.62011701 4278190080
0.357077 0.0146484 0.62011701 4278190080
0.35449201 0.0186156 0.62011701 4278190080
0.36035201 0.0146484 0.62419403 4278190080
0.31347701 0.043945301 0.60130399 4278190080
0.32080799 0.043945301 0.59667999 4278190080
0.319336 0.043945301 0.59793103 4278190080
0.32519501 0.047547501 0.59667999 4278190080
0.33105499 0.0496176 0.59667999 4278190080
0.38114199 0.0380859 0.59082001 4278190080
0.37792999 0.0402615 0.59082001 4278190080
0.383789 0.0380859 0.59338099 4278190080
0.39284 0.0380859 0.59082001 4278190080
0.39550799 0.0380859 0.59260702 4278190080
0.40237001 0.0380859 0.59082001 4278190080
0.40136701 0.0380859 0.59281498 4278190080
0.29365599 0.026367201 0.61425799 4278190080
0.32825801 0.026367201 0.61425799 4278190080
0.32519501 0.026367201 0.619241 4278190080
0.33105499 0.0272089 0.61425799 4278190080
0.34206301 0.026367201 0.61425799 4278190080
0.336914 0.0277592 0.61425799 4278190080
0.34277299 0.026367201 0.61471999 4278190080
0.38937899 0.0322266 0.59082001 4278190080
0.383789 0.034587301 0.59082001 4278190080
0.39063701 0.0322266 0.59082001 4278190080
0.38964799 0.0322266 0.59106302 4278190080
0.39801899 0.0322266 0.59082001 4278190080
0.39550799 0.0322266 0.59215301 4278190080
0.40136701 0.034903798 0.59082001 4278190080
0.29167899 0.020507799 0.61425799 4278190080
0.290039 0.020507799 0.61878198 4278190080
0.31586301 0.020507799 0.61425799 4278190080
0.319336 0.023943501 0.61425799 4278190080
0.32519501 0.025603401 0.61425799 4278190080
0.34277299 0.0261476 0.61425799 4278190080
0.34991699 0.020507799 0.61425799 4278190080
0.34863299 0.022008801 0.61425799 4278190080
0.40246201 0.0146484 0.62011701 4278190080
0.29232901 0.0322266 0.62011701 4278190080
0.290039 0.0322266 0.62506801 4278190080
0.300686 0.0380859 0.60839802 4278190080
0.30175799 0.0403229 0.60839802 4278190080
0.402172 0.020507799 0.61425799 4278190080
0.40136701 0.025377801 0.61425799 4278190080
0.39978701 0.026367201 0.60839802 4278190080
0.28680801 0.0146484 0.62597698 4278190080
0.31229001 0.0146484 0.62597698 4278190080
0.31347701 0.017400101 0.62597698 4278190080
0.31347701 0.0146484 0.63119602 4278190080
0.361453 0.0146484 0.62597698 4278190080
0.36035201 0.016651399 0.62597698 4278190080
0.30952799 0.043945301 0.602539 4278190080
0.30761701 0.043945301 0.604087 4278190080
0.31347701 0.047145601 0.602539 4278190080
0.29124799 0.026367201 0.62011701 4278190080
0.290039 0.026367201 0.62259799 4278190080
0.32486901 0.026367201 0.62011701 4278190080
0.32519501 0.0265301 0.62011701 4278190080
0.32519501 0.026367201 0.62042099 4278190080
0.33105499 0.0285997 0.62011701 4278190080
0.336914 0.029318901 0.62011701 4278190080
0.34741101 0.026367201 0.62011701 4278190080
0.34277299 0.0284793 0.62011701 4278190080
0.34863299 0.026367201 0.62411398 4278190080
0.37792999 0.043945301 0.59423798 4278190080
0.39452401 0.043945301 0.59082001 4278190080
0.39550799 0.049090698 0.59082001 4278190080
0.39550799 0.043945301 0.59160697 4278190080
0.40211099 0.043945301 0.59082001 4278190080
0.40136701 0.046450101 0.59082001 4278190080
0.40136701 0.043945301 0.59320199 4278190080
0.28962299 0.020507799 0.62011701 4278190080
0.290039 0.0218761 0.62011701 4278190080
0.31524199 0.020507799 0.62011701 4278190080
0.319336 0.0238676 0.62011701 4278190080
0.35305101 0.020507799 0.62011701 4278190080
0.34863299 0.0256395 0.62011701 4278190080
0.35449201 0.020507799 0.62418002 4278190080
0.386565 0.0380859 0.59667999 4278190080
0.383789 0.040076099 0.59667999 4278190080
0.38964799 0.0380859 0.60140502 4278190080
0.39304799 0.0322266 0.59667999 4278190080
0.38964799 0.034243301 0.59667999 4278190080
0.28949699 0.0322266 0.62597698 4278190080
0.290039 0.0347034 0.62597698 4278190080
0.404383 0.0146484 0.62597698 4278190080
0.40136701 0.017702101 0.62597698 4278190080
0.297564 0.0380859 0.61425799 4278190080
0.29589799 0.0380859 0.616768 4278190080
0.401187 0.026367201 0.61425799 4278190080
0.28461099 0.0146484 0.631836 4278190080
0.28417999 0.0146484 0.63432997 4278190080
0.313876 0.0146484 0.631836 4278190080
0.319336 0.0193242 0.631836 4278190080
0.319336 0.0146484 0.63556898 4278190080
0.32519501 0.0201695 0.631836 4278190080
0.36179 0.0146484 0.631836 4278190080
0.36035201 0.0194826 0.631836 4278190080
0.40274799 0.020507799 0.62011701 4278190080
0.40136701 0.0221013 0.62011701 4278190080
0.40136701 0.020507799 0.621777 4278190080
0.30487299 0.043945301 0.60839802 4278190080
0.30175799 0.043945301 0.61057198 4278190080
0.28831601 0.026367201 0.62597698 4278190080
0.32971999 0.026367201 0.62597698 4278190080
0.33105499 0.027120201 0.62597698 4278190080
0.33105499 0.026367201 0.626867 4278190080
0.336914 0.028492 0.62597698 4278190080
0.34277299 0.028078301 0.62597698 4278190080
0.34277299 0.026367201 0.62960303 4278190080
0.348993 0.026367201 0.62597698 4278190080
0.34863299 0.0266212 0.62597698 4278190080
0.34863299 0.026367201 0.62665701 4278190080
0.35449201 0.026367201 0.63103402 4278190080
0.28726399 0.020507799 0.62597698 4278190080
0.31734899 0.020507799 0.62597698 4278190080
0.319336 0.0224493 0.62597698 4278190080
0.319336 0.020507799 0.62935799 4278190080
0.32519501 0.0242106 0.62597698 4278190080
0.32519501 0.020507799 0.63116801 4278190080
0.355459 0.020507799 0.62597698 4278190080
0.35449201 0.021240801 0.62597698 4278190080
0.287505 0.0322266 0.631836 4278190080
0.29382899 0.0380859 0.62011701 4278190080
0.29589799 0.043699302 0.62011701 4278190080
0.39350599 0.0322266 0.602539 4278190080
0.39550799 0.0322266 0.60665202 4278190080
0.40430999 0.0146484 0.631836 4278190080
0.40136701 0.0150768 0.631836 4278190080
0.40136701 0.0146484 0.63270402 4278190080
0.38009501 0.043945301 0.59667999 4278190080
0.37792999 0.048172701 0.59667999 4278190080
0.383789 0.043945301 0.60026401 4278190080
0.390407 0.0380859 0.602539 4278190080
0.38964799 0.038879499 0.602539 4278190080
0.299261 0.043945301 0.61425799 4278190080
0.28372601 0.0146484 0.63769501 4278190080
0.28417999 0.020343499 0.63769501 4278190080
0.32504001 0.0146484 0.63769501 4278190080
0.32519501 0.014703 0.63769501 4278190080
0.32519501 0.0146484 0.63773102 4278190080
0.33105499 0.018583201 0.63769501 4278190080
0.36180499 0.0146484 0.63769501 4278190080
0.36035201 0.0171037 0.63769501 4278190080
0.40032101 0.026367201 0.62011701 4278190080
0.400278 0.020507799 0.62597698 4278190080
0.28520599 0.020507799 0.631836 4278190080
0.32591 0.020507799 0.631836 4278190080
0.33105499 0.0233886 0.631836 4278190080
0.33105499 0.020507799 0.635158 4278190080
0.34277299 0.0255417 0.631836 4278190080
0.34863299 0.0254377 0.631836 4278190080
0.35993701 0.020507799 0.631836 4278190080
0.28649399 0.026367201 0.631836 4278190080
0.336752 0.026367201 0.631836 4278190080
0.33765 0.026367201 0.631836 4278190080
0.336914 0.026482901 0.631836 4278190080
0.336914 0.026367201 0.63196802 4278190080
0.34277299 0.026367201 0.63283199 4278190080
0.35307899 0.026367201 0.631836 4278190080
0.34863299 0.026367201 0.63334 4278190080
0.35521001 0.026367201 0.631836 4278190080
0.35449201 0.0266831 0.631836 4278190080
0.28717601 0.0322266 0.63769501 4278190080
0.29080501 0.0380859 0.62597698 4278190080
0.290039 0.0380859 0.62809497 4278190080
0.39651701 0.0322266 0.60839802 4278190080
0.39550799 0.0330627 0.60839802 4278190080
0.29601499 0.043945301 0.62011701 4278190080
0.29589799 0.043945301 0.62029803 4278190080
0.39980799 0.026367201 0.62597698 4278190080
0.28402901 0.0146484 0.64355499 4278190080
0.28417999 0.0146484 0.64437598 4278190080
0.33084601 0.0146484 0.64355499 4278190080
0.33105499 0.0149014 0.64355499 4278190080
0.33105499 0.0146484 0.64441597 4278190080
0.363601 0.0146484 0.64355499 4278190080
0.366211 0.0146484 0.64794898 4278190080
0.39692801 0.0146484 0.63769501 4278190080
0.39550799 0.0146484 0.639404 4278190080
0.38625199 0.043945301 0.602539 4278190080
0.383789 0.047484301 0.602539 4278190080
0.38964799 0.043945301 0.60796303 4278190080
0.39282599 0.0380859 0.60839802 4278190080
0.39550799 0.0380859 0.61306798 4278190080
0.39819399 0.020507799 0.631836 4278190080
0.28881499 0.0380859 0.631836 4278190080
0.290039 0.04087 0.631836 4278190080
0.28419599 0.020507799 0.63769501 4278190080
0.28417999 0.020507799 0.637896 4278190080
0.33419701 0.020507799 0.63769501 4278190080
0.336914 0.0225049 0.63769501 4278190080
0.35777801 0.020507799 0.63769501 4278190080
0.36035201 0.020507799 0.64121199 4278190080
0.28613201 0.0322266 0.64355499 4278190080
0.28497401 0.026367201 0.63769501 4278190080
0.340204 0.026367201 0.63769501 4278190080
0.34277299 0.0281683 0.63769501 4278190080
0.34863299 0.031926598 0.63769501 4278190080
0.34863299 0.026367201 0.64334798 4278190080
0.35491601 0.026367201 0.63769501 4278190080
0.35449201 0.0271853 0.63769501 4278190080
0.35449201 0.026367201 0.63811201 4278190080
0.39748001 0.026367201 0.631836 4278190080
0.29307199 0.043945301 0.62597698 4278190080
0.39858299 0.0322266 0.61425799 4278190080
0.2854 0.0146484 0.649414 4278190080
0.33192599 0.0146484 0.649414 4278190080
0.36666 0.0146484 0.649414 4278190080
0.366211 0.016524401 0.649414 4278190080
0.366211 0.0146484 0.64965397 4278190080
0.287907 0.0380859 0.63769501 4278190080
0.393944 0.0146484 0.64355499 4278190080
0.38964799 0.0146484 0.64740598 4278190080
0.396357 0.020507799 0.63769501 4278190080
0.39550799 0.020507799 0.63862199 4278190080
0.28506401 0.0322266 0.649414 4278190080
0.396543 0.0380859 0.61425799 4278190080
0.39550799 0.039093401 0.61425799 4278190080
0.283871 0.020507799 0.64355499 4278190080
0.28417999 0.0249778 0.64355499 4278190080
0.28417999 0.020507799 0.64625502 4278190080
0.333774 0.020507799 0.64355499 4278190080
0.336914 0.025745699 0.64355499 4278190080
0.34863299 0.026164699 0.64355499 4278190080
0.35449201 0.024165399 0.64355499 4278190080
0.36164501 0.020507799 0.64355499 4278190080
0.36035201 0.0218239 0.64355499 4278190080
0.390003 0.043945301 0.60839802 4278190080
0.38964799 0.044505201 0.60839802 4278190080
0.284329 0.026367201 0.64355499 4278190080
0.33837599 0.026367201 0.64355499 4278190080
0.34835401 0.026367201 0.64355499 4278190080
0.34277299 0.0303254 0.64355499 4278190080
0.34277299 0.026367201 0.64589202 4278190080
0.34863299 0.026367201 0.64432001 4278190080
0.35449201 0.026367201 0.648009 4278190080
0.29125801 0.043945301 0.631836 4278190080
0.290039 0.043945301 0.63607597 4278190080
0.28697801 0.0146484 0.65527302 4278190080
0.335774 0.0146484 0.65527302 4278190080
0.336914 0.0146484 0.656856 4278190080
0.35449201 0.0146484 0.65844297 4278190080
0.36042401 0.0146484 0.65527302 4278190080
0.36035201 0.0146484 0.65641302 4278190080
0.39825401 0.0322266 0.62011701 4278190080
0.287074 0.0380859 0.64355499 4278190080
0.388212 0.0146484 0.649414 4278190080
0.383789 0.0146484 0.65245098 4278190080
0.38964799 0.0169835 0.649414 4278190080
0.28480399 0.020507799 0.649414 4278190080
0.33590499 0.020507799 0.649414 4278190080
0.336914 0.0221672 0.649414 4278190080
0.34277299 0.0244237 0.649414 4278190080
0.362744 0.020507799 0.649414 4278190080
0.36035201 0.0223184 0.649414 4278190080
0.28568 0.0322266 0.65527302 4278190080
0.34863299 0.0322266 0.66029602 4278190080
0.35449201 0.0322266 0.65838301 4278190080
0.392629 0.020507799 0.64355499 4278190080
0.28952301 0.043945301 0.63769501 4278190080
0.290039 0.045306299 0.63769501 4278190080
0.28461599 0.026367201 0.649414 4278190080
0.34757301 0.026367201 0.649414 4278190080
0.34863299 0.0269309 0.649414 4278190080
0.35602799 0.026367201 0.649414 4278190080
0.35449201 0.0273678 0.649414 4278190080
0.36035201 0.026367201 0.651977 4278190080
0.28939801 0.0146484 0.66113299 4278190080
0.290039 0.0146484 0.662319 4278190080
0.339021 0.0146484 0.66113299 4278190080
0.34277299 0.0146484 0.66321701 4278190080
0.350703 0.0146484 0.66113299 4278190080
0.34863299 0.0146484 0.66204399 4278190080
0.35449201 0.018918 0.66113299 4278190080
0.375065 0.0146484 0.66113299 4278190080
0.286443 0.0380859 0.649414 4278190080
0.39232701 0.043945301 0.61425799 4278190080
0.39550799 0.043945301 0.61961102 4278190080
0.39833 0.0322266 0.631836 4278190080
0.398837 0.0380859 0.62597698 4278190080
0.37792999 0.026367201 0.66639298 4278190080
0.286403 0.020507799 0.65527302 4278190080
0.33563799 0.020507799 0.65527302 4278190080
0.336914 0.0224861 0.65527302 4278190080
0.336914 0.020507799 0.656519 4278190080
0.34277299 0.025819801 0.65527302 4278190080
0.36269701 0.020507799 0.65527302 4278190080
0.36035201 0.020507799 0.65697497 4278190080
0.28781101 0.043945301 0.64355499 4278190080
0.38111699 0.0146484 0.65527302 4278190080
0.37792999 0.0146484 0.65861702 4278190080
0.287334 0.0322266 0.66113299 4278190080
0.34853899 0.0322266 0.66113299 4278190080
0.34863299 0.032336 0.66113299 4278190080
0.35686201 0.0322266 0.66113299 4278190080
0.35449201 0.034727499 0.66113299 4278190080
0.28617501 0.026367201 0.65527302 4278190080
0.34470701 0.026367201 0.65527302 4278190080
0.34863299 0.0291044 0.65527302 4278190080
0.35449201 0.029793 0.65527302 4278190080
0.362611 0.026367201 0.65527302 4278190080
0.36035201 0.0279555 0.65527302 4278190080
0.36035201 0.026367201 0.657148 4278190080
0.38964799 0.020507799 0.65116799 4278190080
0.292777 0.0146484 0.66699201 4278190080
0.29589799 0.0146484 0.67081398 4278190080
0.34863299 0.020444199 0.66699201 4278190080
0.37444001 0.0146484 0.66699201 4278190080
0.37207001 0.0146484 0.67003602 4278190080
0.286679 0.0380859 0.65527302 4278190080
0.287738 0.043945301 0.649414 4278190080
0.28891999 0.020507799 0.66113299 4278190080
0.290039 0.020507799 0.66331601 4278190080
0.34014201 0.020507799 0.66113299 4278190080
0.34277299 0.0260619 0.66113299 4278190080
0.34277299 0.020507799 0.66280699 4278190080
0.35585299 0.020507799 0.66113299 4278190080
0.37792999 0.0170788 0.66113299 4278190080
0.28967199 0.0322266 0.66699201 4278190080
0.290039 0.0322266 0.66769999 4278190080
0.35604799 0.0322266 0.66699201 4278190080
0.35449201 0.0334775 0.66699201 4278190080
0.28812599 0.026367201 0.66113299 4278190080
0.290039 0.026367201 0.66543603 4278190080
0.34323299 0.026367201 0.66113299 4278190080
0.356599 0.026367201 0.66113299 4278190080
0.35449201 0.026367201 0.66380399 4278190080
0.29736999 0.0146484 0.67285198 4278190080
0.29589799 0.019957701 0.67285198 4278190080
0.30175799 0.0146484 0.677881 4278190080
0.36863399 0.0146484 0.67285198 4278190080
0.366211 0.0146484 0.67520201 4278190080
0.28754699 0.0380859 0.66113299 4278190080
0.28775901 0.043945301 0.65527302 4278190080
0.29189801 0.020507799 0.66699201 4278190080
0.34856901 0.020507799 0.66699201 4278190080
0.34863299 0.020507799 0.66706198 4278190080
0.376185 0.020507799 0.66699201 4278190080
0.37207001 0.020507799 0.671911 4278190080
0.37792999 0.020507799 0.66540998 4278190080
0.302394 0.0146484 0.678711 4278190080
0.30175799 0.016551699 0.678711 4278190080
0.30761701 0.0146484 0.68323702 4278190080
0.35449201 0.0146484 0.682832 4278190080
0.362257 0.0146484 0.678711 4278190080
0.36035201 0.0146484 0.68026698 4278190080
0.29286301 0.0322266 0.67285198 4278190080
0.29589799 0.0322266 0.678509 4278190080
0.37435299 0.0322266 0.67285198 4278190080
0.37207001 0.0322266 0.67489499 4278190080
0.28904301 0.0380859 0.66699201 4278190080
0.290039 0.0380859 0.66964501 4278190080
0.29074401 0.026367201 0.66699201 4278190080
0.290039 0.030063899 0.66699201 4278190080
0.35449201 0.0296258 0.66699201 4278190080
0.37771901 0.026367201 0.66699201 4278190080
0.28826001 0.043945301 0.66113299 4278190080
0.295726 0.020507799 0.67285198 4278190080
0.29589799 0.020507799 0.67308003 4278190080
0.371106 0.020507799 0.67285198 4278190080
0.366211 0.020507799 0.67746001 4278190080
0.37207001 0.022071701 0.67285198 4278190080
0.30918801 0.0146484 0.68457001 4278190080
0.30761701 0.0194465 0.68457001 4278190080
0.31347701 0.0146484 0.68805701 4278190080
0.33105499 0.0146484 0.69014299 4278190080
0.336914 0.0146484 0.688546 4278190080
0.34277299 0.0146484 0.687648 4278190080
0.35112199 0.0146484 0.68457001 4278190080
0.34863299 0.0146484 0.685799 4278190080
0.35449201 0.0191426 0.68457001 4278190080
0.29155299 0.0380859 0.67285198 4278190080
0.37207001 0.0380859 0.67521602 4278190080
0.29429099 0.026367201 0.67285198 4278190080
0.29589799 0.026367201 0.67512298 4278190080
0.37207001 0.026367201 0.67456901 4278190080
0.296029 0.0322266 0.678711 4278190080
0.29589799 0.032741401 0.678711 4278190080
0.36035201 0.0322266 0.68392402 4278190080
0.36819401 0.0322266 0.678711 4278190080
0.366211 0.0322266 0.680704 4278190080
0.28927901 0.043945301 0.66699201 4278190080
0.290039 0.043945301 0.67062002 4278190080
0.30008399 0.020507799 0.678711 4278190080
0.30175799 0.020507799 0.679995 4278190080
0.36436999 0.020507799 0.678711 4278190080
0.36035201 0.020507799 0.681243 4278190080
0.366211 0.0241352 0.678711 4278190080
0.29430601 0.0380859 0.678711 4278190080
0.29589799 0.0380859 0.68131602 4278190080
0.36990499 0.0380859 0.678711 4278190080
0.366211 0.0380859 0.68170297 4278190080
0.31756401 0.0146484 0.69042999 4278190080
0.31347701 0.019711901 0.69042999 4278190080
0.319336 0.0146484 0.69108498 4278190080
0.33018401 0.0146484 0.69042999 4278190080
0.32519501 0.0146484 0.69185299 4278190080
0.33105499 0.0154306 0.69042999 4278190080
0.298226 0.026367201 0.678711 4278190080
0.30175799 0.026367201 0.68193799 4278190080
0.36035201 0.026367201 0.68311 4278190080
0.36687499 0.026367201 0.678711 4278190080
0.366211 0.026367201 0.67947102 4278190080
0.301368 0.0322266 0.68457001 4278190080
0.30175799 0.0322266 0.68498099 4278190080
0.30761701 0.0322266 0.68938601 4278190080
0.34863299 0.0322266 0.68980598 4278190080
0.35919201 0.0322266 0.68457001 4278190080
0.35449201 0.0322266 0.68696898 4278190080
0.36035201 0.0339371 0.68457001 4278190080
0.29083899 0.043945301 0.67285198 4278190080
0.37207001 0.043945301 0.67646098 4278190080
0.30722201 0.020507799 0.68457001 4278190080
0.30761701 0.020507799 0.68485999 4278190080
0.336914 0.020507799 0.68973398 4278190080
0.34277299 0.020507799 0.68818003 4278190080
0.34863299 0.020507799 0.686625 4278190080
0.355055 0.020507799 0.68457001 4278190080
0.35449201 0.020507799 0.68496698 4278190080
0.298419 0.0380859 0.68457001 4278190080
0.30175799 0.0380859 0.68746001 4278190080
0.35449201 0.0380859 0.68861997 4278190080
0.361734 0.0380859 0.68457001 4278190080
0.36035201 0.0380859 0.68589902 4278190080
0.30447501 0.026367201 0.68457001 4278190080
0.30175799 0.031638298 0.68457001 4278190080
0.30761701 0.026367201 0.687231 4278190080
0.34277299 0.026367201 0.68899399 4278190080
0.34863299 0.026367201 0.688025 4278190080
0.357802 0.026367201 0.68457001 4278190080
0.35449201 0.026367201 0.68625897 4278190080
0.30928299 0.0322266 0.69042999 4278190080
0.30761701 0.035531402 0.69042999 4278190080
0.31347701 0.0322266 0.692765 4278190080
0.319336 0.0322266 0.69574201 4278190080
0.33105499 0.0322266 0.69476199 4278190080
0.336914 0.0322266 0.69302201 4278190080
0.34523299 0.0322266 0.69042999 4278190080
0.34277299 0.0322266 0.69091398 4278190080
0.34863299 0.0359952 0.69042999 4278190080
0.29358199 0.043945301 0.678711 4278190080
0.29589799 0.043945301 0.68231702 4278190080
0.36926401 0.043945301 0.678711 4278190080
0.366211 0.049766101 0.678711 4278190080
0.366211 0.043945301 0.68233901 4278190080
0.31310001 0.020507799 0.69042999 4278190080
0.31347701 0.020507799 0.69070297 4278190080
0.319336 0.020507799 0.69233203 4278190080
0.32519501 0.020507799 0.69308102 4278190080
0.33490899 0.020507799 0.69042999 4278190080
0.33105499 0.020507799 0.692155 4278190080
0.336914 0.0236899 0.69042999 4278190080
0.30593199 0.0380859 0.69042999 4278190080
0.30761701 0.0380859 0.69127703 4278190080
0.31347701 0.0380859 0.69468302 4278190080
0.336914 0.0380859 0.69450098 4278190080
0.34277299 0.0380859 0.69275397 4278190080
0.34931701 0.0380859 0.69042999 4278190080
0.34863299 0.0380859 0.69070703 4278190080
0.31251499 0.026367201 0.69042999 4278190080
0.31347701 0.026367201 0.69115502 4278190080
0.319336 0.026367201 0.69389999 4278190080
0.32519501 0.026367201 0.69474697 4278190080
0.33105499 0.026367201 0.69351101 4278190080
0.33832601 0.026367201 0.69042999 4278190080
0.336914 0.026367201 0.69101697 4278190080
0.34277299 0.0308722 0.69042999 4278190080
0.297492 0.043945301 0.68457001 4278190080
0.30175799 0.043945301 0.68945998 4278190080
0.35449201 0.043945301 0.69026297 4278190080
0.363796 0.043945301 0.68457001 4278190080
0.36035201 0.043945301 0.68687397 4278190080
0.32348901 0.0322266 0.696289 4278190080
0.319336 0.033603899 0.696289 4278190080
0.32571799 0.0322266 0.696289 4278190080
0.32519501 0.0322266 0.69644099 4278190080
0.33105499 0.036651 0.696289 4278190080
0.31626001 0.0380859 0.696289 4278190080
0.31347701 0.043488599 0.696289 4278190080
0.319336 0.0380859 0.69738102 4278190080
0.32519501 0.0380859 0.69787002 4278190080
0.332187 0.0380859 0.696289 4278190080
0.33105499 0.0380859 0.696877 4278190080
0.336914 0.043813702 0.696289 4278190080
0.32519501 0.031627301 0.696289 4278190080
0.302688 0.043945301 0.69042999 4278190080
0.30175799 0.047138199 0.69042999 4278190080
0.30761701 0.043945301 0.69337201 4278190080
0.34277299 0.043945301 0.69420701 4278190080
0.35402 0.043945301 0.69042999 4278190080
0.34863299 0.043945301 0.69218498 4278190080
0.35449201 0.0445657 0.69042999 4278190080
0.313196 0.043945301 0.696289 4278190080
0.31347701 0.043945301 0.69640899 4278190080
0.319336 0.043945301 0.69853199 4278190080
0.32519501 0.043945301 0.70072299 4278190080
0.33105499 0.043945301 0.69804001 4278190080
0.336997 0.043945301 0.696289 4278190080
0.336914 0.043945301 0.696325 4278190080
0.32519501 0.049223199 0.70214802 4278190080
0.37792999 0.0615234 0.57317501 4278190080
0.37792999 0.0556641 0.56683803 4278190080
0.383789 0.0556641 0.56659001 4278190080
0.37792999 0.067382798 0.57863402 4278190080
0.383789 0.067382798 0.57617801 4278190080
0.38964799 0.067382798 0.57594299 4278190080
0.383789 0.0791016 0.58380598 4278190080
0.38964799 0.0791016 0.58492202 4278190080
0.37792999 0.0563959 0.56738299 4278190080
0.38610101 0.0556641 0.56738299 4278190080
0.383789 0.0571784 0.56738299 4278190080
0.37816799 0.0615234 0.57324201 4278190080
0.37792999 0.061731499 0.57324201 4278190080
0.383789 0.0615234 0.57519901 4278190080
0.37792999 0.067726098 0.57910198 4278190080
0.383789 0.0702499 0.57910198 4278190080
0.391949 0.067382798 0.57910198 4278190080
0.39550799 0.067382798 0.58322197 4278190080
0.37207001 0.0556641 0.56731302 4278190080
0.378003 0.0791016 0.584961 4278190080
0.37792999 0.0791016 0.58499002 4278190080
0.38993201 0.0791016 0.584961 4278190080
0.38964799 0.079139598 0.584961 4278190080
0.39550799 0.0791016 0.585832 4278190080
0.37792999 0.0556641 0.57839298 4278190080
0.38547599 0.0556641 0.57324201 4278190080
0.383789 0.0569924 0.57324201 4278190080
0.383789 0.0556641 0.57414401 4278190080
0.37792999 0.0615234 0.58439201 4278190080
0.38908499 0.0615234 0.57910198 4278190080
0.383789 0.0615234 0.58359897 4278190080
0.38964799 0.0631973 0.57910198 4278190080
0.38964799 0.0615234 0.58361501 4278190080
0.37792999 0.049804699 0.56542498 4278190080
0.39651901 0.067382798 0.584961 4278190080
0.40136701 0.071247198 0.584961 4278190080
0.39825901 0.0791016 0.59082001 4278190080
0.39550799 0.081350803 0.59082001 4278190080
0.40136701 0.0791016 0.59446502 4278190080
0.37187099 0.0556641 0.56738299 4278190080
0.366211 0.0556641 0.57318598 4278190080
0.37207001 0.0557735 0.56738299 4278190080
0.37792999 0.0560937 0.57910198 4278190080
0.383789 0.058282498 0.57910198 4278190080
0.383789 0.0556641 0.58328903 4278190080
0.37792999 0.061896201 0.584961 4278190080
0.37792999 0.0615234 0.58560997 4278190080
0.389092 0.0615234 0.584961 4278190080
0.383789 0.062306199 0.584961 4278190080
0.383789 0.0615234 0.58817297 4278190080
0.38978299 0.0615234 0.584961 4278190080
0.39550799 0.066716 0.584961 4278190080
0.39550799 0.0615234 0.58846098 4278190080
0.40136701 0.0615234 0.589715 4278190080
0.37207001 0.049804699 0.56580001 4278190080
0.398123 0.067382798 0.59082001 4278190080
0.40136701 0.070914596 0.59082001 4278190080
0.40136701 0.067382798 0.59305203 4278190080
0.38964799 0.073242202 0.57867199 4278190080
0.381589 0.0556641 0.584961 4278190080
0.38504699 0.0556641 0.584961 4278190080
0.383789 0.058686599 0.584961 4278190080
0.383789 0.0556641 0.58639902 4278190080
0.38964799 0.06137 0.584961 4278190080
0.366153 0.0556641 0.57324201 4278190080
0.366211 0.0558649 0.57324201 4278190080
0.366211 0.0556641 0.573327 4278190080
0.37207001 0.060475498 0.57324201 4278190080
0.37207001 0.0556641 0.57837802 4278190080
0.383564 0.049804699 0.56738299 4278190080
0.383789 0.0504006 0.56738299 4278190080
0.383789 0.049804699 0.56867898 4278190080
0.37792999 0.0615234 0.59432799 4278190080
0.39550799 0.0615234 0.59489799 4278190080
0.40185899 0.0615234 0.59082001 4278190080
0.40136701 0.062828399 0.59082001 4278190080
0.40136701 0.0615234 0.59300297 4278190080
0.36801299 0.049804699 0.56738299 4278190080
0.37792999 0.059553999 0.59082001 4278190080
0.383789 0.060345601 0.59082001 4278190080
0.38964799 0.056908399 0.59082001 4278190080
0.39550799 0.0575932 0.59082001 4278190080
0.40136701 0.060529102 0.59082001 4278190080
0.37207001 0.0571343 0.57910198 4278190080
0.37207001 0.0791016 0.58941102 4278190080
0.40136701 0.067382798 0.60462999 4278190080
0.37792999 0.073242202 0.58039403 4278190080
0.38706201 0.073242202 0.57910198 4278190080
0.383789 0.073242202 0.57968098 4278190080
0.39099801 0.073242202 0.57910198 4278190080
0.38964799 0.073563002 0.57910198 4278190080
0.39550799 0.073242202 0.58107698 4278190080
0.40136701 0.073242202 0.58411002 4278190080
0.38455799 0.049804699 0.57324201 4278190080
0.381219 0.0615234 0.59667999 4278190080
0.37792999 0.062701002 0.59667999 4278190080
0.383789 0.0615234 0.60210198 4278190080
0.39445499 0.0615234 0.59667999 4278190080
0.39550799 0.061953299 0.59667999 4278190080
0.39550799 0.0615234 0.59835899 4278190080
0.40136701 0.0628649 0.59667999 4278190080
0.366211 0.0614531 0.584961 4278190080
0.37207001 0.0609488 0.584961 4278190080
0.36522299 0.0791016 0.59082001 4278190080
0.36035201 0.0791016 0.59487098 4278190080
0.37792999 0.0556641 0.60127997 4278190080
0.383789 0.059660599 0.59667999 4278190080
0.38964799 0.056807 0.59667999 4278190080
0.39550799 0.0556641 0.598149 4278190080
0.40136701 0.0556641 0.60127699 4278190080
0.367351 0.049804699 0.57324201 4278190080
0.366211 0.0554699 0.57324201 4278190080
0.37207001 0.049804699 0.57615501 4278190080
0.39875799 0.067382798 0.60839802 4278190080
0.37207001 0.067382798 0.57810003 4278190080
0.34277299 0.0556641 0.59473902 4278190080
0.34863299 0.0556641 0.59226298 4278190080
0.35449201 0.0556641 0.59165299 4278190080
0.36035201 0.0556641 0.59375799 4278190080
0.366211 0.0556641 0.59484798 4278190080
0.37207001 0.0556641 0.59649402 4278190080
0.37792999 0.079079501 0.584961 4278190080
0.39550799 0.077605203 0.584961 4278190080
0.40136701 0.073646501 0.584961 4278190080
0.34499899 0.0791016 0.59667999 4278190080
0.37792999 0.0541813 0.57910198 4278190080
0.37792999 0.049804699 0.579548 4278190080
0.385077 0.049804699 0.57910198 4278190080
0.383789 0.051850799 0.57910198 4278190080
0.37207001 0.073242202 0.58317101 4278190080
0.37792999 0.061685901 0.602539 4278190080
0.37792999 0.0615234 0.60268998 4278190080
0.38448399 0.0615234 0.602539 4278190080
0.383789 0.061582401 0.602539 4278190080
0.383789 0.0615234 0.602853 4278190080
0.39851299 0.0615234 0.602539 4278190080
0.40136701 0.063343003 0.602539 4278190080
0.37941 0.0556641 0.602539 4278190080
0.37792999 0.061094299 0.602539 4278190080
0.383789 0.0556641 0.60837197 4278190080
0.390674 0.0556641 0.602539 4278190080
0.38964799 0.057641 0.602539 4278190080
0.401631 0.0556641 0.602539 4278190080
0.40136701 0.056838602 0.602539 4278190080
0.40136701 0.0556641 0.603908 4278190080
0.37702 0.049804699 0.57910198 4278190080
0.39918199 0.067382798 0.61425799 4278190080
0.36914399 0.067382798 0.57910198 4278190080
0.366211 0.067382798 0.580809 4278190080
0.37207001 0.068150297 0.57910198 4278190080
0.32519501 0.0556641 0.60232103 4278190080
0.33105499 0.0556641 0.59965903 4278190080
0.33819899 0.0556641 0.59667999 4278190080
0.336914 0.0556641 0.59797698 4278190080
0.37226099 0.0556641 0.59667999 4278190080
0.37207001 0.056251299 0.59667999 4278190080
0.34552801 0.0791016 0.602539 4278190080
0.34277299 0.080967903 0.602539 4278190080
0.34277299 0.0791016 0.60792297 4278190080
0.40136701 0.074841999 0.59082001 4278190080
0.38323101 0.049804699 0.584961 4278190080
0.38786799 0.049804699 0.584961 4278190080
0.383789 0.049804699 0.58545399 4278190080
0.36035201 0.073242202 0.590213 4278190080
0.36898199 0.073242202 0.584961 4278190080
0.366211 0.073242202 0.58707201 4278190080
0.37207001 0.073994003 0.584961 4278190080
0.40026101 0.0615234 0.60839802 4278190080
0.34277299 0.049804699 0.58940202 4278190080
0.34863299 0.049804699 0.58843398 4278190080
0.35449201 0.049804699 0.58818102 4278190080
0.36035201 0.049804699 0.58899701 4278190080
0.366211 0.049804699 0.59039098 4278190080
0.38382801 0.0556641 0.60839802 4278190080
0.394474 0.0556641 0.60839802 4278190080
0.38964799 0.059425101 0.60839802 4278190080
0.39775801 0.0556641 0.60839802 4278190080
0.39550799 0.0556641 0.60918802 4278190080
0.36099899 0.067382798 0.584961 4278190080
0.366211 0.070208102 0.584961 4278190080
0.39785001 0.067382798 0.62011701 4278190080
0.31347701 0.0556641 0.60803002 4278190080
0.32459399 0.0556641 0.602539 4278190080
0.319336 0.0556641 0.60566598 4278190080
0.32519501 0.056000698 0.602539 4278190080
0.33105499 0.058651902 0.602539 4278190080
0.336914 0.0601242 0.602539 4278190080
0.341813 0.0791016 0.60839802 4278190080
0.37736899 0.0615234 0.57324201 4278190080
0.37207001 0.0615234 0.57524198 4278190080
0.39908901 0.0615234 0.61425799 4278190080
0.33776399 0.049804699 0.59082001 4278190080
0.336914 0.049804699 0.59271598 4278190080
0.34277299 0.052171599 0.59082001 4278190080
0.34863299 0.054285001 0.59082001 4278190080
0.35449201 0.055013999 0.59082001 4278190080
0.36035201 0.052788001 0.59082001 4278190080
0.366734 0.049804699 0.59082001 4278190080
0.366211 0.0504287 0.59082001 4278190080
0.37207001 0.049804699 0.59469301 4278190080
0.38792601 0.0556641 0.61425799 4278190080
0.38964799 0.058481898 0.61425799 4278190080
0.38964799 0.0556641 0.61593598 4278190080
0.39550799 0.058952 0.61425799 4278190080
0.35867399 0.073242202 0.59082001 4278190080
0.36035201 0.073794797 0.59082001 4278190080
0.37792999 0.049804699 0.59826797 4278190080
0.361029 0.067382798 0.59082001 4278190080
0.36035201 0.068807401 0.59082001 4278190080
0.36035201 0.067382798 0.59290397 4278190080
0.33105499 0.0791016 0.61929899 4278190080
0.34211999 0.0791016 0.61425799 4278190080
0.336914 0.0791016 0.61741102 4278190080
0.312516 0.0556641 0.60839802 4278190080
0.30761701 0.0556641 0.61193001 4278190080
0.31347701 0.056308899 0.60839802 4278190080
0.319336 0.059192799 0.60839802 4278190080
0.32519501 0.061360098 0.60839802 4278190080
0.36833999 0.0615234 0.57910198 4278190080
0.366211 0.0615234 0.58397299 4278190080
0.39739001 0.0615234 0.62011701 4278190080
0.38140899 0.049804699 0.602539 4278190080
0.383789 0.049804699 0.60486603 4278190080
0.39550799 0.054265901 0.602539 4278190080
0.40136701 0.053977098 0.602539 4278190080
0.392602 0.0556641 0.62011701 4278190080
0.39550799 0.059503902 0.62011701 4278190080
0.319336 0.049804699 0.600725 4278190080
0.32519501 0.049804699 0.59830099 4278190080
0.33150601 0.049804699 0.59667999 4278190080
0.33105499 0.049804699 0.59682298 4278190080
0.336914 0.0535166 0.59667999 4278190080
0.37604901 0.049804699 0.59667999 4278190080
0.34277299 0.073242202 0.60167801 4278190080
0.34863299 0.077166297 0.59667999 4278190080
0.34863299 0.073242202 0.59984499 4278190080
0.356197 0.073242202 0.59667999 4278190080
0.35449201 0.073676698 0.59667999 4278190080
0.35449201 0.073242202 0.59747303 4278190080
0.34277299 0.067382798 0.60117102 4278190080
0.34863299 0.067382798 0.59867102 4278190080
