# .PCD v0.7 - Point Cloud Data file format
VERSION 0.7
FIELDS x y z rgb
SIZE 4 4 4 4
TYPE F F F U
COUNT 1 1 1 1
WIDTH 1141
HEIGHT 1
VIEWPOINT 0 0 0 1 0 0 0
POINTS 1141
DATA ascii
0.60644501 0.150195 0.85449201 4278190080
0.60644501 0.149414 0.85495299 4278190080
0.57357001 0.131836 0.87207001 4278190080
0.571289 0.131836 0.87514198 4278190080
0.57714802 0.13468599 0.87207001 4278190080
0.38162199 0.149414 0.83105499 4278190080
0.37792999 0.149414 0.83448601 4278190080
0.56476402 0.12597699 0.87207001 4278190080
0.59412599 0.143555 0.866211 4278190080
0.59472698 0.144091 0.866211 4278190080
0.58607602 0.137695 0.866211 4278190080
0.58300799 0.137695 0.86984497 4278190080
0.58886701 0.13964701 0.866211 4278190080
0.57714802 0.131439 0.90136701 4278190080
0.56275201 0.131836 0.88964802 4278190080
0.55957001 0.131836 0.89430201 4278190080
0.55393302 0.120117 0.87792999 4278190080
0.553711 0.120117 0.87822902 4278190080
0.55957001 0.124634 0.87792999 4278190080
0.60282099 0.149414 0.86035198 4278190080
0.600586 0.15496799 0.86035198 4278190080
0.600586 0.149414 0.86528498 4278190080
0.37792999 0.154597 0.836914 4278190080
0.56904602 0.131836 0.87792999 4278190080
0.571289 0.133689 0.87792999 4278190080
0.57714802 0.13682701 0.87792999 4278190080
0.56122702 0.12597699 0.87792999 4278190080
0.55957001 0.12597699 0.88134402 4278190080
0.59094101 0.143555 0.87207001 4278190080
0.58886701 0.143555 0.87455601 4278190080
0.59472698 0.145963 0.87207001 4278190080
0.58136702 0.137695 0.87207001 4278190080
0.58300799 0.139121 0.87207001 4278190080
0.58886701 0.142038 0.87207001 4278190080
0.56542999 0.129443 0.90722698 4278190080
0.571289 0.128472 0.90722698 4278190080
0.57714802 0.130193 0.90722698 4278190080
0.53027302 0.131836 0.90049499 4278190080
0.55859798 0.131836 0.89550799 4278190080
0.55957001 0.13256399 0.89550799 4278190080
0.60022902 0.149414 0.866211 4278190080
0.600586 0.15058 0.866211 4278190080
0.524414 0.120117 0.88752699 4278190080
0.53027302 0.120117 0.88621998 4278190080
0.53613299 0.120117 0.88693798 4278190080
0.54199201 0.120117 0.887703 4278190080
0.54886699 0.120117 0.883789 4278190080
0.54785198 0.120117 0.88537699 4278190080
0.553711 0.123989 0.883789 4278190080
0.56683099 0.131836 0.883789 4278190080
0.56542999 0.131836 0.88575703 4278190080
0.571289 0.135364 0.883789 4278190080
0.55745 0.12597699 0.883789 4278190080
0.553711 0.12597699 0.88938802 4278190080
0.55957001 0.127545 0.883789 4278190080
0.58640099 0.143555 0.87792999 4278190080
0.58300799 0.143555 0.88174599 4278190080
0.58886701 0.146438 0.87792999 4278190080
0.56542999 0.12819 0.913086 4278190080
0.571289 0.129907 0.913086 4278190080
0.57714802 0.130549 0.913086 4278190080
0.578403 0.137695 0.87792999 4278190080
0.57714802 0.137695 0.87954098 4278190080
0.58300799 0.140848 0.87792999 4278190080
0.51855499 0.137512 0.90136701 4278190080
0.528871 0.131836 0.90136701 4278190080
0.524414 0.135736 0.90136701 4278190080
0.524414 0.131836 0.904598 4278190080
0.53312099 0.131836 0.90136701 4278190080
0.53027302 0.136196 0.90136701 4278190080
0.53613299 0.131836 0.902789 4278190080
0.54199201 0.131836 0.90444899 4278190080
0.54785198 0.131836 0.90527701 4278190080
0.55556798 0.131836 0.90136701 4278190080
0.553711 0.131836 0.90306801 4278190080
0.55957001 0.134106 0.90136701 4278190080
0.51855499 0.137695 0.90114301 4278190080
0.524414 0.137695 0.89784199 4278190080
0.59863102 0.149414 0.87207001 4278190080
0.59472698 0.154459 0.87207001 4278190080
0.59472698 0.149414 0.876845 4278190080
0.56542999 0.133854 0.88964802 4278190080
0.52070898 0.120117 0.88964802 4278190080
0.51855499 0.120117 0.890944 4278190080
0.524414 0.121698 0.88964802 4278190080
0.53027302 0.122312 0.88964802 4278190080
0.53613299 0.121675 0.88964802 4278190080
0.54199201 0.121277 0.88964802 4278190080
0.54785198 0.123111 0.88964802 4278190080
0.53027302 0.12597699 0.89466 4278190080
0.53613299 0.12597699 0.89519799 4278190080
0.55346298 0.12597699 0.88964802 4278190080
0.553711 0.12614 0.88964802 4278190080
0.55957001 0.12928601 0.88964802 4278190080
0.56542999 0.130027 0.91894501 4278190080
0.571289 0.131045 0.91894501 4278190080
0.58142102 0.143555 0.883789 4278190080
0.57714802 0.143555 0.88864702 4278190080
0.57446301 0.137695 0.883789 4278190080
0.571289 0.137695 0.88783002 4278190080
0.57714802 0.139846 0.883789 4278190080
0.506836 0.131836 0.91132098 4278190080
0.51269501 0.131836 0.91079003 4278190080
0.52091801 0.131836 0.90722698 4278190080
0.51855499 0.135841 0.90722698 4278190080
0.51855499 0.131836 0.90966499 4278190080
0.53613299 0.135783 0.90722698 4278190080
0.54199201 0.134937 0.90722698 4278190080
0.54785198 0.133872 0.90722698 4278190080
0.553711 0.13575201 0.90722698 4278190080
0.561858 0.131836 0.90722698 4278190080
0.55957001 0.131836 0.90894598 4278190080
0.51834702 0.137695 0.90136701 4278190080
0.52923399 0.137695 0.90136701 4278190080
0.53027302 0.137695 0.90291202 4278190080
0.56299102 0.137695 0.90136701 4278190080
0.55957001 0.137695 0.90505397 4278190080
0.58300799 0.149414 0.88327402 4278190080
0.59298199 0.149414 0.87792999 4278190080
0.58886701 0.149414 0.88158298 4278190080
0.56542999 0.136062 0.89550799 4278190080
0.57714802 0.131836 0.90096903 4278190080
0.51513898 0.120117 0.89550799 4278190080
0.51269501 0.120117 0.89972901 4278190080
0.51855499 0.122952 0.89550799 4278190080
0.524414 0.124834 0.89550799 4278190080
0.54199201 0.124704 0.89550799 4278190080
0.54785198 0.125489 0.89550799 4278190080
0.51855499 0.12597699 0.90084398 4278190080
0.52837199 0.12597699 0.89550799 4278190080
0.524414 0.12597699 0.89715701 4278190080
0.53027302 0.12672301 0.89550799 4278190080
0.53674901 0.12597699 0.89550799 4278190080
0.53613299 0.126222 0.89550799 4278190080
0.54199201 0.12597699 0.89705199 4278190080
0.54883701 0.12597699 0.89550799 4278190080
0.54785198 0.12597699 0.896281 4278190080
0.553711 0.12818301 0.89550799 4278190080
0.57627898 0.143555 0.88964802 4278190080
0.571289 0.143555 0.89503503 4278190080
0.570113 0.137695 0.88964802 4278190080
0.571289 0.138907 0.88964802 4278190080
0.557836 0.131836 0.913086 4278190080
0.58047903 0.149414 0.883789 4278190080
0.57714802 0.149414 0.887326 4278190080
0.59472698 0.15449999 0.883789 4278190080
0.53247303 0.137695 0.90722698 4278190080
0.53613299 0.137695 0.91074002 4278190080
0.55591702 0.137695 0.90722698 4278190080
0.553711 0.137695 0.90989202 4278190080
0.56529897 0.137695 0.90722698 4278190080
0.55957001 0.137695 0.91136003 4278190080
0.56542999 0.131836 0.90539998 4278190080
0.57308 0.131836 0.90136701 4278190080
0.571289 0.131836 0.90175802 4278190080
0.57786202 0.131836 0.90136701 4278190080
0.51165998 0.120117 0.90136701 4278190080
0.51269501 0.121037 0.90136701 4278190080
0.51817 0.12597699 0.90136701 4278190080
0.51855499 0.126378 0.90136701 4278190080
0.524414 0.12939 0.90136701 4278190080
0.53613299 0.130886 0.90136701 4278190080
0.54199201 0.129475 0.90136701 4278190080
0.54785198 0.128885 0.90136701 4278190080
0.553711 0.130937 0.90136701 4278190080
0.57043201 0.143555 0.89550799 4278190080
0.56542999 0.143555 0.89998901 4278190080
0.571289 0.147484 0.89550799 4278190080
0.56738901 0.137695 0.89550799 4278190080
0.56542999 0.137695 0.89813 4278190080
0.57714802 0.137695 0.90097201 4278190080
0.55696303 0.131836 0.91894501 4278190080
0.508995 0.120117 0.90722698 4278190080
0.506836 0.120117 0.90943599 4278190080
0.51269501 0.122715 0.90722698 4278190080
0.58886701 0.152358 0.88964802 4278190080
0.58886701 0.149414 0.895289 4278190080
0.55742598 0.137695 0.913086 4278190080
0.58143097 0.131836 0.90722698 4278190080
0.58300799 0.13281099 0.90722698 4278190080
0.51614702 0.12597699 0.90722698 4278190080
0.51269501 0.12597699 0.91139001 4278190080
0.51855499 0.12984701 0.90722698 4278190080
0.571289 0.14674599 0.90136701 4278190080
0.571289 0.143555 0.90468502 4278190080
0.57714802 0.14578 0.90136701 4278190080
0.57714802 0.143555 0.90245003 4278190080
0.56542999 0.137695 0.90711802 4278190080
0.57642698 0.137695 0.90136701 4278190080
0.571289 0.137695 0.90398997 4278190080
0.58011198 0.137695 0.90136701 4278190080
0.58300799 0.137695 0.90185302 4278190080
0.50283998 0.120117 0.913086 4278190080
0.50097698 0.120117 0.91623199 4278190080
0.506836 0.122543 0.913086 4278190080
0.579144 0.131836 0.913086 4278190080
0.57714802 0.131836 0.91529799 4278190080
0.58300799 0.134489 0.913086 4278190080
0.57663298 0.149414 0.89550799 4278190080
0.57714802 0.14948 0.89550799 4278190080
0.57714802 0.149414 0.89567399 4278190080
0.58800799 0.149414 0.89550799 4278190080
0.58300799 0.15005501 0.89550799 4278190080
0.58300799 0.149414 0.89651299 4278190080
0.51109701 0.12597699 0.913086 4278190080
0.506836 0.13023999 0.913086 4278190080
0.506836 0.12597699 0.91766697 4278190080
0.55957001 0.12901001 0.913086 4278190080
0.56645501 0.143555 0.90722698 4278190080
0.56542999 0.14408199 0.90722698 4278190080
0.56542999 0.143555 0.90790701 4278190080
0.56542999 0.138623 0.90722698 4278190080
0.58666003 0.137695 0.90722698 4278190080
0.499989 0.120117 0.91894501 4278190080
0.50097698 0.121488 0.91894501 4278190080
0.57260102 0.131836 0.91894501 4278190080
0.571289 0.131836 0.92055601 4278190080
0.49511701 0.12597699 0.92259598 4278190080
0.50548398 0.12597699 0.91894501 4278190080
0.50097698 0.12597699 0.92296797 4278190080
0.55957001 0.130413 0.91894501 4278190080
0.497201 0.120117 0.92480499 4278190080
0.49511701 0.122975 0.92480499 4278190080
0.49511701 0.120117 0.92742097 4278190080
0.49163401 0.120117 0.930664 4278190080
0.48925799 0.120117 0.93598801 4278190080
0.49215001 0.12597699 0.930664 4278190080
0.47949699 0.120117 0.93652302 4278190080
0.48904201 0.120117 0.93652302 4278190080
0.48925799 0.120814 0.93652302 4278190080
0.49221799 0.12597699 0.93652302 4278190080
0.48925799 0.12597699 0.94090301 4278190080
0.48925799 0.127087 0.94238299 4278190080
0.54785198 0.190237 0.70800799 4278190080
0.54785198 0.18385001 0.725586 4278190080
0.553711 0.18171801 0.725586 4278190080
0.55957001 0.182602 0.725586 4278190080
0.53613299 0.189163 0.71386701 4278190080
0.54199201 0.18733101 0.71386701 4278190080
0.54785198 0.187848 0.71386701 4278190080
0.553711 0.188805 0.71386701 4278190080
0.55957001 0.18952 0.71386701 4278190080
0.51855499 0.17732 0.73730499 4278190080
0.524414 0.178002 0.73730499 4278190080
0.553711 0.17814299 0.73730499 4278190080
0.55957001 0.17796899 0.73730499 4278190080
0.53613299 0.186435 0.71972698 4278190080
0.54199201 0.185176 0.71972698 4278190080
0.54785198 0.18615 0.71972698 4278190080
0.54785198 0.18457 0.724289 4278190080
0.553711 0.186758 0.71972698 4278190080
0.553711 0.18457 0.722628 4278190080
0.56491899 0.18457 0.71972698 4278190080
0.55957001 0.18673199 0.71972698 4278190080
0.55957001 0.18457 0.72266603 4278190080
0.51855499 0.17949601 0.73144501 4278190080
0.51855499 0.178711 0.73309797 4278190080
0.524414 0.180567 0.73144501 4278190080
0.524414 0.178711 0.735264 4278190080
0.53027302 0.184389 0.73144501 4278190080
0.54199201 0.184404 0.73144501 4278190080
0.54785198 0.18064401 0.73144501 4278190080
0.553711 0.178849 0.73144501 4278190080
0.553711 0.178711 0.73240602 4278190080
0.55957001 0.179563 0.73144501 4278190080
0.55957001 0.178711 0.73479301 4278190080
0.50097698 0.174702 0.743164 4278190080
0.50097698 0.17285199 0.74736202 4278190080
0.506836 0.174119 0.743164 4278190080
0.506836 0.17285199 0.745974 4278190080
0.51269501 0.175485 0.743164 4278190080
0.51269501 0.17285199 0.74847502 4278190080
0.51855499 0.176671 0.743164 4278190080
0.524414 0.177468 0.743164 4278190080
0.553711 0.1781 0.743164 4278190080
0.55957001 0.175726 0.743164 4278190080
0.56542999 0.184403 0.71972698 4278190080
0.571289 0.18437301 0.71972698 4278190080
0.59472698 0.18410499 0.71972698 4278190080
0.600586 0.184113 0.71972698 4278190080
0.618164 0.18313099 0.71972698 4278190080
0.62402302 0.18299 0.71972698 4278190080
0.62988299 0.184395 0.71972698 4278190080
0.50097698 0.178711 0.74189901 4278190080
0.506836 0.183672 0.73730499 4278190080
0.506836 0.178711 0.73924601 4278190080
0.51315397 0.178711 0.73730499 4278190080
0.51269501 0.17886201 0.73730499 4278190080
0.51269501 0.178711 0.737544 4278190080
0.52605599 0.178711 0.73730499 4278190080
0.53027302 0.180683 0.73730499 4278190080
0.53613299 0.182317 0.73730499 4278190080
0.54199201 0.181934 0.73730499 4278190080
0.55184901 0.178711 0.73730499 4278190080
0.54785198 0.18017501 0.73730499 4278190080
0.51855499 0.18457 0.72878402 4278190080
0.524414 0.188265 0.725586 4278190080
0.524414 0.18457 0.728104 4278190080
0.53027302 0.187608 0.725586 4278190080
0.53027302 0.18457 0.73112202 4278190080
0.53613299 0.186455 0.725586 4278190080
0.54464102 0.18457 0.725586 4278190080
0.54199201 0.18493199 0.725586 4278190080
0.54199201 0.18457 0.72992498 4278190080
0.58300799 0.189613 0.70800799 4278190080
0.58886701 0.190295 0.70800799 4278190080
0.60644501 0.190099 0.70800799 4278190080
0.61230499 0.189527 0.70800799 4278190080
0.50097698 0.17243101 0.74902302 4278190080
0.506836 0.17179 0.74902302 4278190080
0.51269501 0.172601 0.74902302 4278190080
0.58300799 0.178409 0.73144501 4278190080
0.60644501 0.17698599 0.73144501 4278190080
0.61230499 0.176543 0.73144501 4278190080
0.618164 0.17758501 0.73144501 4278190080
0.62988299 0.176291 0.73144501 4278190080
0.63574201 0.17442299 0.73144501 4278190080
0.63574201 0.17285199 0.73439902 4278190080
0.64160198 0.176128 0.73144501 4278190080
0.64160198 0.17285199 0.736929 4278190080
0.56542999 0.183562 0.725586 4278190080
0.571289 0.183474 0.725586 4278190080
0.57714802 0.18310601 0.725586 4278190080
0.58300799 0.182281 0.725586 4278190080
0.58300799 0.178711 0.73086703 4278190080
0.58886701 0.18341599 0.725586 4278190080
0.59472698 0.182797 0.725586 4278190080
0.600586 0.182124 0.725586 4278190080
0.60644501 0.181567 0.725586 4278190080
0.60644501 0.178711 0.728993 4278190080
0.61230499 0.180886 0.725586 4278190080
0.61230499 0.178711 0.72810501 4278190080
0.618164 0.181394 0.725586 4278190080
0.618164 0.178711 0.729563 4278190080
0.62402302 0.180325 0.725586 4278190080
0.62988299 0.18081699 0.725586 4278190080
0.62988299 0.178711 0.72899199 4278190080
0.63574201 0.181788 0.725586 4278190080
0.63574201 0.178711 0.72792399 4278190080
0.64160198 0.178711 0.730084 4278190080
0.48925799 0.17285199 0.75286502 4278190080
0.49963301 0.17285199 0.74902302 4278190080
0.49511701 0.17513099 0.74902302 4278190080
0.49511701 0.17285199 0.75083399 4278190080
0.51318997 0.17285199 0.74902302 4278190080
0.51855499 0.175485 0.74902302 4278190080
0.51855499 0.17285199 0.75137597 4278190080
0.524414 0.176082 0.74902302 4278190080
0.524414 0.17285199 0.75243902 4278190080
0.53027302 0.175909 0.74902302 4278190080
0.53613299 0.176162 0.74902302 4278190080
0.54199201 0.176264 0.74902302 4278190080
0.54785198 0.175951 0.74902302 4278190080
0.553711 0.175574 0.74902302 4278190080
0.553711 0.17285199 0.75457799 4278190080
0.56250203 0.17285199 0.74902302 4278190080
0.55957001 0.174144 0.74902302 4278190080
0.55957001 0.17285199 0.75294799 4278190080
0.63574201 0.171839 0.73730499 4278190080
0.64160198 0.172719 0.73730499 4278190080
0.49942699 0.178711 0.743164 4278190080
0.49511701 0.178711 0.74751598 4278190080
0.52894998 0.178711 0.743164 4278190080
0.53027302 0.179085 0.743164 4278190080
0.53027302 0.178711 0.744003 4278190080
0.53613299 0.179472 0.743164 4278190080
0.53613299 0.178711 0.74448699 4278190080
0.54199201 0.179296 0.743164 4278190080
0.54199201 0.178711 0.74430901 4278190080
0.548464 0.178711 0.743164 4278190080
0.54785198 0.178782 0.743164 4278190080
0.54785198 0.178711 0.743312 4278190080
0.56542999 0.187758 0.71386701 4278190080
0.56542999 0.18457 0.71928298 4278190080
0.571289 0.187309 0.71386701 4278190080
0.571289 0.18457 0.71922201 4278190080
0.57714802 0.189024 0.71386701 4278190080
0.58300799 0.188807 0.71386701 4278190080
0.58886701 0.18862 0.71386701 4278190080
0.59472698 0.187804 0.71386701 4278190080
0.59472698 0.18457 0.71881002 4278190080
0.600586 0.18802001 0.71386701 4278190080
0.600586 0.18457 0.71891302 4278190080
0.60644501 0.18804599 0.71386701 4278190080
0.61230499 0.186538 0.71386701 4278190080
0.618164 0.186388 0.71386701 4278190080
0.618164 0.18457 0.71710199 4278190080
0.62402302 0.187558 0.71386701 4278190080
0.62402302 0.18457 0.717803 4278190080
0.62988299 0.18457 0.719612 4278190080
0.506836 0.18457 0.73716599 4278190080
0.51376498 0.18457 0.73144501 4278190080
0.51269501 0.18457 0.732324 4278190080
0.53222799 0.18457 0.73144501 4278190080
0.54030299 0.18457 0.73144501 4278190080
0.53613299 0.18492299 0.73144501 4278190080
0.53613299 0.18457 0.73226398 4278190080
0.48925799 0.16636799 0.76074201 4278190080
0.49511701 0.16670901 0.76074201 4278190080
0.51269501 0.16635101 0.76074201 4278190080
0.51855499 0.164923 0.76074201 4278190080
0.524414 0.166024 0.76074201 4278190080
0.48925799 0.16849899 0.75488299 4278190080
0.48925799 0.16699199 0.75863498 4278190080
0.49511701 0.169065 0.75488299 4278190080
0.49511701 0.16699199 0.75976402 4278190080
0.50097698 0.171047 0.75488299 4278190080
0.506836 0.170661 0.75488299 4278190080
0.51269501 0.16908699 0.75488299 4278190080
0.51269501 0.16699199 0.758919 4278190080
0.51855499 0.167551 0.75488299 4278190080
0.51855499 0.16699199 0.75584698 4278190080
0.524414 0.16970199 0.75488299 4278190080
0.524414 0.16699199 0.75845402 4278190080
0.553711 0.172712 0.75488299 4278190080
0.55957001 0.17227601 0.75488299 4278190080
0.60644501 0.16066401 0.76074201 4278190080
0.61230499 0.160895 0.76074201 4278190080
0.63574201 0.160401 0.76074201 4278190080
0.64160198 0.15844201 0.76074201 4278190080
0.647461 0.159365 0.76074201 4278190080
0.58886701 0.172327 0.743164 4278190080
0.59472698 0.170947 0.743164 4278190080
0.600586 0.17148501 0.743164 4278190080
0.61230499 0.17280699 0.743164 4278190080
0.618164 0.169129 0.743164 4278190080
0.618164 0.16699199 0.74897301 4278190080
0.62402302 0.168121 0.743164 4278190080
0.62402302 0.16699199 0.74554598 4278190080
0.62988299 0.16934299 0.743164 4278190080
0.63574201 0.17193399 0.743164 4278190080
0.65332001 0.16699199 0.74824703 4278190080
0.56542999 0.17717101 0.73730499 4278190080
0.571289 0.17712601 0.73730499 4278190080
0.57714802 0.177554 0.73730499 4278190080
0.58300799 0.176764 0.73730499 4278190080
0.58886701 0.17683101 0.73730499 4278190080
0.58886701 0.17285199 0.74249703 4278190080
0.59472698 0.175743 0.73730499 4278190080
0.59472698 0.17285199 0.740309 4278190080
0.600586 0.176108 0.73730499 4278190080
0.600586 0.17285199 0.741157 4278190080
0.60644501 0.175431 0.73730499 4278190080
0.61230499 0.174521 0.73730499 4278190080
0.61230499 0.17285199 0.74306101 4278190080
0.618164 0.174316 0.73730499 4278190080
0.618164 0.17285199 0.73923701 4278190080
0.62402302 0.172995 0.73730499 4278190080
0.62402302 0.17285199 0.73742902 4278190080
0.63154697 0.17285199 0.73730499 4278190080
0.62988299 0.173527 0.73730499 4278190080
0.62988299 0.17285199 0.73802799 4278190080
0.64181697 0.17285199 0.73730499 4278190080
0.64160198 0.17285199 0.74008799 4278190080
0.647461 0.176177 0.73730499 4278190080
0.49359399 0.178711 0.74902302 4278190080
0.48925799 0.178711 0.75246203 4278190080
0.56542999 0.181357 0.73144501 4278190080
0.56542999 0.178711 0.73570001 4278190080
0.571289 0.181697 0.73144501 4278190080
0.571289 0.178711 0.73515302 4278190080
0.57953 0.178711 0.73144501 4278190080
0.57714802 0.178991 0.73144501 4278190080
0.57714802 0.178711 0.73234099 4278190080
0.58453202 0.178711 0.73144501 4278190080
0.58886701 0.179611 0.73144501 4278190080
0.58886701 0.178711 0.73354298 4278190080
0.59472698 0.18131299 0.73144501 4278190080
0.59472698 0.178711 0.73488498 4278190080
0.60273403 0.178711 0.73144501 4278190080
0.600586 0.179737 0.73144501 4278190080
0.600586 0.178711 0.73310697 4278190080
0.62262201 0.178711 0.73144501 4278190080
0.625166 0.178711 0.73144501 4278190080
0.62402302 0.179075 0.73144501 4278190080
0.62402302 0.178711 0.73201799 4278190080
0.64348203 0.178711 0.73144501 4278190080
0.647461 0.178711 0.73466599 4278190080
0.48573601 0.17285199 0.75488299 4278190080
0.48339799 0.17285199 0.75746399 4278190080
0.53024602 0.17285199 0.75488299 4278190080
0.53027302 0.17286301 0.75488299 4278190080
0.53027302 0.17285199 0.75490201 4278190080
0.53613299 0.173098 0.75488299 4278190080
0.53613299 0.17285199 0.75542098 4278190080
0.54199201 0.173252 0.75488299 4278190080
0.54199201 0.17285199 0.75565797 4278190080
0.55105001 0.17285199 0.75488299 4278190080
0.54785198 0.173026 0.75488299 4278190080
0.54785198 0.17285199 0.75521499 4278190080
0.618164 0.16698 0.74902302 4278190080
0.62402302 0.16608401 0.74902302 4278190080
0.65332001 0.165893 0.74902302 4278190080
0.57210302 0.18457 0.71972698 4278190080
0.57714802 0.185891 0.71972698 4278190080
0.57714802 0.18457 0.72303301 4278190080
0.58300799 0.187462 0.71972698 4278190080
0.58300799 0.18457 0.72327399 4278190080
0.59308702 0.18457 0.71972698 4278190080
0.58886701 0.18591 0.71972698 4278190080
0.58886701 0.18457 0.72268701 4278190080
0.60245198 0.18457 0.71972698 4278190080
0.60644501 0.18562301 0.71972698 4278190080
0.60644501 0.18457 0.72164601 4278190080
0.61388803 0.18457 0.71972698 4278190080
0.61230499 0.185103 0.71972698 4278190080
0.61230499 0.18457 0.72063899 4278190080
0.62999201 0.18457 0.71972698 4278190080
0.63574201 0.18457 0.72467899 4278190080
0.46582001 0.15944 0.772461 4278190080
0.47167999 0.15865999 0.772461 4278190080
0.477539 0.160157 0.772461 4278190080
0.553711 0.15851399 0.772461 4278190080
0.55957001 0.15724599 0.772461 4278190080
0.50669998 0.18457 0.73730499 4278190080
0.50097698 0.18457 0.74238199 4278190080
0.506836 0.185274 0.73730499 4278190080
0.46582001 0.16113301 0.77171999 4278190080
0.47167999 0.16113301 0.77019203 4278190080
0.477539 0.16113301 0.77176797 4278190080
0.48925799 0.16587199 0.76660198 4278190080
0.49511701 0.166425 0.76660198 4278190080
0.51269501 0.166197 0.76660198 4278190080
0.51855499 0.164464 0.76660198 4278190080
0.524414 0.16526701 0.76660198 4278190080
0.553711 0.16612101 0.76660198 4278190080
0.553711 0.16113301 0.76961398 4278190080
0.55957001 0.16222 0.76660198 4278190080
0.55957001 0.16113301 0.767277 4278190080
0.58886701 0.158829 0.76660198 4278190080
0.59472698 0.15733901 0.76660198 4278190080
0.600586 0.15862501 0.76660198 4278190080
0.60644501 0.160882 0.76660198 4278190080
0.62402302 0.15527301 0.77095598 4278190080
0.62988299 0.159182 0.76660198 4278190080
0.62988299 0.15527301 0.76953799 4278190080
0.63574201 0.157371 0.76660198 4278190080
0.63574201 0.15527301 0.770495 4278190080
0.64160198 0.156014 0.76660198 4278190080
0.647461 0.159105 0.76660198 4278190080
0.48798901 0.16699199 0.76074201 4278190080
0.48339799 0.16965701 0.76074201 4278190080
0.49587899 0.16699199 0.76074201 4278190080
0.50097698 0.168956 0.76074201 4278190080
0.51161402 0.16699199 0.76074201 4278190080
0.506836 0.17003299 0.76074201 4278190080
0.52632701 0.16699199 0.76074201 4278190080
0.53027302 0.16957299 0.76074201 4278190080
0.53613299 0.17029101 0.76074201 4278190080
0.54199201 0.17015199 0.76074201 4278190080
0.54785198 0.16996799 0.76074201 4278190080
0.553711 0.169919 0.76074201 4278190080
0.553711 0.16699199 0.76585102 4278190080
0.55957001 0.16986901 0.76074201 4278190080
0.55957001 0.16699199 0.76404703 4278190080
0.56542999 0.171858 0.74902302 4278190080
0.571289 0.17134599 0.74902302 4278190080
0.57714802 0.17087001 0.74902302 4278190080
0.57714802 0.16699199 0.75359601 4278190080
0.58300799 0.17010599 0.74902302 4278190080
0.58300799 0.16699199 0.75278503 4278190080
0.58886701 0.170257 0.74902302 4278190080
0.58886701 0.16699199 0.75446898 4278190080
0.59472698 0.16890401 0.74902302 4278190080
0.600586 0.168777 0.74902302 4278190080
0.600586 0.16699199 0.75241399 4278190080
0.60644501 0.168221 0.74902302 4278190080
0.60644501 0.16699199 0.75022101 4278190080
0.61803597 0.16699199 0.74902302 4278190080
0.61230499 0.167992 0.74902302 4278190080
0.61230499 0.16699199 0.749816 4278190080
0.62711197 0.16699199 0.74902302 4278190080
0.62988299 0.16787601 0.74902302 4278190080
0.63574201 0.170708 0.74902302 4278190080
0.64160198 0.172433 0.74902302 4278190080
0.64160198 0.16699199 0.754843 4278190080
0.65097499 0.16699199 0.74902302 4278190080
0.647461 0.169911 0.74902302 4278190080
0.647461 0.16699199 0.75155401 4278190080
0.656187 0.16699199 0.74902302 4278190080
0.65917999 0.167997 0.74902302 4278190080
0.65917999 0.16699199 0.74992001 4278190080
0.459961 0.15644801 0.77832001 4278190080
0.459961 0.15527301 0.78140497 4278190080
0.46582001 0.155407 0.77832001 4278190080
0.46582001 0.15527301 0.77862197 4278190080
0.47167999 0.15552101 0.77832001 4278190080
0.47167999 0.15527301 0.77992803 4278190080
0.477539 0.15753201 0.77832001 4278190080
0.477539 0.15527301 0.78342199 4278190080
0.48339799 0.15527301 0.782875 4278190080
0.53613299 0.15527301 0.783939 4278190080
0.54199201 0.157533 0.77832001 4278190080
0.54199201 0.15527301 0.77967697 4278190080
0.54785198 0.15579601 0.77832001 4278190080
0.54785198 0.15527301 0.778853 4278190080
0.553711 0.15642101 0.77832001 4278190080
0.553711 0.15527301 0.78021199 4278190080
0.55957001 0.155442 0.77832001 4278190080
0.55957001 0.15527301 0.77930999 4278190080
0.477539 0.178711 0.76070797 4278190080
0.48602799 0.178711 0.75488299 4278190080
0.48339799 0.178711 0.75718498 4278190080
0.57714802 0.166142 0.75488299 4278190080
0.58300799 0.16564301 0.75488299 4278190080
0.58886701 0.16676299 0.75488299 4278190080
0.600586 0.165124 0.75488299 4278190080
0.60644501 0.162769 0.75488299 4278190080
0.60644501 0.16113301 0.75882399 4278190080
0.61230499 0.162604 0.75488299 4278190080
0.61230499 0.16113301 0.75932002 4278190080
0.618164 0.165457 0.75488299 4278190080
0.62402302 0.166839 0.75488299 4278190080
0.63574201 0.16113301 0.76017898 4278190080
0.64160198 0.166915 0.75488299 4278190080
0.64160198 0.16113301 0.75791401 4278190080
0.647461 0.164498 0.75488299 4278190080
0.647461 0.16113301 0.75793099 4278190080
0.65332001 0.16212501 0.75488299 4278190080
0.65917999 0.164803 0.75488299 4278190080
0.64976197 0.178711 0.73730499 4278190080
0.65332001 0.178711 0.74201798 4278190080
0.56542999 0.172957 0.743164 4278190080
0.56542999 0.17285199 0.74357802 4278190080
0.571289 0.173123 0.743164 4278190080
0.571289 0.17285199 0.74401498 4278190080
0.57714802 0.17511 0.743164 4278190080
0.57714802 0.17285199 0.74688202 4278190080
0.58793598 0.17285199 0.743164 4278190080
0.58300799 0.17543299 0.743164 4278190080
0.58300799 0.17285199 0.74632603 4278190080
0.60466802 0.17285199 0.743164 4278190080
0.61200798 0.17285199 0.743164 4278190080
0.60644501 0.17347801 0.743164 4278190080
0.60644501 0.17285199 0.74407899 4278190080
0.64061499 0.17285199 0.743164 4278190080
0.64160198 0.17302801 0.743164 4278190080
0.64160198 0.17285199 0.74566698 4278190080
0.647461 0.17462701 0.743164 4278190080
0.647461 0.17285199 0.74704999 4278190080
0.65332001 0.176511 0.743164 4278190080
0.65332001 0.17285199 0.74568301 4278190080
0.65917999 0.17285199 0.746782 4278190080
0.47167999 0.17285199 0.76562703 4278190080
0.478331 0.17285199 0.76074201 4278190080
0.477539 0.177481 0.76074201 4278190080
0.477539 0.17285199 0.76133603 4278190080
0.63718802 0.18457 0.725586 4278190080
0.64160198 0.18457 0.72824699 4278190080
0.50016397 0.18457 0.743164 4278190080
0.49511701 0.18457 0.747904 4278190080
0.50097698 0.18704601 0.743164 4278190080
0.46475101 0.16113301 0.772461 4278190080
0.459961 0.16113301 0.77611601 4278190080
0.47852999 0.16113301 0.772461 4278190080
0.48339799 0.16551299 0.772461 4278190080
0.48925799 0.16540501 0.772461 4278190080
0.49511701 0.165695 0.772461 4278190080
0.50097698 0.165791 0.772461 4278190080
0.506836 0.165399 0.772461 4278190080
0.51269501 0.164781 0.772461 4278190080
0.51855499 0.164151 0.772461 4278190080
0.524414 0.164257 0.772461 4278190080
0.53027302 0.164617 0.772461 4278190080
0.53613299 0.164415 0.772461 4278190080
0.54199201 0.16439401 0.772461 4278190080
0.54199201 0.16113301 0.77649099 4278190080
0.55037498 0.16113301 0.772461 4278190080
0.54785198 0.163366 0.772461 4278190080
0.54785198 0.16113301 0.77441198 4278190080
0.37207001 0.16113301 0.83911097 4278190080
0.46582001 0.16699199 0.770814 4278190080
0.47167999 0.17009 0.76660198 4278190080
0.47167999 0.16699199 0.768031 4278190080
0.477539 0.168504 0.76660198 4278190080
0.477539 0.16699199 0.76822501 4278190080
0.485486 0.16699199 0.76660198 4278190080
0.48339799 0.167761 0.76660198 4278190080
0.48339799 0.16699199 0.76855898 4278190080
0.497282 0.16699199 0.76660198 4278190080
0.50097698 0.168019 0.76660198 4278190080
0.50097698 0.16699199 0.769696 4278190080
0.50967801 0.16699199 0.76660198 4278190080
0.506836 0.16785499 0.76660198 4278190080
0.506836 0.16699199 0.76862901 4278190080
0.52936298 0.16699199 0.76660198 4278190080
0.53027302 0.167337 0.76660198 4278190080
0.53027302 0.16699199 0.76753801 4278190080
0.53613299 0.167329 0.76660198 4278190080
0.53613299 0.16699199 0.76727402 4278190080
0.54199201 0.16715699 0.76660198 4278190080
0.54199201 0.16699199 0.76694697 4278190080
0.54931402 0.16699199 0.76660198 4278190080
0.54785198 0.167136 0.76660198 4278190080
0.54785198 0.16699199 0.76688099 4278190080
0.56542999 0.15812001 0.772461 4278190080
0.571289 0.15527301 0.77793902 4278190080
0.58300799 0.160688 0.772461 4278190080
0.58886701 0.157315 0.772461 4278190080
0.59472698 0.155403 0.772461 4278190080
0.600586 0.15731899 0.772461 4278190080
0.60644501 0.160051 0.772461 4278190080
0.62192202 0.15527301 0.772461 4278190080
0.618164 0.159639 0.772461 4278190080
0.63690501 0.15527301 0.772461 4278190080
0.64160198 0.157387 0.772461 4278190080
0.647461 0.15993001 0.772461 4278190080
0.366211 0.15527301 0.847579 4278190080
0.37229601 0.15527301 0.84277302 4278190080
0.37207001 0.15683299 0.84277302 4278190080
0.37207001 0.15527301 0.84299099 4278190080
0.43652299 0.15527301 0.78869998 4278190080
0.44238299 0.15527301 0.787301 4278190080
0.44824201 0.15823901 0.78417999 4278190080
0.44824201 0.15527301 0.7859 4278190080
0.45735499 0.15527301 0.78417999 4278190080
0.45410201 0.156454 0.78417999 4278190080
0.45410201 0.15527301 0.78555298 4278190080
0.48749799 0.15527301 0.78417999 4278190080
0.48925799 0.156002 0.78417999 4278190080
0.48925799 0.15527301 0.78497398 4278190080
0.49511701 0.15950599 0.78417999 4278190080
0.50097698 0.159669 0.78417999 4278190080
0.506836 0.159631 0.78417999 4278190080
0.51269501 0.15933999 0.78417999 4278190080
0.51855499 0.159052 0.78417999 4278190080
0.524414 0.158933 0.78417999 4278190080
0.53577799 0.15527301 0.78417999 4278190080
0.53027302 0.158656 0.78417999 4278190080
0.53027302 0.15527301 0.78743201 4278190080
0.65468699 0.178711 0.743164 4278190080
0.65917999 0.183135 0.743164 4278190080
0.65917999 0.178711 0.745637 4278190080
0.477501 0.178711 0.76074201 4278190080
0.477539 0.17879499 0.76074201 4278190080
0.64653802 0.18457 0.73144501 4278190080
0.647461 0.187098 0.73144501 4278190080
0.647461 0.18457 0.73211199 4278190080
0.56542999 0.17144001 0.75488299 4278190080
0.57558602 0.16699199 0.75488299 4278190080
0.571289 0.16955 0.75488299 4278190080
0.58999097 0.16699199 0.75488299 4278190080
0.59715098 0.16699199 0.75488299 4278190080
0.59472698 0.167927 0.75488299 4278190080
0.59472698 0.16699199 0.75645 4278190080
0.62463498 0.16699199 0.75488299 4278190080
0.62988299 0.168033 0.75488299 4278190080
0.62988299 0.16699199 0.76009202 4278190080
0.64151901 0.16699199 0.75488299 4278190080
0.63574201 0.168997 0.75488299 4278190080
0.63574201 0.16699199 0.757523 4278190080
0.66178101 0.16699199 0.75488299 4278190080
0.665039 0.16951901 0.75488299 4278190080
0.47110301 0.17285199 0.76660198 4278190080
0.46582001 0.17285199 0.77147698 4278190080
0.47167999 0.177332 0.76660198 4278190080
0.662444 0.17285199 0.74902302 4278190080
0.665039 0.17285199 0.75075603 4278190080
0.57714802 0.164885 0.76074201 4278190080
0.58300799 0.163478 0.76074201 4278190080
0.58886701 0.16326401 0.76074201 4278190080
0.58886701 0.16113301 0.763798 4278190080
0.59472698 0.162407 0.76074201 4278190080
0.59472698 0.16113301 0.76183301 4278190080
0.604128 0.16113301 0.76074201 4278190080
0.600586 0.162377 0.76074201 4278190080
0.600586 0.16113301 0.76222098 4278190080
0.61284399 0.16113301 0.76074201 4278190080
0.61230499 0.16113301 0.76226199 4278190080
0.618164 0.163619 0.76074201 4278190080
0.62402302 0.16637699 0.76074201 4278190080
0.63501501 0.16113301 0.76074201 4278190080
0.62988299 0.166633 0.76074201 4278190080
0.62988299 0.16113301 0.76532 4278190080
0.65057403 0.16113301 0.76074201 4278190080
0.65332001 0.16262899 0.76074201 4278190080
0.65917999 0.16584601 0.76074201 4278190080
0.49392501 0.18457 0.74902302 4278190080
0.48925799 0.18457 0.753488 4278190080
0.49511701 0.18763199 0.74902302 4278190080
0.44824201 0.16113301 0.78374898 4278190080
0.45755601 0.16113301 0.77832001 4278190080
0.45410201 0.16113301 0.78161699 4278190080
0.482447 0.16113301 0.77832001 4278190080
0.48339799 0.162221 0.77832001 4278190080
0.48339799 0.16113301 0.77911401 4278190080
0.48925799 0.162708 0.77832001 4278190080
0.48925799 0.16113301 0.78010702 4278190080
0.49511701 0.16274001 0.77832001 4278190080
0.49511701 0.16113301 0.78119302 4278190080
0.50097698 0.16275001 0.77832001 4278190080
0.50097698 0.16113301 0.781353 4278190080
0.506836 0.16247401 0.77832001 4278190080
0.506836 0.16113301 0.78104001 4278190080
0.51269501 0.162202 0.77832001 4278190080
0.51269501 0.16113301 0.780523 4278190080
0.51855499 0.161983 0.77832001 4278190080
0.51855499 0.16113301 0.78005499 4278190080
0.524414 0.161723 0.77832001 4278190080
0.524414 0.16113301 0.77955401 4278190080
0.53027302 0.161632 0.77832001 4278190080
0.53027302 0.16113301 0.77936399 4278190080
0.53709197 0.16113301 0.77832001 4278190080
0.53613299 0.16143399 0.77832001 4278190080
0.53613299 0.16113301 0.77877498 4278190080
0.46419501 0.16699199 0.772461 4278190080
0.459961 0.16699199 0.77615398 4278190080
0.36399099 0.15527301 0.84863299 4278190080
0.36035201 0.156948 0.84863299 4278190080
0.36035201 0.15527301 0.85121202 4278190080
0.567527 0.15527301 0.77832001 4278190080
0.56542999 0.155485 0.77832001 4278190080
0.56542999 0.15527301 0.77872998 4278190080
0.57367802 0.15527301 0.77832001 4278190080
0.57714802 0.15628 0.77832001 4278190080
0.57714802 0.15527301 0.778916 4278190080
0.58300799 0.158062 0.77832001 4278190080
0.58300799 0.15527301 0.78184402 4278190080
0.58886701 0.15728299 0.77832001 4278190080
0.59472698 0.156506 0.77832001 4278190080
0.600586 0.15712699 0.77832001 4278190080
0.60644501 0.158347 0.77832001 4278190080
0.61230499 0.15850499 0.77832001 4278190080
0.61923301 0.15527301 0.77832001 4278190080
0.618164 0.15620799 0.77832001 4278190080
0.618164 0.15527301 0.78201002 4278190080
0.63905901 0.15527301 0.77832001 4278190080
0.64160198 0.157104 0.77832001 4278190080
0.64160198 0.15527301 0.78284103 4278190080
0.647461 0.160377 0.77832001 4278190080
0.42480499 0.15527301 0.79477298 4278190080
0.43312499 0.15527301 0.790039 4278190080
0.430664 0.157222 0.790039 4278190080
0.430664 0.15527301 0.79188102 4278190080
0.49472001 0.15527301 0.790039 4278190080
0.49511701 0.155545 0.790039 4278190080
0.49511701 0.15527301 0.79032898 4278190080
0.50097698 0.156515 0.790039 4278190080
0.50097698 0.15527301 0.79138702 4278190080
0.506836 0.15633599 0.790039 4278190080
0.506836 0.15527301 0.79194403 4278190080
0.51269501 0.156284 0.790039 4278190080
0.51269501 0.15527301 0.79183197 4278190080
0.51855499 0.156201 0.790039 4278190080
0.51855499 0.15527301 0.79197502 4278190080
0.52471 0.15527301 0.790039 4278190080
0.524414 0.155421 0.790039 4278190080
0.524414 0.15527301 0.79020202 4278190080
0.665034 0.178711 0.74902302 4278190080
0.665039 0.17872401 0.74902302 4278190080
0.665039 0.178711 0.749026 4278190080
0.67089802 0.178711 0.75471997 4278190080
0.47205299 0.178711 0.76660198 4278190080
0.47167999 0.178711 0.76692098 4278190080
0.46469301 0.17285199 0.772461 4278190080
0.459961 0.17285199 0.77742398 4278190080
0.46582001 0.175666 0.772461 4278190080
0.66664201 0.17285199 0.75488299 4278190080
0.67089802 0.178535 0.75488299 4278190080
0.65237999 0.18457 0.73730499 4278190080
0.65332001 0.186014 0.73730499 4278190080
0.65332001 0.18457 0.73825902 4278190080
0.65917999 0.18457 0.74267799 4278190080
0.56542999 0.168982 0.76074201 4278190080
0.56542999 0.16699199 0.76384699 4278190080
0.57219398 0.16699199 0.76074201 4278190080
0.571289 0.167431 0.76074201 4278190080
0.571289 0.16699199 0.761747 4278190080
0.66067201 0.16699199 0.76074201 4278190080
0.65917999 0.16699199 0.76370102 4278190080
0.665039 0.170368 0.76074201 4278190080
0.56542999 0.164685 0.76660198 4278190080
0.56542999 0.16113301 0.76921201 4278190080
0.571289 0.16513599 0.76660198 4278190080
0.57714802 0.16454101 0.76660198 4278190080
0.58554 0.16113301 0.76660198 4278190080
0.58300799 0.16251899 0.76660198 4278190080
0.58300799 0.16113301 0.77103502 4278190080
0.60774702 0.16113301 0.76660198 4278190080
0.61230499 0.161872 0.76660198 4278190080
0.618164 0.162948 0.76660198 4278190080
0.618164 0.16113301 0.771245 4278190080
0.62723398 0.16113301 0.76660198 4278190080
0.62402302 0.16276 0.76660198 4278190080
0.62402302 0.16113301 0.76795602 4278190080
0.64977098 0.16113301 0.76660198 4278190080
0.65332001 0.163864 0.76660198 4278190080
0.48772499 0.18457 0.75488299 4278190080
0.48339799 0.18457 0.75935 4278190080
0.48925799 0.187429 0.75488299 4278190080
0.430664 0.16113301 0.78899199 4278190080
0.43652299 0.16113301 0.78692001 4278190080
0.44600701 0.16113301 0.78417999 4278190080
0.44238299 0.16113301 0.78564501 4278190080
0.44824201 0.16699199 0.78394699 4278190080
0.45770699 0.16699199 0.77832001 4278190080
0.45410201 0.16699199 0.781681 4278190080
0.423017 0.15527301 0.79589802 4278190080
0.41894501 0.15527301 0.79850501 4278190080
0.58780402 0.15527301 0.78417999 4278190080
0.58886701 0.15562899 0.78417999 4278190080
0.58886701 0.15527301 0.78504598 4278190080
0.59472698 0.155893 0.78417999 4278190080
0.59472698 0.15527301 0.78579998 4278190080
0.600586 0.155972 0.78417999 4278190080
0.600586 0.15527301 0.78581899 4278190080
0.60644501 0.155992 0.78417999 4278190080
0.60644501 0.15527301 0.785712 4278190080
0.61526603 0.15527301 0.78417999 4278190080
0.61230499 0.15572201 0.78417999 4278190080
0.61230499 0.15527301 0.78509003 4278190080
0.64234799 0.15527301 0.78417999 4278190080
0.647461 0.15877999 0.78417999 4278190080
0.67105198 0.178711 0.75488299 4278190080
0.46741599 0.178711 0.772461 4278190080
0.46582001 0.178711 0.773875 4278190080
0.458884 0.17285199 0.77832001 4278190080
0.45410201 0.17285199 0.782161 4278190080
0.459961 0.175965 0.77832001 4278190080
0.667422 0.17285199 0.76074201 4278190080
0.67089802 0.176136 0.76074201 4278190080
0.481534 0.18457 0.76074201 4278190080
0.477539 0.18457 0.76339602 4278190080
0.48339799 0.18775199 0.76074201 4278190080
0.65966702 0.18457 0.743164 4278190080
0.665039 0.18457 0.74823099 4278190080
0.57058501 0.16113301 0.772461 4278190080
0.571289 0.161607 0.772461 4278190080
0.571289 0.16113301 0.77294898 4278190080
0.58121902 0.16113301 0.772461 4278190080
0.57714802 0.162147 0.772461 4278190080
0.57714802 0.16113301 0.77394801 4278190080
0.61152899 0.16113301 0.772461 4278190080
0.61364001 0.16113301 0.772461 4278190080
0.61230499 0.16129 0.772461 4278190080
0.61230499 0.16113301 0.772919 4278190080
0.64864397 0.16113301 0.772461 4278190080
0.65332001 0.16490901 0.772461 4278190080
0.42957199 0.16113301 0.790039 4278190080
0.42480499 0.16113301 0.79429299 4278190080
0.657031 0.16699199 0.76660198 4278190080
0.65917999 0.168763 0.76660198 4278190080
0.665039 0.172272 0.76660198 4278190080
0.430664 0.16699199 0.78977901 4278190080
0.43652299 0.16699199 0.78771102 4278190080
0.44768301 0.16699199 0.78417999 4278190080
0.44238299 0.16699199 0.78683001 4278190080
0.44824201 0.16760799 0.78417999 4278190080
0.41404799 0.15527301 0.80175799 4278190080
0.413086 0.15527301 0.80252099 4278190080
0.46092299 0.178711 0.77832001 4278190080
0.459961 0.178711 0.779212 4278190080
0.673127 0.178711 0.76074201 4278190080
0.64632899 0.15527301 0.790039 4278190080
0.647461 0.156148 0.790039 4278190080
0.43652299 0.17285199 0.789469 4278190080
0.44238299 0.17285199 0.78873402 4278190080
0.45136401 0.17285199 0.78417999 4278190080
0.44824201 0.17285199 0.78651601 4278190080
0.45410201 0.17725299 0.78417999 4278190080
0.66574699 0.17285199 0.76660198 4278190080
0.665039 0.17285199 0.76776302 4278190080
0.67089802 0.176735 0.76660198 4278190080
0.665892 0.18457 0.74902302 4278190080
0.67089802 0.18457 0.753066 4278190080
0.47415301 0.18457 0.76660198 4278190080
0.47167999 0.18457 0.76975399 4278190080
0.42281899 0.16113301 0.79589802 4278190080
0.41894501 0.16113301 0.799119 4278190080
0.42480499 0.166968 0.79589802 4278190080
0.65557802 0.16699199 0.772461 4278190080
0.65917999 0.170408 0.772461 4278190080
0.64792699 0.16113301 0.77832001 4278190080
0.65332001 0.166687 0.77832001 4278190080
0.43035901 0.16699199 0.790039 4278190080
0.430664 0.16766199 0.790039 4278190080
0.40136701 0.15527301 0.813155 4278190080
0.407756 0.15527301 0.80761701 4278190080
0.40722701 0.15527301 0.80801201 4278190080
0.44824201 0.178711 0.789123 4278190080
0.454898 0.178711 0.78417999 4278190080
0.45410201 0.178711 0.78492498 4278190080
0.67308599 0.178711 0.76660198 4278190080
0.67089802 0.178711 0.77027398 4278190080
0.67675799 0.182684 0.76660198 4278190080
0.64703202 0.15527301 0.79589802 4278190080
0.647461 0.155663 0.79589802 4278190080
0.43559799 0.17285199 0.790039 4278190080
0.430664 0.17285199 0.79255801 4278190080
0.43652299 0.174904 0.790039 4278190080
0.44238299 0.17657401 0.790039 4278190080
0.67258102 0.18457 0.75488299 4278190080
0.66230601 0.17285199 0.772461 4278190080
0.665039 0.175374 0.772461 4278190080
0.468676 0.18457 0.772461 4278190080
0.46582001 0.18457 0.77668202 4278190080
0.47167999 0.190166 0.772461 4278190080
0.65369803 0.16699199 0.77832001 4278190080
0.65917999 0.17153201 0.77832001 4278190080
0.64836502 0.16113301 0.78417999 4278190080
0.65332001 0.16654 0.78417999 4278190080
0.41640699 0.16113301 0.80175799 4278190080
0.413086 0.16113301 0.80480802 4278190080
0.41894501 0.16699199 0.800767 4278190080
0.424813 0.16699199 0.79589802 4278190080
0.42480499 0.16699199 0.79590702 4278190080
0.40100601 0.15527301 0.81347698 4278190080
0.39550799 0.15527301 0.81915802 4278190080
0.40136701 0.155968 0.81347698 4278190080
0.430664 0.178711 0.79285097 4278190080
0.43652299 0.178711 0.79096401 4278190080
0.44621 0.178711 0.790039 4278190080
0.44238299 0.178711 0.790622 4278190080
0.66918999 0.178711 0.772461 4278190080
0.67089802 0.180252 0.772461 4278190080
0.67675799 0.18449201 0.772461 4278190080
0.64640701 0.15527301 0.80175799 4278190080
0.647461 0.15613399 0.80175799 4278190080
0.67574602 0.18457 0.76074201 4278190080
0.67675799 0.185917 0.76074201 4278190080
0.67675799 0.18457 0.76252699 4278190080
0.66075498 0.17285199 0.77832001 4278190080
0.65917999 0.17285199 0.78113103 4278190080
0.665039 0.177818 0.77832001 4278190080
0.42709899 0.17285199 0.79589802 4278190080
0.42480499 0.17285199 0.798096 4278190080
0.65380001 0.16699199 0.78417999 4278190080
0.46349001 0.18457 0.77832001 4278190080
0.459961 0.189172 0.77832001 4278190080
0.459961 0.18457 0.78099102 4278190080
0.41072199 0.16113301 0.80761701 4278190080
0.40722701 0.16113301 0.81118703 4278190080
0.650473 0.16113301 0.790039 4278190080
0.65332001 0.16368601 0.790039 4278190080
0.417934 0.16699199 0.80175799 4278190080
0.413086 0.16699199 0.80683798 4278190080
0.41894501 0.17149 0.80175799 4278190080
0.39530599 0.15527301 0.819336 4278190080
0.38964799 0.15527301 0.825091 4278190080
0.39550799 0.15576001 0.819336 4278190080
0.42637399 0.178711 0.79589802 4278190080
0.64359599 0.15527301 0.80761701 4278190080
0.64160198 0.15527301 0.81184101 4278190080
0.647461 0.15846001 0.80761701 4278190080
0.66615802 0.178711 0.77832001 4278190080
0.665039 0.178711 0.78105098 4278190080
0.67089802 0.1824 0.77832001 4278190080
0.65535599 0.16699199 0.790039 4278190080
0.41931799 0.17285199 0.80175799 4278190080
0.41894501 0.17285199 0.80207902 4278190080
0.67876297 0.18457 0.76660198 4278190080
0.65759301 0.17285199 0.78417999 4278190080
0.65917999 0.174114 0.78417999 4278190080
0.404497 0.16113301 0.81347698 4278190080
0.40136701 0.16113301 0.81626803 4278190080
0.40722701 0.166043 0.81347698 4278190080
0.65207303 0.16113301 0.79589802 4278190080
0.65332001 0.162315 0.79589802 4278190080
0.45423499 0.18457 0.78417999 4278190080
0.45410201 0.184708 0.78417999 4278190080
0.45410201 0.18457 0.78428298 4278190080
0.41213 0.16699199 0.80761701 4278190080
0.413086 0.17067599 0.80761701 4278190080
0.38951501 0.15527301 0.82519501 4278190080
0.383789 0.15527301 0.83075601 4278190080
0.38964799 0.15560199 0.82519501 4278190080
0.655958 0.16699199 0.79589802 4278190080
0.65917999 0.171005 0.79589802 4278190080
0.64038002 0.15527301 0.81347698 4278190080
0.64160198 0.15632799 0.81347698 4278190080
0.647461 0.160487 0.81347698 4278190080
0.66431099 0.178711 0.78417999 4278190080
0.665039 0.17971 0.78417999 4278190080
0.65744197 0.17285199 0.790039 4278190080
0.65917999 0.174538 0.790039 4278190080
0.65917999 0.17285199 0.792952 4278190080
0.67685997 0.18457 0.772461 4278190080
0.67675799 0.18457 0.77262402 4278190080
0.413535 0.17285199 0.80761701 4278190080
0.413086 0.17285199 0.80809498 4278190080
0.39780599 0.16113301 0.819336 4278190080
0.39550799 0.16113301 0.82156998 4278190080
0.65153903 0.16113301 0.80175799 4278190080
0.65332001 0.163113 0.80175799 4278190080
0.40136701 0.16699199 0.81773299 4278190080
0.40773901 0.16699199 0.81347698 4278190080
0.40722701 0.16699199 0.81399 4278190080
0.65638 0.16699199 0.80175799 4278190080
0.65917999 0.169862 0.80175799 4278190080
0.383425 0.15527301 0.83105499 4278190080
0.383789 0.15657499 0.83105499 4278190080
0.637124 0.15527301 0.819336 4278190080
0.63574201 0.15527301 0.82135201 4278190080
0.64160198 0.158867 0.819336 4278190080
0.66287601 0.178711 0.790039 4278190080
0.66095102 0.17285199 0.79589802 4278190080
0.67354399 0.18457 0.77832001 4278190080
0.67089802 0.18457 0.78170598 4278190080
0.39153901 0.16113301 0.82519501 4278190080
0.38964799 0.16113301 0.82713902 4278190080
0.65064698 0.16113301 0.80761701 4278190080
0.65332001 0.16389699 0.80761701 4278190080
0.39880201 0.16699199 0.819336 4278190080
0.39550799 0.16699199 0.822173 4278190080
0.65636402 0.16699199 0.80761701 4278190080
0.65917999 0.170139 0.80761701 4278190080
0.37835899 0.15527301 0.836914 4278190080
0.37792999 0.15527301 0.83730501 4278190080
0.66203803 0.17285199 0.80175799 4278190080
0.66294599 0.178711 0.79589802 4278190080
0.63306302 0.15527301 0.82519501 4278190080
0.62988299 0.15527301 0.82909799 4278190080
0.63574201 0.157498 0.82519501 4278190080
0.38491499 0.16113301 0.83105499 4278190080
0.383789 0.164161 0.83105499 4278190080
0.383789 0.16113301 0.83209199 4278190080
0.66945601 0.18457 0.78417999 4278190080
0.665039 0.18457 0.78911602 4278190080
0.67089802 0.18812799 0.78417999 4278190080
0.64832401 0.16113301 0.81347698 4278190080
0.647461 0.16113301 0.81463999 4278190080
0.65332001 0.164672 0.81347698 4278190080
0.65597701 0.16699199 0.81347698 4278190080
0.65332001 0.16699199 0.81702101 4278190080
0.66221303 0.17285199 0.80761701 4278190080
0.65917999 0.17285199 0.81270403 4278190080
0.665039 0.176671 0.80761701 4278190080
0.39009899 0.16699199 0.82519501 4278190080
0.38964799 0.16727699 0.82519501 4278190080
0.38964799 0.16699199 0.825468 4278190080
0.66446799 0.178711 0.80175799 4278190080
0.665039 0.179691 0.80175799 4278190080
0.665039 0.178711 0.80322099 4278190080
0.62821102 0.15527301 0.83105499 4278190080
0.62988299 0.156809 0.83105499 4278190080
0.63574201 0.160758 0.83105499 4278190080
0.66423702 0.18457 0.790039 4278190080
0.665039 0.18935201 0.790039 4278190080
0.378115 0.16113301 0.836914 4278190080
0.37792999 0.16155399 0.836914 4278190080
0.37792999 0.16113301 0.83711803 4278190080
