# .PCD v0.7 - Point Cloud Data file format
VERSION 0.7
FIELDS x y z rgb
SIZE 4 4 4 4
TYPE F F F U
COUNT 1 1 1 1
WIDTH 1124
HEIGHT 1
VIEWPOINT 0 0 0 1 0 0 0
POINTS 1124
DATA ascii
0.243164 -0.138137 0.94824201 4278190080
0.243164 -0.143555 0.94908899 4278190080
0.24902301 -0.143498 0.94824201 4278190080
0.24902301 -0.143555 0.94825202 4278190080
0.25488299 -0.138909 0.94824201 4278190080
0.25488299 -0.143555 0.949579 4278190080
0.26074201 -0.138422 0.94824201 4278190080
0.26074201 -0.143555 0.951262 4278190080
0.26660201 -0.140047 0.94824201 4278190080
0.26660201 -0.143555 0.95085597 4278190080
0.275015 -0.143555 0.94824201 4278190080
0.272461 -0.142281 0.94824201 4278190080
0.272461 -0.143555 0.94929099 4278190080
-0.0105348 -0.15527301 1.04785 4278190080
-0.0146484 -0.150015 1.04785 4278190080
0.243164 -0.137695 0.94817501 4278190080
0.24902301 -0.137695 0.94727802 4278190080
0.25488299 -0.137695 0.94787401 4278190080
0.26074201 -0.13208599 0.94238299 4278190080
0.26074201 -0.137695 0.94776601 4278190080
0.26660201 -0.13288 0.94238299 4278190080
0.26660201 -0.137695 0.94638097 4278190080
0.27652299 -0.137695 0.94238299 4278190080
0.272461 -0.13489801 0.94238299 4278190080
0.272461 -0.137695 0.944534 4278190080
0.39699101 -0.131836 0.913086 4278190080
0.40136701 -0.130924 0.913086 4278190080
0.40136701 -0.131836 0.91418302 4278190080
0.40722701 -0.129154 0.913086 4278190080
0.40722701 -0.131836 0.91640902 4278190080
0.413086 -0.128355 0.913086 4278190080
0.413086 -0.131836 0.91828901 4278190080
0.41894501 -0.128213 0.913086 4278190080
0.42480499 -0.12746701 0.913086 4278190080
0.430664 -0.126379 0.913086 4278190080
0.350602 -0.15527301 0.97167999 4278190080
0.34863299 -0.15527301 0.97346503 4278190080
-0.024382699 -0.137695 1.04785 4278190080
-0.026367201 -0.13362201 1.04785 4278190080
-0.0108472 -0.149414 1.03613 4278190080
-0.0146484 -0.14403801 1.03613 4278190080
-0.0199167 -0.143555 1.04785 4278190080
-0.020507799 -0.142637 1.04785 4278190080
-0.020507799 -0.143555 1.0497299 4278190080
0.19043 -0.149414 0.96915102 4278190080
0.20183399 -0.149414 0.96582001 4278190080
0.196289 -0.144848 0.96582001 4278190080
0.196289 -0.149414 0.96738201 4278190080
0.367755 -0.149414 0.96582001 4278190080
0.191405 -0.16113301 0.977539 4278190080
0.19043 -0.160577 0.977539 4278190080
0.19043 -0.16113301 0.97803003 4278190080
0.33105499 -0.16113301 0.98021102 4278190080
0.33716601 -0.16113301 0.977539 4278190080
0.336914 -0.16113301 0.97771698 4278190080
0.34277299 -0.158694 0.977539 4278190080
-0.0109149 -0.16113301 1.05957 4278190080
-0.0281907 -0.131836 1.04785 4278190080
-0.0322266 -0.126114 1.04785 4278190080
0.37792999 -0.146513 0.94824201 4278190080
0.383789 -0.145941 0.94824201 4278190080
0.38964799 -0.14406601 0.94824201 4278190080
0.21972699 -0.126995 0.94238299 4278190080
0.21972699 -0.131836 0.94755101 4278190080
0.225586 -0.12747601 0.94238299 4278190080
0.225586 -0.131836 0.94704199 4278190080
0.231445 -0.128277 0.94238299 4278190080
0.231445 -0.131836 0.94706398 4278190080
0.237305 -0.129958 0.94238299 4278190080
0.237305 -0.131836 0.94511497 4278190080
0.243164 -0.131018 0.94238299 4278190080
0.243164 -0.131836 0.94353402 4278190080
0.24902301 -0.131365 0.94238299 4278190080
0.24902301 -0.131836 0.94311798 4278190080
0.25920799 -0.131836 0.94238299 4278190080
0.25488299 -0.131478 0.94238299 4278190080
0.25488299 -0.131836 0.94293803 4278190080
0.37792999 -0.13499799 0.91894501 4278190080
0.37792999 -0.137695 0.92129701 4278190080
0.383789 -0.13443001 0.91894501 4278190080
0.383789 -0.137695 0.92325598 4278190080
0.38964799 -0.133569 0.91894501 4278190080
0.39550799 -0.13319799 0.91894501 4278190080
0.40136701 -0.133077 0.91894501 4278190080
0.40722701 -0.13304199 0.91894501 4278190080
0.413086 -0.132254 0.91894501 4278190080
0.37792999 -0.139874 0.930664 4278190080
0.383789 -0.139732 0.930664 4278190080
0.38964799 -0.13916899 0.930664 4278190080
0.39550799 -0.138108 0.930664 4278190080
0.21386699 -0.143555 0.95985103 4278190080
0.21972699 -0.143555 0.957672 4278190080
0.229096 -0.143555 0.95410198 4278190080
0.225586 -0.14083301 0.95410198 4278190080
0.225586 -0.143555 0.95506299 4278190080
-0.0129129 -0.15527301 1.05371 4278190080
-0.0146484 -0.15274499 1.05371 4278190080
0.21972699 -0.132475 0.94824201 4278190080
0.225586 -0.13315099 0.94824201 4278190080
0.225586 -0.137695 0.95309299 4278190080
0.231445 -0.13332 0.94824201 4278190080
0.231445 -0.137695 0.95192301 4278190080
0.24295101 -0.137695 0.94824201 4278190080
0.237305 -0.13569701 0.94824201 4278190080
0.237305 -0.137695 0.94999802 4278190080
0.34575501 -0.15527301 0.977539 4278190080
0.34277299 -0.15527301 0.98145598 4278190080
0.414249 -0.131836 0.91894501 4278190080
0.41894501 -0.12987299 0.91894501 4278190080
0.41894501 -0.131836 0.92283499 4278190080
0.42480499 -0.129063 0.91894501 4278190080
0.430664 -0.128272 0.91894501 4278190080
0.43652299 -0.127609 0.91894501 4278190080
-0.026042201 -0.137695 1.05371 4278190080
-0.026367201 -0.13680001 1.05371 4278190080
-0.026367201 -0.137695 1.05582 4278190080
-0.0224785 -0.143555 1.05371 4278190080
-0.0130349 -0.149414 1.04199 4278190080
-0.0146484 -0.147498 1.04199 4278190080
-0.0146484 -0.149414 1.04636 4278190080
0.32942501 -0.16113301 0.98339802 4278190080
0.19043 -0.131836 0.95297998 4278190080
0.196289 -0.126449 0.94824201 4278190080
0.196289 -0.131836 0.95135403 4278190080
0.20214801 -0.12869599 0.94824201 4278190080
0.20214801 -0.131836 0.95018399 4278190080
0.20800801 -0.129564 0.94824201 4278190080
0.20800801 -0.131836 0.94984603 4278190080
0.21697199 -0.131836 0.94824201 4278190080
0.21386699 -0.130854 0.94824201 4278190080
0.21386699 -0.131836 0.94904399 4278190080
0.19043 -0.138419 0.959961 4278190080
0.196289 -0.138882 0.959961 4278190080
0.196289 -0.143555 0.96543801 4278190080
0.20214801 -0.139919 0.959961 4278190080
0.20214801 -0.143555 0.96358502 4278190080
0.21348 -0.143555 0.959961 4278190080
0.20800801 -0.14183301 0.959961 4278190080
0.20800801 -0.143555 0.96148098 4278190080
-0.0317 -0.131836 1.05371 4278190080
-0.0322266 -0.131017 1.05371 4278190080
-0.0322266 -0.131836 1.05444 4278190080
0.37792999 -0.147514 0.95410198 4278190080
0.383789 -0.14692999 0.95410198 4278190080
0.38964799 -0.145007 0.95410198 4278190080
-0.0120276 -0.16113301 1.06543 4278190080
-0.0146484 -0.15703 1.06543 4278190080
0.37792999 -0.14131001 0.93652302 4278190080
0.37792999 -0.143555 0.94065398 4278190080
0.383789 -0.141095 0.93652302 4278190080
0.38964799 -0.140609 0.93652302 4278190080
0.39550799 -0.140255 0.93652302 4278190080
0.40136701 -0.13885 0.93652302 4278190080
0.38616201 -0.137695 0.92480499 4278190080
0.38964799 -0.136122 0.92480499 4278190080
0.38964799 -0.137695 0.92687702 4278190080
0.39550799 -0.134376 0.92480499 4278190080
0.39550799 -0.137695 0.93009001 4278190080
0.40136701 -0.133928 0.92480499 4278190080
0.40722701 -0.134157 0.92480499 4278190080
0.413086 -0.134064 0.92480499 4278190080
0.41894501 -0.13278399 0.92480499 4278190080
-0.0145955 -0.15527301 1.05957 4278190080
-0.0146484 -0.15518001 1.05957 4278190080
-0.0146484 -0.15527301 1.0599 4278190080
0.19043 -0.13269 0.95410198 4278190080
0.19043 -0.137695 0.95918101 4278190080
0.196289 -0.133745 0.95410198 4278190080
0.196289 -0.137695 0.95880097 4278190080
0.20214801 -0.134615 0.95410198 4278190080
0.20214801 -0.137695 0.95805502 4278190080
0.20800801 -0.135142 0.95410198 4278190080
0.20800801 -0.137695 0.95711601 4278190080
0.21386699 -0.135691 0.95410198 4278190080
0.21386699 -0.137695 0.95660102 4278190080
0.222718 -0.137695 0.95410198 4278190080
0.21972699 -0.136968 0.95410198 4278190080
0.21972699 -0.137695 0.95509499 4278190080
-0.0305405 -0.137695 1.05957 4278190080
-0.0322266 -0.136777 1.05957 4278190080
-0.0322266 -0.137695 1.0603 4278190080
0.42434001 -0.131836 0.92480499 4278190080
0.42480499 -0.131741 0.92480499 4278190080
0.42480499 -0.131836 0.92499101 4278190080
0.430664 -0.129719 0.92480499 4278190080
0.430664 -0.131836 0.92929202 4278190080
0.43652299 -0.129124 0.92480499 4278190080
0.44238299 -0.126296 0.92480499 4278190080
-0.023917399 -0.143555 1.05957 4278190080
-0.026367201 -0.139521 1.05957 4278190080
-0.026367201 -0.143555 1.06536 4278190080
-0.0152719 -0.149414 1.04785 4278190080
0.194014 -0.143555 0.96582001 4278190080
0.19043 -0.14311901 0.96582001 4278190080
0.19043 -0.143555 0.96646202 4278190080
0.37792999 -0.14823 0.959961 4278190080
0.38964799 -0.14426801 0.959961 4278190080
-0.016638501 -0.15527301 1.06543 4278190080
0.39629599 -0.137695 0.930664 4278190080
0.40136701 -0.135361 0.930664 4278190080
0.40136701 -0.137695 0.93486202 4278190080
0.40722701 -0.135095 0.930664 4278190080
0.413086 -0.135095 0.930664 4278190080
0.41894501 -0.13495199 0.930664 4278190080
0.42480499 -0.13417999 0.930664 4278190080
0.430664 -0.132882 0.930664 4278190080
0.38286901 -0.143555 0.94238299 4278190080
0.383789 -0.143352 0.94238299 4278190080
0.383789 -0.143555 0.94269502 4278190080
0.38964799 -0.14182299 0.94238299 4278190080
0.38964799 -0.143555 0.94737601 4278190080
0.39550799 -0.14135 0.94238299 4278190080
0.40136701 -0.140953 0.94238299 4278190080
0.40722701 -0.139081 0.94238299 4278190080
-0.0180714 -0.149414 1.05371 4278190080
-0.020507799 -0.146028 1.05371 4278190080
0.432693 -0.131836 0.930664 4278190080
0.43652299 -0.129778 0.930664 4278190080
0.44238299 -0.12673999 0.930664 4278190080
-0.020507799 -0.15217 1.07129 4278190080
0.40498701 -0.137695 0.93652302 4278190080
0.40722701 -0.137061 0.93652302 4278190080
0.40722701 -0.137695 0.93888098 4278190080
0.413086 -0.136099 0.93652302 4278190080
0.41894501 -0.135585 0.93652302 4278190080
0.42480499 -0.13496 0.93652302 4278190080
0.430664 -0.134271 0.93652302 4278190080
0.39076501 -0.143555 0.94824201 4278190080
0.39550799 -0.142314 0.94824201 4278190080
0.40136701 -0.141802 0.94824201 4278190080
-0.0203573 -0.149414 1.05957 4278190080
-0.020507799 -0.149014 1.05957 4278190080
0.383789 -0.143555 0.95971 4278190080
0.39276901 -0.143555 0.95410198 4278190080
0.40968299 -0.137695 0.94238299 4278190080
0.40722701 -0.137695 0.94468403 4278190080
0.413086 -0.13652501 0.94238299 4278190080
0.41894501 -0.135097 0.94238299 4278190080
-0.026367201 -0.143602 1.06543 4278190080
-0.020507799 -0.147558 1.06543 4278190080
-0.020507799 -0.149414 1.06678 4278190080
0.383614 -0.143555 0.959961 4278190080
0.385997 -0.143555 0.959961 4278190080
0.391031 -0.143555 0.959961 4278190080
0.40599999 -0.137695 0.94824201 4278190080
0.18457 -0.120117 0.94770199 4278190080
0.178711 -0.12597699 0.95237303 4278190080
0.18457 -0.121118 0.94824201 4278190080
0.18457 -0.12597699 0.950804 4278190080
0.18457 -0.102539 0.93597299 4278190080
0.178711 -0.108398 0.94185501 4278190080
0.18457 -0.103368 0.93652302 4278190080
0.18457 -0.108398 0.94006598 4278190080
0.17285199 -0.114258 0.94732702 4278190080
0.178711 -0.109395 0.94238299 4278190080
0.178711 -0.114258 0.94503301 4278190080
0.18867999 -0.114258 0.94238299 4278190080
0.18457 -0.112524 0.94238299 4278190080
0.18457 -0.114258 0.94331402 4278190080
0.16699199 -0.096679702 0.93595499 4278190080
0.17285199 -0.091316499 0.930664 4278190080
0.17285199 -0.096679702 0.93466097 4278190080
0.178711 -0.0928149 0.930664 4278190080
0.178711 -0.096679702 0.933101 4278190080
0.18764199 -0.096679702 0.930664 4278190080
0.18457 -0.095892102 0.930664 4278190080
0.18457 -0.096679702 0.93119198 4278190080
0.16113301 -0.120117 0.95348901 4278190080
0.16699199 -0.120117 0.95188802 4278190080
0.17285199 -0.115764 0.94824201 4278190080
0.17285199 -0.120117 0.950885 4278190080
0.18253601 -0.120117 0.94824201 4278190080
0.178711 -0.11868 0.94824201 4278190080
0.178711 -0.120117 0.949233 4278190080
0.15527301 -0.12597699 0.95926398 4278190080
0.16113301 -0.120976 0.95410198 4278190080
0.16113301 -0.12597699 0.95776302 4278190080
0.16699199 -0.123165 0.95410198 4278190080
0.16699199 -0.12597699 0.95616198 4278190080
0.17317601 -0.12597699 0.95410198 4278190080
0.17285199 -0.125798 0.95410198 4278190080
0.17285199 -0.12597699 0.95420301 4278190080
0.16113301 -0.102539 0.94140297 4278190080
0.16699199 -0.097504497 0.93652302 4278190080
0.16699199 -0.102539 0.93987799 4278190080
0.17285199 -0.098915704 0.93652302 4278190080
0.17285199 -0.102539 0.93946999 4278190080
0.183164 -0.102539 0.93652302 4278190080
0.178711 -0.100608 0.93652302 4278190080
0.178711 -0.102539 0.93826997 4278190080
0.16113301 -0.103567 0.94238299 4278190080
0.16113301 -0.108398 0.94714302 4278190080
0.16699199 -0.105772 0.94238299 4278190080
0.16699199 -0.108398 0.94449401 4278190080
0.17676599 -0.108398 0.94238299 4278190080
0.17285199 -0.106899 0.94238299 4278190080
0.17285199 -0.108398 0.94341099 4278190080
0.15527301 -0.114258 0.952434 4278190080
0.16113301 -0.110346 0.94824201 4278190080
0.16113301 -0.114258 0.95048398 4278190080
0.16917001 -0.114258 0.94824201 4278190080
0.16699199 -0.11352 0.94824201 4278190080
0.16699199 -0.114258 0.94880903 4278190080
0.143555 -0.096679702 0.94234902 4278190080
0.149414 -0.092107497 0.93652302 4278190080
0.149414 -0.096679702 0.94046801 4278190080
0.15527301 -0.092918903 0.93652302 4278190080
0.15527301 -0.096679702 0.93910402 4278190080
0.16478901 -0.096679702 0.93652302 4278190080
0.16113301 -0.0951446 0.93652302 4278190080
0.16113301 -0.096679702 0.93748802 4278190080
0.143555 -0.120117 0.959337 4278190080
0.149414 -0.120117 0.95726502 4278190080
0.159264 -0.120117 0.95410198 4278190080
0.15527301 -0.117485 0.95410198 4278190080
0.15527301 -0.120117 0.95550799 4278190080
0.137695 -0.12597699 0.96504098 4278190080
0.143555 -0.121048 0.959961 4278190080
0.143555 -0.12597699 0.96343797 4278190080
0.153027 -0.12597699 0.959961 4278190080
0.149414 -0.124169 0.959961 4278190080
0.149414 -0.12597699 0.96122199 4278190080
0.137695 -0.102539 0.94744599 4278190080
0.143555 -0.096732102 0.94238299 4278190080
0.143555 -0.102539 0.94600898 4278190080
0.149414 -0.099784702 0.94238299 4278190080
0.149414 -0.102539 0.944152 4278190080
0.157803 -0.102539 0.94238299 4278190080
0.15527301 -0.101476 0.94238299 4278190080
0.15527301 -0.102539 0.943151 4278190080
-0.0029296901 -0.096679702 0.98313701 4278190080
0.131836 -0.108398 0.953789 4278190080
0.137695 -0.103407 0.94824201 4278190080
0.137695 -0.108398 0.95254397 4278190080
0.143555 -0.104953 0.94824201 4278190080
0.143555 -0.108398 0.95138103 4278190080
0.149414 -0.106686 0.94824201 4278190080
0.149414 -0.108398 0.94986302 4278190080
0.157076 -0.108398 0.94824201 4278190080
0.15527301 -0.107887 0.94824201 4278190080
0.15527301 -0.108398 0.94874197 4278190080
0.131836 -0.108779 0.95410198 4278190080
0.131836 -0.114258 0.95888001 4278190080
0.137695 -0.110259 0.95410198 4278190080
0.137695 -0.114258 0.95774198 4278190080
0.143555 -0.111639 0.95410198 4278190080
0.143555 -0.114258 0.95639902 4278190080
0.150363 -0.114258 0.95410198 4278190080
0.149414 -0.113859 0.95410198 4278190080
0.149414 -0.114258 0.95443302 4278190080
0.120117 -0.096679702 0.94715202 4278190080
0.12597699 -0.092485704 0.94238299 4278190080
0.12597699 -0.096679702 0.94655198 4278190080
0.131836 -0.093876399 0.94238299 4278190080
0.131836 -0.096679702 0.94499803 4278190080
0.143389 -0.096679702 0.94238299 4278190080
0.137695 -0.0953523 0.94238299 4278190080
0.137695 -0.096679702 0.94349802 4278190080
-0.0029296901 -0.120117 1.00045 4278190080
0.12597699 -0.120117 0.96473801 4278190080
0.131836 -0.116234 0.959961 4278190080
0.131836 -0.120117 0.96221399 4278190080
0.141551 -0.120117 0.959961 4278190080
0.137695 -0.118042 0.959961 4278190080
0.137695 -0.120117 0.96118402 4278190080
0.114258 -0.12597699 0.97165698 4278190080
0.120117 -0.12597699 0.96975201 4278190080
0.12597699 -0.122016 0.96582001 4278190080
0.12597699 -0.12597699 0.96789402 4278190080
0.133545 -0.12597699 0.96582001 4278190080
0.131836 -0.125468 0.96582001 4278190080
0.131836 -0.12597699 0.96614599 4278190080
-0.0087890597 -0.102539 0.98845798 4278190080
-0.0029296901 -0.097038597 0.98339802 4278190080
-0.0029296901 -0.102539 0.98712301 4278190080
-0.0087890597 -0.12597699 1.00577 4278190080
-0.0029296901 -0.120851 1.00098 4278190080
-0.0029296901 -0.12597699 1.0046901 4278190080
-0.0146484 -0.096679702 0.98777997 4278190080
-0.0034909199 -0.096679702 0.98339802 4278190080
-0.0087890597 -0.096679702 0.98593199 4278190080
0.114258 -0.102539 0.95380801 4278190080
0.120117 -0.097989596 0.94824201 4278190080
0.120117 -0.102539 0.952209 4278190080
0.12597699 -0.098819599 0.94824201 4278190080
0.12597699 -0.102539 0.951213 4278190080
0.135554 -0.102539 0.94824201 4278190080
0.131836 -0.100771 0.94824201 4278190080
0.131836 -0.102539 0.94970202 4278190080
-0.0146484 -0.109505 0.99511701 4278190080
-0.0146484 -0.114258 0.99894798 4278190080
-0.0087890597 -0.110931 0.99511701 4278190080
-0.0087890597 -0.114258 0.99752402 4278190080
-0.00165319 -0.114258 0.99511701 4278190080
-0.0029296901 -0.113641 0.99511701 4278190080
-0.0029296901 -0.114258 0.99550599 4278190080
0.108398 -0.114258 0.96490502 4278190080
0.114258 -0.110207 0.959961 4278190080
0.114258 -0.114258 0.96334201 4278190080
0.120117 -0.111757 0.959961 4278190080
0.120117 -0.114258 0.962165 4278190080
0.128059 -0.114258 0.959961 4278190080
0.12597699 -0.113537 0.959961 4278190080
0.12597699 -0.114258 0.96054602 4278190080
-0.0146484 -0.108398 0.99425501 4278190080
-0.0087890597 -0.103561 0.98925799 4278190080
-0.0087890597 -0.108398 0.99327499 4278190080
-0.0029296901 -0.105213 0.98925799 4278190080
-0.0029296901 -0.108398 0.99186301 4278190080
0.114258 -0.102905 0.95410198 4278190080
0.114258 -0.108398 0.95853299 4278190080
0.120117 -0.104761 0.95410198 4278190080
0.120117 -0.108398 0.95712602 4278190080
0.130797 -0.108398 0.95410198 4278190080
0.12597699 -0.106356 0.95410198 4278190080
0.12597699 -0.108398 0.95565897 4278190080
-0.020507799 -0.120117 1.0063 4278190080
-0.0146484 -0.117119 1.00098 4278190080
-0.0146484 -0.120117 1.00306 4278190080
-0.00567484 -0.120117 1.00098 4278190080
-0.0087890597 -0.11922 1.00098 4278190080
-0.0087890597 -0.120117 1.00158 4278190080
0.096679702 -0.096679702 0.95328301 4278190080
0.102539 -0.091705799 0.94824201 4278190080
0.102539 -0.096679702 0.95230103 4278190080
0.108398 -0.093892001 0.94824201 4278190080
0.108398 -0.096679702 0.95067 4278190080
0.114689 -0.096679702 0.94824201 4278190080
0.114258 -0.096567601 0.94824201 4278190080
0.114258 -0.096679702 0.94833302 4278190080
-0.020507799 -0.120375 1.00684 4278190080
-0.0118835 -0.12597699 1.00684 4278190080
-0.0146484 -0.124817 1.00684 4278190080
-0.0146484 -0.12597699 1.00775 4278190080
-0.026367201 -0.102539 0.994196 4278190080
-0.020507799 -0.102539 0.99157 4278190080
-0.0121014 -0.102539 0.98925799 4278190080
-0.0146484 -0.100644 0.98925799 4278190080
-0.0146484 -0.102539 0.98990101 4278190080
0.102539 -0.120117 0.97106099 4278190080
0.108398 -0.115386 0.96582001 4278190080
0.108398 -0.120117 0.969643 4278190080
0.114258 -0.117139 0.96582001 4278190080
0.114258 -0.120117 0.96828097 4278190080
0.122887 -0.120117 0.96582001 4278190080
0.120117 -0.118972 0.96582001 4278190080
0.120117 -0.120117 0.966676 4278190080
0.096679702 -0.12597699 0.97656798 4278190080
0.102539 -0.120965 0.97167999 4278190080
0.102539 -0.12597699 0.97526997 4278190080
0.114183 -0.12597699 0.97167999 4278190080
0.108398 -0.123282 0.97167999 4278190080
0.108398 -0.12597699 0.97334301 4278190080
-0.026367201 -0.096679702 0.99267399 4278190080
-0.0189397 -0.096679702 0.98925799 4278190080
-0.020507799 -0.091328599 0.98925799 4278190080
-0.020507799 -0.096679702 0.989784 4278190080
0.096679702 -0.097506203 0.95410198 4278190080
0.096679702 -0.102539 0.95897597 4278190080
0.102539 -0.098547898 0.95410198 4278190080
0.102539 -0.102539 0.95773703 4278190080
0.113582 -0.102539 0.95410198 4278190080
0.108398 -0.10014 0.95410198 4278190080
0.108398 -0.102539 0.95645398 4278190080
-0.026367201 -0.108908 1.00098 4278190080
-0.0202899 -0.114258 1.00098 4278190080
-0.020507799 -0.114162 1.00098 4278190080
-0.020507799 -0.114258 1.00105 4278190080
-0.020707 -0.120117 1.00684 4278190080
0.0849609 -0.114258 0.97106099 4278190080
0.090820298 -0.109203 0.96582001 4278190080
0.090820298 -0.114258 0.96894997 4278190080
0.096679702 -0.11153 0.96582001 4278190080
0.096679702 -0.114258 0.96752799 4278190080
0.105487 -0.114258 0.96582001 4278190080
0.102539 -0.113096 0.96582001 4278190080
0.102539 -0.114258 0.96670002 4278190080
0.090820298 -0.108398 0.96529299 4278190080
0.096679702 -0.103851 0.959961 4278190080
0.096679702 -0.108398 0.96365899 4278190080
0.102539 -0.105571 0.959961 4278190080
0.102539 -0.108398 0.96211499 4278190080
0.10965 -0.108398 0.959961 4278190080
0.108398 -0.107794 0.959961 4278190080
0.108398 -0.108398 0.96034902 4278190080
-0.026367201 -0.103447 0.99511701 4278190080
-0.026367201 -0.108398 0.99980003 4278190080
-0.017176401 -0.108398 0.99511701 4278190080
-0.020507799 -0.106906 0.99511701 4278190080
-0.020507799 -0.108398 0.996288 4278190080
-0.0174613 -0.12597699 1.0127 4278190080
-0.020507799 -0.123516 1.0127 4278190080
-0.020507799 -0.12597699 1.01662 4278190080
0.073242202 -0.0910298 0.95410198 4278190080
0.0791016 -0.092766397 0.95410198 4278190080
0.0791016 -0.096679702 0.958215 4278190080
0.0849609 -0.093517199 0.95410198 4278190080
0.0849609 -0.096679702 0.95721102 4278190080
0.093862802 -0.096679702 0.95410198 4278190080
0.090820298 -0.095612399 0.95410198 4278190080
0.090820298 -0.096679702 0.95500898 4278190080
-0.026870299 -0.102539 0.99511701 4278190080
0.0849609 -0.114895 0.97167999 4278190080
0.0849609 -0.120117 0.97659999 4278190080
0.090820298 -0.117222 0.97167999 4278190080
0.090820298 -0.120117 0.97437799 4278190080
0.099029899 -0.120117 0.97167999 4278190080
0.096679702 -0.119603 0.97167999 4278190080
0.096679702 -0.120117 0.97208703 4278190080
0.073242202 -0.12597699 0.983325 4278190080
0.0791016 -0.12597699 0.98143297 4278190080
0.0849609 -0.121483 0.977539 4278190080
0.0849609 -0.12597699 0.980676 4278190080
0.094451398 -0.12597699 0.977539 4278190080
0.090820298 -0.124045 0.977539 4278190080
0.090820298 -0.12597699 0.979159 4278190080
-0.031592999 -0.096679702 0.99511701 4278190080
-0.0322266 -0.095870897 0.99511701 4278190080
-0.0322266 -0.096679702 0.99541199 4278190080
0.073242202 -0.102539 0.964791 4278190080
0.0791016 -0.099035397 0.959961 4278190080
0.0791016 -0.102539 0.96263999 4278190080
0.0849609 -0.100224 0.959961 4278190080
0.0849609 -0.102539 0.96177399 4278190080
0.092464902 -0.102539 0.959961 4278190080
0.090820298 -0.102098 0.959961 4278190080
0.090820298 -0.102539 0.960338 4278190080
-0.023044299 -0.120117 1.0127 4278190080
-0.026367201 -0.114949 1.0127 4278190080
-0.0234241 -0.114258 1.00684 4278190080
-0.026367201 -0.111748 1.00684 4278190080
-0.026367201 -0.114258 1.0116 4278190080
0.073242202 -0.103579 0.96582001 4278190080
0.073242202 -0.108398 0.97066802 4278190080
0.0791016 -0.10604 0.96582001 4278190080
0.0791016 -0.108398 0.96795899 4278190080
0.088369101 -0.108398 0.96582001 4278190080
0.0849609 -0.107524 0.96582001 4278190080
0.0849609 -0.108398 0.966501 4278190080
0.067382798 -0.114258 0.97643101 4278190080
0.073242202 -0.109759 0.97167999 4278190080
0.073242202 -0.114258 0.97505701 4278190080
0.083008997 -0.114258 0.97167999 4278190080
0.0791016 -0.112804 0.97167999 4278190080
0.0791016 -0.114258 0.97287601 4278190080
-0.0267493 -0.108398 1.00098 4278190080
-0.021242499 -0.12597699 1.01855 4278190080
-0.0304494 -0.102539 1.00098 4278190080
-0.0322266 -0.100513 1.00098 4278190080
-0.0322266 -0.102539 1.0033799 4278190080
0.049804699 -0.096679702 0.96558702 4278190080
0.0556641 -0.092332497 0.959961 4278190080
0.0556641 -0.096679702 0.96356601 4278190080
0.0615234 -0.094122499 0.959961 4278190080
0.0615234 -0.096679702 0.962475 4278190080
0.067382798 -0.095274404 0.959961 4278190080
0.067382798 -0.096679702 0.96132898 4278190080
0.0734597 -0.096679702 0.959961 4278190080
0.073242202 -0.096616998 0.959961 4278190080
0.073242202 -0.096679702 0.96002901 4278190080
0.0615234 -0.120117 0.98252898 4278190080
0.067382798 -0.115652 0.977539 4278190080
0.067382798 -0.120117 0.981206 4278190080
0.073242202 -0.117828 0.977539 4278190080
0.073242202 -0.120117 0.97918099 4278190080
0.080935501 -0.120117 0.977539 4278190080
0.0791016 -0.119627 0.977539 4278190080
0.0791016 -0.120117 0.97795701 4278190080
0.0556641 -0.12597699 0.98888397 4278190080
0.0615234 -0.121258 0.98339802 4278190080
0.0615234 -0.12597699 0.98712099 4278190080
0.0730666 -0.12597699 0.98339802 4278190080
0.067382798 -0.122994 0.98339802 4278190080
0.067382798 -0.12597699 0.98566198 4278190080
-0.0344279 -0.096679702 1.00098 4278190080
-0.0380859 -0.092796102 1.00098 4278190080
0.049804699 -0.096901998 0.96582001 4278190080
0.0556641 -0.098990701 0.96582001 4278190080
0.0556641 -0.102539 0.96959198 4278190080
0.0615234 -0.100601 0.96582001 4278190080
0.0615234 -0.102539 0.96754599 4278190080
0.069819704 -0.102539 0.96582001 4278190080
0.067382798 -0.101707 0.96582001 4278190080
0.067382798 -0.102539 0.96657902 4278190080
-0.025090201 -0.120117 1.01855 4278190080
-0.026367201 -0.118554 1.01855 4278190080
-0.026367201 -0.120117 1.02162 4278190080
-0.028724199 -0.108398 1.00684 4278190080
-0.0322266 -0.104048 1.00684 4278190080
-0.0268308 -0.114258 1.0127 4278190080
0.049804699 -0.108398 0.97669399 4278190080
0.0556641 -0.104965 0.97167999 4278190080
0.0556641 -0.108398 0.97461098 4278190080
0.0615234 -0.10696 0.97167999 4278190080
0.0615234 -0.108398 0.97294402 4278190080
0.068993799 -0.108398 0.97167999 4278190080
0.067382798 -0.107982 0.97167999 4278190080
0.067382798 -0.108398 0.97204399 4278190080
0.043945301 -0.114258 0.98279703 4278190080
0.049804699 -0.109422 0.977539 4278190080
0.049804699 -0.114258 0.98153698 4278190080
0.0556641 -0.111934 0.977539 4278190080
0.0556641 -0.114258 0.97953802 4278190080
0.063413598 -0.114258 0.977539 4278190080
0.0615234 -0.113663 0.977539 4278190080
0.0615234 -0.114258 0.978109 4278190080
-0.023813499 -0.12597699 1.02441 4278190080
-0.026367201 -0.121753 1.02441 4278190080
-0.033876099 -0.102539 1.00684 4278190080
0.0380859 -0.096679702 0.97110701 4278190080
0.0493512 -0.096679702 0.96582001 4278190080
0.043945301 -0.093501903 0.96582001 4278190080
0.043945301 -0.096679702 0.968732 4278190080
0.043945301 -0.115005 0.98339802 4278190080
0.043945301 -0.120117 0.98757899 4278190080
0.049804699 -0.116921 0.98339802 4278190080
0.049804699 -0.120117 0.98561901 4278190080
0.0584791 -0.120117 0.98339802 4278190080
0.0556641 -0.11905 0.98339802 4278190080
0.0556641 -0.120117 0.98421001 4278190080
0.0380859 -0.12597699 0.99349201 4278190080
0.043945301 -0.122261 0.98925799 4278190080
0.043945301 -0.12597699 0.99206603 4278190080
0.054524701 -0.12597699 0.98925799 4278190080
0.049804699 -0.124234 0.98925799 4278190080
0.049804699 -0.12597699 0.99066299 4278190080
-0.0380431 -0.096679702 1.00684 4278190080
-0.0380859 -0.096635297 1.00684 4278190080
-0.0380859 -0.096679702 1.00691 4278190080
-0.030569701 -0.108398 1.0127 4278190080
-0.0322266 -0.10649 1.0127 4278190080
-0.0322266 -0.108398 1.01705 4278190080
-0.027417799 -0.120117 1.02441 4278190080
-0.0322266 -0.114657 1.02441 4278190080
0.0322266 -0.102539 0.976816 4278190080
0.0380859 -0.097539403 0.97167999 4278190080
0.0380859 -0.102539 0.97516501 4278190080
0.043945301 -0.100191 0.97167999 4278190080
0.043945301 -0.102539 0.97366601 4278190080
0.0499654 -0.102539 0.97167999 4278190080
0.049804699 -0.102481 0.97167999 4278190080
0.049804699 -0.102539 0.97173798 4278190080
-0.026020501 -0.12597699 1.03027 4278190080
-0.026367201 -0.12542599 1.03027 4278190080
-0.026367201 -0.12597699 1.0316 4278190080
-0.029814599 -0.114258 1.01855 4278190080
-0.0322266 -0.109665 1.01855 4278190080
-0.0322266 -0.114258 1.02361 4278190080
0.026367201 -0.108398 0.982324 4278190080
0.0322266 -0.103514 0.977539 4278190080
0.0322266 -0.108398 0.981143 4278190080
0.0380859 -0.105864 0.977539 4278190080
0.0380859 -0.108398 0.97922498 4278190080
0.044751499 -0.108398 0.977539 4278190080
0.043945301 -0.108193 0.977539 4278190080
0.043945301 -0.108398 0.97767699 4278190080
0.026367201 -0.109473 0.98339802 4278190080
0.026367201 -0.114258 0.98779398 4278190080
0.0322266 -0.110812 0.98339802 4278190080
0.0322266 -0.114258 0.98630399 4278190080
0.042072199 -0.114258 0.98339802 4278190080
0.0380859 -0.112883 0.98339802 4278190080
0.0380859 -0.114258 0.98462999 4278190080
-0.036406498 -0.102539 1.0127 4278190080
-0.0380859 -0.100109 1.0127 4278190080
-0.0380859 -0.102539 1.01718 4278190080
0.0146484 -0.096679702 0.97721303 4278190080
0.020507799 -0.096679702 0.97505999 4278190080
0.026367201 -0.093704201 0.97167999 4278190080
0.026367201 -0.096679702 0.97308999 4278190080
0.033732701 -0.096679702 0.97167999 4278190080
0.0322266 -0.096353799 0.97167999 4278190080
0.0322266 -0.096679702 0.97187901 4278190080
0.020507799 -0.120685 0.99511701 4278190080
0.020507799 -0.12597699 0.999237 4278190080
0.026367201 -0.123323 0.99511701 4278190080
0.026367201 -0.12597699 0.99704403 4278190080
0.0333018 -0.12597699 0.99511701 4278190080
0.0322266 -0.125434 0.99511701 4278190080
0.0322266 -0.12597699 0.99550301 4278190080
0.020507799 -0.120117 0.99467802 4278190080
0.026367201 -0.116008 0.98925799 4278190080
0.026367201 -0.120117 0.99282998 4278190080
0.0322266 -0.117855 0.98925799 4278190080
0.0322266 -0.120117 0.991292 4278190080
0.039001901 -0.120117 0.98925799 4278190080
0.0380859 -0.119767 0.98925799 4278190080
0.0380859 -0.120117 0.98956501 4278190080
-0.041265801 -0.096679702 1.0127 4278190080
-0.043945301 -0.093729302 1.0127 4278190080
-0.043945301 -0.096679702 1.01688 4278190080
-0.0299141 -0.120117 1.03027 4278190080
-0.0322266 -0.117026 1.03027 4278190080
-0.0280014 -0.12597699 1.03613 4278190080
-0.033037301 -0.108398 1.01855 4278190080
-0.0380859 -0.103156 1.01855 4278190080
-0.032673001 -0.114258 1.02441 4278190080
0.0087890597 -0.102539 0.98301101 4278190080
0.0146484 -0.097087003 0.977539 4278190080
0.0146484 -0.102539 0.98162502 4278190080
0.020507799 -0.099438898 0.977539 4278190080
0.020507799 -0.102539 0.98020798 4278190080
0.029989701 -0.102539 0.977539 4278190080
0.026367201 -0.101338 0.977539 4278190080
0.026367201 -0.102539 0.97867 4278190080
0.0087890597 -0.102965 0.98339802 4278190080
0.0087890597 -0.108398 0.98837203 4278190080
0.0146484 -0.104714 0.98339802 4278190080
0.0146484 -0.108398 0.98656702 4278190080
0.0234804 -0.108398 0.98339802 4278190080
0.020507799 -0.106955 0.98339802 4278190080
0.020507799 -0.108398 0.98444802 4278190080
-0.038767699 -0.102539 1.01855 4278190080
-0.043945301 -0.097681597 1.01855 4278190080
0.0029296901 -0.114258 0.99368203 4278190080
0.0087890597 -0.109728 0.98925799 4278190080
0.0087890597 -0.114258 0.99227798 4278190080
0.0146484 -0.1117 0.98925799 4278190080
0.0146484 -0.114258 0.99134099 4278190080
0.0216194 -0.114258 0.98925799 4278190080
0.020507799 -0.113856 0.98925799 4278190080
0.020507799 -0.114258 0.98959798 4278190080
0.0029296901 -0.096679702 0.980573 4278190080
0.0129607 -0.096679702 0.977539 4278190080
0.0087890597 -0.091302499 0.977539 4278190080
0.0087890597 -0.096679702 0.97838098 4278190080
-0.045230702 -0.096679702 1.01855 4278190080
0.0029296901 -0.122187 1.00098 4278190080
0.0029296901 -0.12597699 1.00471 4278190080
0.0087890597 -0.123289 1.00098 4278190080
0.0087890597 -0.12597699 1.0036 4278190080
0.016131001 -0.12597699 1.00098 4278190080
0.0146484 -0.125275 1.00098 4278190080
0.0146484 -0.12597699 1.00156 4278190080
0.0029296901 -0.11575 0.99511701 4278190080
0.0029296901 -0.120117 0.99903798 4278190080
0.0087890597 -0.117026 0.99511701 4278190080
0.0087890597 -0.120117 0.99807501 4278190080
0.0191679 -0.120117 0.99511701 4278190080
0.0146484 -0.118459 0.99511701 4278190080
0.0146484 -0.120117 0.99661601 4278190080
-0.0322266 -0.120117 1.03613 4278190080
-0.0322266 -0.120117 1.03613 4278190080
-0.0322266 -0.120117 1.03613 4278190080
-0.031042499 -0.12597699 1.04199 4278190080
-0.0322266 -0.123961 1.04199 4278190080
-0.0322266 -0.12597699 1.0476 4278190080
-0.035142899 -0.114258 1.03027 4278190080
-0.0380859 -0.111075 1.03027 4278190080
-0.036570702 -0.108398 1.02441 4278190080
-0.0380859 -0.106504 1.02441 4278190080
-0.0380859 -0.108398 1.0267 4278190080
0.36035201 -0.103576 0.88964802 4278190080
0.36035201 -0.108398 0.895248 4278190080
0.366211 -0.104271 0.88964802 4278190080
0.366211 -0.108398 0.89466703 4278190080
0.37207001 -0.104445 0.88964802 4278190080
0.37207001 -0.108398 0.89459801 4278190080
0.36035201 -0.108597 0.89550799 4278190080
0.366211 -0.109182 0.89550799 4278190080
0.37207001 -0.109414 0.89550799 4278190080
0.37207001 -0.114258 0.900612 4278190080
0.37207001 -0.115092 0.90136701 4278190080
0.37207001 -0.120117 0.905644 4278190080
0.0077414499 -0.102539 0.98339802 4278190080
0.0029296901 -0.100193 0.98339802 4278190080
0.0029296901 -0.102539 0.985183 4278190080
0.366211 -0.096679702 0.88306099 4278190080
0.37207001 -0.091430202 0.87792999 4278190080
0.37207001 -0.096679702 0.88089699 4278190080
-0.042029001 -0.102539 1.02441 4278190080
-0.043945301 -0.100878 1.02441 4278190080
-0.043945301 -0.102539 1.02763 4278190080
0.0057374202 -0.108398 0.98925799 4278190080
0.0029296901 -0.107424 0.98925799 4278190080
0.0029296901 -0.108398 0.99009103 4278190080
0.36035201 -0.102539 0.888188 4278190080
0.366211 -0.097515702 0.883789 4278190080
0.366211 -0.102539 0.887393 4278190080
0.37207001 -0.099382497 0.883789 4278190080
0.37207001 -0.102539 0.88684201 4278190080
-0.049143601 -0.096679702 1.02441 4278190080
-0.049804699 -0.095732197 1.02441 4278190080
-0.049804699 -0.096679702 1.02552 4278190080
-0.036536701 -0.120117 1.04199 4278190080
-0.0380859 -0.117892 1.04199 4278190080
-0.0380859 -0.120117 1.04544 4278190080
-0.032425299 -0.12597699 1.04785 4278190080
-0.0380859 -0.121707 1.04785 4278190080
-0.0408413 -0.108398 1.03027 4278190080
-0.043945301 -0.104428 1.03027 4278190080
-0.037549902 -0.114258 1.03613 4278190080
-0.0380859 -0.113683 1.03613 4278190080
-0.0380859 -0.114258 1.03763 4278190080
0.34277299 -0.11489 0.90722698 4278190080
0.34863299 -0.116315 0.90722698 4278190080
0.34863299 -0.120117 0.91243303 4278190080
0.35449201 -0.116754 0.90722698 4278190080
0.35449201 -0.120117 0.91094702 4278190080
0.36035201 -0.11783 0.90722698 4278190080
0.36035201 -0.120117 0.90935498 4278190080
0.367762 -0.120117 0.90722698 4278190080
0.366211 -0.11949 0.90722698 4278190080
0.366211 -0.120117 0.90782303 4278190080
0.336914 -0.103345 0.89550799 4278190080
0.34277299 -0.106794 0.89550799 4278190080
0.34277299 -0.108398 0.89673299 4278190080
0.34863299 -0.106714 0.89550799 4278190080
0.34863299 -0.108398 0.896815 4278190080
0.35925099 -0.108398 0.89550799 4278190080
0.35449201 -0.107228 0.89550799 4278190080
0.35449201 -0.108398 0.89665997 4278190080
0.366211 -0.12597699 0.912467 4278190080
0.37207001 -0.122015 0.90722698 4278190080
0.37207001 -0.12597699 0.910981 4278190080
0.34277299 -0.111087 0.90136701 4278190080
0.34277299 -0.114258 0.90651202 4278190080
0.34863299 -0.111759 0.90136701 4278190080
0.34863299 -0.114258 0.90486503 4278190080
0.35449201 -0.111845 0.90136701 4278190080
0.35449201 -0.114258 0.90467399 4278190080
0.36035201 -0.112533 0.90136701 4278190080
0.36035201 -0.114258 0.903965 4278190080
0.36868599 -0.114258 0.90136701 4278190080
0.366211 -0.113866 0.90136701 4278190080
0.366211 -0.114258 0.90194398 4278190080
-0.0463886 -0.102539 1.03027 4278190080
-0.049804699 -0.099875502 1.03027 4278190080
-0.049804699 -0.102539 1.03414 4278190080
0.34863299 -0.096679702 0.88937998 4278190080
0.35449201 -0.091217898 0.883789 4278190080
0.35449201 -0.096679702 0.886648 4278190080
0.36322701 -0.096679702 0.883789 4278190080
0.36035201 -0.095018901 0.883789 4278190080
0.36035201 -0.096679702 0.88449502 4278190080
0.336914 -0.102539 0.89456201 4278190080
0.34277299 -0.102539 0.89216697 4278190080
0.34863299 -0.097376198 0.88964802 4278190080
0.34863299 -0.102539 0.89143199 4278190080
0.35584101 -0.102539 0.88964802 4278190080
0.35449201 -0.101729 0.88964802 4278190080
0.35449201 -0.102539 0.890082 4278190080
-0.0419374 -0.114258 1.04199 4278190080
-0.043945301 -0.112691 1.04199 4278190080
-0.043945301 -0.114258 1.04397 4278190080
-0.043461099 -0.108398 1.03613 4278190080
-0.043945301 -0.107849 1.03613 4278190080
-0.043945301 -0.108398 1.03711 4278190080
0.30175799 -0.114855 0.913086 4278190080
0.30761701 -0.115013 0.913086 4278190080
0.30761701 -0.120117 0.91874599 4278190080
0.31347701 -0.116382 0.913086 4278190080
0.31347701 -0.120117 0.917961 4278190080
0.319336 -0.118314 0.913086 4278190080
0.319336 -0.120117 0.91528797 4278190080
0.32519501 -0.118837 0.913086 4278190080
0.32519501 -0.120117 0.91406 4278190080
0.33105499 -0.117771 0.913086 4278190080
0.33105499 -0.120117 0.91447002 4278190080
0.336914 -0.118414 0.913086 4278190080
0.336914 -0.120117 0.91437399 4278190080
0.34559599 -0.120117 0.913086 4278190080
0.34277299 -0.119605 0.913086 4278190080
0.34277299 -0.120117 0.91369599 4278190080
0.319336 -0.12597699 0.91819799 4278190080
0.32519501 -0.12597699 0.91587299 4278190080
0.33105499 -0.12597699 0.91636699 4278190080
0.336914 -0.12597699 0.91750002 4278190080
0.34277299 -0.12597699 0.91767901 4278190080
0.34863299 -0.121034 0.913086 4278190080
0.34863299 -0.12597699 0.91663098 4278190080
0.35449201 -0.123238 0.913086 4278190080
0.35449201 -0.12597699 0.91500998 4278190080
0.361682 -0.12597699 0.913086 4278190080
0.36035201 -0.125707 0.913086 4278190080
0.36035201 -0.12597699 0.91328001 4278190080
0.30761701 -0.108398 0.90691698 4278190080
0.31347701 -0.108398 0.90413201 4278190080
0.319336 -0.108398 0.90404803 4278190080
0.32519501 -0.108398 0.905393 4278190080
0.33105499 -0.102574 0.90136701 4278190080
0.33105499 -0.108398 0.90535599 4278190080
0.33709899 -0.108398 0.90136701 4278190080
0.336914 -0.10821 0.90136701 4278190080
0.336914 -0.108398 0.90155298 4278190080
0.30175799 -0.114258 0.912377 4278190080
0.30761701 -0.108673 0.90722698 4278190080
0.30761701 -0.114258 0.912265 4278190080
0.31347701 -0.111004 0.90722698 4278190080
0.31347701 -0.114258 0.91064298 4278190080
0.319336 -0.112077 0.90722698 4278190080
0.319336 -0.114258 0.90916699 4278190080
0.32519501 -0.110466 0.90722698 4278190080
0.32519501 -0.114258 0.91029 4278190080
0.33105499 -0.110351 0.90722698 4278190080
0.33105499 -0.114258 0.910972 4278190080
0.34128401 -0.114258 0.90722698 4278190080
0.336914 -0.112353 0.90722698 4278190080
0.336914 -0.114258 0.909697 4278190080
0.413086 -0.120117 0.89506602 4278190080
0.336914 -0.094318703 0.88964802 4278190080
0.336914 -0.096679702 0.89136899 4278190080
0.34501401 -0.096679702 0.88964802 4278190080
0.34277299 -0.0963258 0.88964802 4278190080
0.34277299 -0.096679702 0.88980699 4278190080
0.33609399 -0.102539 0.89550799 4278190080
0.33105499 -0.102539 0.90133703 4278190080
0.40136701 -0.12597699 0.89968199 4278190080
0.40722701 -0.12597699 0.89997202 4278190080
0.413086 -0.120447 0.89550799 4278190080
0.27832001 -0.115046 0.91894501 4278190080
0.28417999 -0.116295 0.91894501 4278190080
0.28417999 -0.120117 0.92298597 4278190080
0.290039 -0.116593 0.91894501 4278190080
0.290039 -0.120117 0.92283601 4278190080
0.29589799 -0.117809 0.91894501 4278190080
0.29589799 -0.120117 0.92198598 4278190080
0.306503 -0.120117 0.91894501 4278190080
0.30175799 -0.119435 0.91894501 4278190080
0.30175799 -0.120117 0.91985899 4278190080
0.27832001 -0.114258 0.91793501 4278190080
0.28417999 -0.114258 0.91651601 4278190080
0.290039 -0.109293 0.913086 4278190080
0.290039 -0.114258 0.91606402 4278190080
0.29769301 -0.114258 0.913086 4278190080
0.29589799 -0.113644 0.913086 4278190080
0.29589799 -0.114258 0.91346198 4278190080
0.30761701 -0.120539 0.91894501 4278190080
0.30761701 -0.12597699 0.92210901 4278190080
0.31754601 -0.12597699 0.91894501 4278190080
0.31347701 -0.122375 0.91894501 4278190080
0.31347701 -0.12597699 0.920569 4278190080
0.290039 -0.108398 0.912498 4278190080
0.29589799 -0.103687 0.90722698 4278190080
0.29589799 -0.108398 0.90978301 4278190080
0.30645001 -0.108398 0.90722698 4278190080
0.30175799 -0.105588 0.90722698 4278190080
0.30175799 -0.108398 0.90838599 4278190080
0.38964799 -0.120117 0.90052599 4278190080
0.39550799 -0.120117 0.89887202 4278190080
0.40136701 -0.116479 0.89550799 4278190080
0.40136701 -0.120117 0.897452 4278190080
0.41067299 -0.120117 0.89550799 4278190080
0.40722701 -0.118382 0.89550799 4278190080
0.40722701 -0.120117 0.89631402 4278190080
0.414074 -0.120117 0.89550799 4278190080
0.41894501 -0.114569 0.89550799 4278190080
0.41894501 -0.120117 0.89717197 4278190080
0.42480499 -0.120117 0.89989102 4278190080
0.40136701 -0.114258 0.89438802 4278190080
0.40722701 -0.109694 0.88964802 4278190080
0.40722701 -0.114258 0.893538 4278190080
0.413086 -0.11043 0.88964802 4278190080
0.413086 -0.114258 0.892061 4278190080
0.41894501 -0.114258 0.89537001 4278190080
0.30761701 -0.096679702 0.89995199 4278190080
0.31347701 -0.096679702 0.89909899 4278190080
0.319336 -0.096679702 0.89993602 4278190080
0.32519501 -0.091314703 0.89550799 4278190080
0.32519501 -0.096679702 0.90021002 4278190080
0.332977 -0.096679702 0.89550799 4278190080
0.33105499 -0.094700702 0.89550799 4278190080
0.33105499 -0.096679702 0.89761698 4278190080
0.29589799 -0.102539 0.90666002 4278190080
0.30175799 -0.102539 0.90600902 4278190080
0.30761701 -0.098842502 0.90136701 4278190080
0.30761701 -0.102539 0.90406501 4278190080
0.31347701 -0.101898 0.90136701 4278190080
0.31347701 -0.102539 0.90168703 4278190080
0.319336 -0.10098 0.90136701 4278190080
0.319336 -0.102539 0.90189099 4278190080
0.33095601 -0.102539 0.90136701 4278190080
0.32519501 -0.099215597 0.90136701 4278190080
0.32519501 -0.102539 0.902762 4278190080
0.40136701 -0.10352 0.883789 4278190080
0.40722701 -0.103626 0.883789 4278190080
0.40722701 -0.108398 0.88854599 4278190080
0.413086 -0.108398 0.88876498 4278190080
0.383789 -0.12597699 0.906286 4278190080
0.38964799 -0.12154 0.90136701 4278190080
0.38964799 -0.12597699 0.90411502 4278190080
0.396871 -0.12597699 0.90136701 4278190080
0.39550799 -0.124939 0.90136701 4278190080
0.39550799 -0.12597699 0.90196902 4278190080
0.41283199 -0.12597699 0.90136701 4278190080
0.413086 -0.125889 0.90136701 4278190080
0.413086 -0.12597699 0.90142602 4278190080
0.41894501 -0.12323 0.90136701 4278190080
0.41894501 -0.12597699 0.90410203 4278190080
0.42480499 -0.120873 0.90136701 4278190080
0.383789 -0.096761897 0.87792999 4278190080
0.38964799 -0.097311303 0.87792999 4278190080
0.39550799 -0.098658897 0.87792999 4278190080
0.40136701 -0.0986358 0.87792999 4278190080
0.40136701 -0.102539 0.882671 4278190080
0.40722701 -0.102539 0.88314903 4278190080
0.27715099 -0.114258 0.91894501 4278190080
0.272461 -0.108593 0.91894501 4278190080
0.272461 -0.114258 0.92381901 4278190080
0.28417999 -0.121896 0.92480499 4278190080
0.28417999 -0.12597699 0.92975301 4278190080
0.290039 -0.122437 0.92480499 4278190080
0.290039 -0.12597699 0.92818803 4278190080
0.29589799 -0.123582 0.92480499 4278190080
0.29589799 -0.12597699 0.92710501 4278190080
0.302203 -0.12597699 0.92480499 4278190080
0.30175799 -0.125756 0.92480499 4278190080
0.30175799 -0.12597699 0.92502397 4278190080
0.243164 -0.120117 0.92982101 4278190080
0.24902301 -0.120117 0.92882699 4278190080
0.25488299 -0.120117 0.92829901 4278190080
0.26074201 -0.120117 0.92922002 4278190080
0.26660201 -0.120117 0.93024802 4278190080
0.272461 -0.11518 0.92480499 4278190080
0.272461 -0.120117 0.929097 4278190080
0.27930999 -0.120117 0.92480499 4278190080
0.27832001 -0.11972 0.92480499 4278190080
0.27832001 -0.120117 0.925228 4278190080
0.37792999 -0.11652 0.90136701 4278190080
0.37792999 -0.120117 0.90415603 4278190080
0.38640001 -0.120117 0.90136701 4278190080
0.383789 -0.119014 0.90136701 4278190080
0.383789 -0.120117 0.90206897 4278190080
0.42628601 -0.120117 0.90136701 4278190080
0.430664 -0.120117 0.904975 4278190080
0.37792999 -0.10981 0.89550799 4278190080
0.37792999 -0.114258 0.89968997 4278190080
0.383789 -0.111271 0.89550799 4278190080
0.383789 -0.114258 0.89852399 4278190080
0.38964799 -0.113009 0.89550799 4278190080
0.38964799 -0.114258 0.89665198 4278190080
0.396101 -0.114258 0.89550799 4278190080
0.39550799 -0.114113 0.89550799 4278190080
0.39550799 -0.114258 0.89562702 4278190080
0.41918001 -0.114258 0.89550799 4278190080
0.42480499 -0.114258 0.89776099 4278190080
0.272461 -0.108398 0.91878498 4278190080
0.27832001 -0.104998 0.913086 4278190080
0.27832001 -0.108398 0.91495299 4278190080
0.28808001 -0.108398 0.913086 4278190080
0.28417999 -0.106443 0.913086 4278190080
0.28417999 -0.108398 0.91419101 4278190080
0.28417999 -0.096679702 0.90622097 4278190080
0.290039 -0.0910367 0.90136701 4278190080
0.290039 -0.096679702 0.90363997 4278190080
0.29589799 -0.0934361 0.90136701 4278190080
0.29589799 -0.096679702 0.90292001 4278190080
0.30372399 -0.096679702 0.90136701 4278190080
0.30175799 -0.095487803 0.90136701 4278190080
0.30175799 -0.096679702 0.90210497 4278190080
0.383789 -0.096679702 0.87782103 4278190080
0.38964799 -0.096679702 0.87697899 4278190080
0.39550799 -0.091704004 0.87207001 4278190080
0.39550799 -0.096679702 0.87498897 4278190080
0.40136701 -0.096679702 0.87595701 4278190080
0.27832001 -0.102539 0.91179699 4278190080
0.28417999 -0.097894102 0.90722698 4278190080
0.28417999 -0.102539 0.91087198 4278190080
0.29426199 -0.102539 0.90722698 4278190080
0.290039 -0.100795 0.90722698 4278190080
0.290039 -0.102539 0.90888101 4278190080
0.37792999 -0.105332 0.88964802 4278190080
0.37792999 -0.108398 0.89430702 4278190080
0.383789 -0.106429 0.88964802 4278190080
0.383789 -0.108398 0.89284003 4278190080
0.38964799 -0.1069 0.88964802 4278190080
0.38964799 -0.108398 0.89162302 4278190080
0.39550799 -0.107072 0.88964802 4278190080
0.39550799 -0.108398 0.89118302 4278190080
0.403914 -0.108398 0.88964802 4278190080
0.40136701 -0.107863 0.88964802 4278190080
0.40136701 -0.108398 0.89040101 4278190080
0.41461 -0.108398 0.88964802 4278190080
0.41894501 -0.108398 0.89274102 4278190080
0.38118699 -0.12597699 0.90722698 4278190080
0.37792999 -0.124432 0.90722698 4278190080
0.37792999 -0.12597699 0.908472 4278190080
0.42442301 -0.12597699 0.90722698 4278190080
0.42480499 -0.12566499 0.90722698 4278190080
0.42480499 -0.12597699 0.907462 4278190080
0.430664 -0.121489 0.90722698 4278190080
0.430664 -0.12597699 0.91233999 4278190080
0.37792999 -0.101343 0.883789 4278190080
0.37792999 -0.102539 0.88495803 4278190080
0.383789 -0.101985 0.883789 4278190080
0.383789 -0.102539 0.88429302 4278190080
0.38964799 -0.101894 0.883789 4278190080
0.38964799 -0.102539 0.88447201 4278190080
0.39688399 -0.102539 0.883789 4278190080
0.39550799 -0.102278 0.883789 4278190080
0.39550799 -0.102539 0.88415402 4278190080
0.408227 -0.102539 0.883789 4278190080
0.413086 -0.102539 0.88747197 4278190080
0.237305 -0.114258 0.929425 4278190080
0.243164 -0.11062 0.92480499 4278190080
0.243164 -0.114258 0.927248 4278190080
0.24902301 -0.112471 0.92480499 4278190080
0.24902301 -0.114258 0.92585403 4278190080
0.25488299 -0.11203 0.92480499 4278190080
0.25488299 -0.114258 0.92584002 4278190080
0.26074201 -0.110506 0.92480499 4278190080
0.26074201 -0.114258 0.92667502 4278190080
0.270556 -0.114258 0.92480499 4278190080
0.26660201 -0.111434 0.92480499 4278190080
0.26660201 -0.114258 0.926543 4278190080
0.243164 -0.120929 0.930664 4278190080
0.243164 -0.12597699 0.93489099 4278190080
0.24902301 -0.122131 0.930664 4278190080
0.24902301 -0.12597699 0.933797 4278190080
0.25488299 -0.122674 0.930664 4278190080
0.25488299 -0.12597699 0.93325597 4278190080
0.26074201 -0.121807 0.930664 4278190080
0.26074201 -0.12597699 0.93379802 4278190080
0.26660201 -0.120597 0.930664 4278190080
0.26660201 -0.12597699 0.93493098 4278190080
0.272461 -0.121623 0.930664 4278190080
0.272461 -0.12597699 0.934479 4278190080
0.28257999 -0.12597699 0.930664 4278190080
0.27832001 -0.124213 0.930664 4278190080
0.27832001 -0.12597699 0.93313098 4278190080
0.231445 -0.120117 0.934457 4278190080
0.240492 -0.120117 0.930664 4278190080
0.237305 -0.1174 0.930664 4278190080
0.237305 -0.120117 0.93172801 4278190080
