# .PCD v0.7 - Point Cloud Data file format
VERSION 0.7
FIELDS x y z rgb
SIZE 4 4 4 4
TYPE F F F U
COUNT 1 1 1 1
WIDTH 1083
HEIGHT 1
VIEWPOINT 0 0 0 1 0 0 0
POINTS 1083
DATA ascii
0.0849609 -0.0349066 0.96582001 4278190080
0.0849609 -0.0380859 0.96892202 4278190080
0.090820298 -0.0361173 0.96582001 4278190080
0.090820298 -0.0380859 0.96777499 4278190080
0.100392 -0.0380859 0.96582001 4278190080
0.096679702 -0.0375388 0.96582001 4278190080
0.096679702 -0.0380859 0.96640402 4278190080
0.162871 -0.0380859 0.96582001 4278190080
0.16699199 -0.036621802 0.96582001 4278190080
0.16699199 -0.0380859 0.96941298 4278190080
0.17285199 -0.035462599 0.96582001 4278190080
0.178711 -0.034586702 0.96582001 4278190080
0.0615234 -0.0394102 0.977539 4278190080
0.0615234 -0.043945301 0.98256099 4278190080
0.067382798 -0.0416543 0.977539 4278190080
0.067382798 -0.043945301 0.97994602 4278190080
0.073242202 -0.0429634 0.977539 4278190080
0.073242202 -0.043945301 0.978432 4278190080
0.079228401 -0.043945301 0.977539 4278190080
0.0791016 -0.043914001 0.977539 4278190080
0.0791016 -0.043945301 0.97757298 4278190080
0.139633 -0.043945301 0.977539 4278190080
0.143555 -0.041985299 0.977539 4278190080
0.143555 -0.043945301 0.98154801 4278190080
0.149414 -0.041005801 0.977539 4278190080
0.15527301 -0.040726099 0.977539 4278190080
0.16113301 -0.040137298 0.977539 4278190080
0.16699199 -0.0394114 0.977539 4278190080
0.096679702 -0.026367201 0.95406401 4278190080
0.102539 -0.021862401 0.94824201 4278190080
0.102539 -0.026367201 0.95258403 4278190080
0.108398 -0.0236772 0.94824201 4278190080
0.108398 -0.026367201 0.95101398 4278190080
0.117105 -0.026367201 0.94824201 4278190080
0.114258 -0.0257113 0.94824201 4278190080
0.114258 -0.026367201 0.94892102 4278190080
0.19395 -0.0322266 0.96582001 4278190080
0.196289 -0.031691 0.96582001 4278190080
0.196289 -0.0322266 0.969437 4278190080
0.20214801 -0.030298 0.96582001 4278190080
0.20800801 -0.029570701 0.96582001 4278190080
0.21386699 -0.029408099 0.96582001 4278190080
0.215005 -0.026367201 0.94824201 4278190080
0.21972699 -0.024140701 0.94824201 4278190080
0.225586 -0.0235603 0.94824201 4278190080
0.231445 -0.022862799 0.94824201 4278190080
0.237305 -0.022302199 0.94824201 4278190080
0.243164 -0.021469699 0.94824201 4278190080
0.096679702 -0.0264016 0.95410198 4278190080
0.102539 -0.027842499 0.95410198 4278190080
0.102539 -0.0322266 0.95867598 4278190080
0.108398 -0.028879801 0.95410198 4278190080
0.108398 -0.0322266 0.95811301 4278190080
0.119583 -0.0322266 0.95410198 4278190080
0.114258 -0.030705299 0.95410198 4278190080
0.114258 -0.0322266 0.95583498 4278190080
0.185525 -0.0322266 0.95410198 4278190080
0.049804699 -0.0461879 0.98925799 4278190080
0.056752902 -0.049804699 0.98925799 4278190080
0.0556641 -0.049593002 0.98925799 4278190080
0.0556641 -0.049804699 0.98945999 4278190080
0.118086 -0.049804699 0.98925799 4278190080
0.120117 -0.049438499 0.98925799 4278190080
0.120117 -0.049804699 0.99096602 4278190080
0.12597699 -0.0470098 0.98925799 4278190080
0.131836 -0.046447501 0.98925799 4278190080
0.137695 -0.046145801 0.98925799 4278190080
0.143555 -0.045509499 0.98925799 4278190080
0.054827701 -0.0556641 1.00098 4278190080
0.049804699 -0.0502198 1.00098 4278190080
0.098108903 -0.0556641 1.00098 4278190080
0.102539 -0.054457098 1.00098 4278190080
0.102539 -0.0556641 1.00474 4278190080
0.108398 -0.052598499 1.00098 4278190080
0.114258 -0.0520964 1.00098 4278190080
0.120117 -0.051113401 1.00098 4278190080
0.0556641 -0.032324199 0.97167999 4278190080
0.0615234 -0.0338329 0.97167999 4278190080
0.0615234 -0.0380859 0.97597897 4278190080
0.067382798 -0.035973001 0.97167999 4278190080
0.067382798 -0.0380859 0.97375602 4278190080
0.077294901 -0.0380859 0.97167999 4278190080
0.073242202 -0.036981501 0.97167999 4278190080
0.073242202 -0.0380859 0.973005 4278190080
0.168597 -0.0380859 0.97167999 4278190080
0.17285199 -0.0363748 0.97167999 4278190080
0.178711 -0.035164699 0.97167999 4278190080
0.18457 -0.0347475 0.97167999 4278190080
0.043945301 -0.039588202 0.98339802 4278190080
0.049804699 -0.0423024 0.98339802 4278190080
0.049804699 -0.043945301 0.984837 4278190080
0.0585518 -0.043945301 0.98339802 4278190080
0.0556641 -0.043072701 0.98339802 4278190080
0.0556641 -0.043945301 0.984245 4278190080
0.145169 -0.043945301 0.98339802 4278190080
0.149414 -0.042055398 0.98339802 4278190080
0.15527301 -0.041293599 0.98339802 4278190080
0.16113301 -0.040696401 0.98339802 4278190080
0.16699199 -0.039970201 0.98339802 4278190080
0.17285199 -0.0391878 0.98339802 4278190080
0.073242202 -0.0209754 0.95410198 4278190080
0.073242202 -0.026367201 0.95963502 4278190080
0.0791016 -0.0223742 0.95410198 4278190080
0.0791016 -0.026367201 0.95867002 4278190080
0.0849609 -0.023525501 0.95410198 4278190080
0.0849609 -0.026367201 0.95758802 4278190080
0.096555501 -0.026367201 0.95410198 4278190080
0.090820298 -0.0247619 0.95410198 4278190080
0.090820298 -0.026367201 0.95582497 4278190080
0.218743 -0.026367201 0.95410198 4278190080
0.21972699 -0.025849 0.95410198 4278190080
0.21972699 -0.026367201 0.95560801 4278190080
0.225586 -0.0243928 0.95410198 4278190080
0.231445 -0.0235964 0.95410198 4278190080
0.237305 -0.022450799 0.95410198 4278190080
0.19043 -0.0322266 0.977126 4278190080
0.19678199 -0.0322266 0.97167999 4278190080
0.196289 -0.0322266 0.97228497 4278190080
0.20214801 -0.029999999 0.97167999 4278190080
0.20800801 -0.0275662 0.97167999 4278190080
0.073242202 -0.026669299 0.959961 4278190080
0.0791016 -0.0276198 0.959961 4278190080
0.0791016 -0.0322266 0.96480501 4278190080
0.0849609 -0.0289212 0.959961 4278190080
0.0849609 -0.0322266 0.96307802 4278190080
0.090820298 -0.030275701 0.959961 4278190080
0.090820298 -0.0322266 0.96196002 4278190080
0.097568199 -0.0322266 0.959961 4278190080
0.096679702 -0.031999301 0.959961 4278190080
0.096679702 -0.0322266 0.96018398 4278190080
0.189982 -0.0322266 0.959961 4278190080
0.043945301 -0.044192601 0.99511701 4278190080
0.051389601 -0.049804699 0.99511701 4278190080
0.049804699 -0.048850901 0.99511701 4278190080
0.049804699 -0.049804699 0.99793899 4278190080
0.121205 -0.049804699 0.99511701 4278190080
0.12597699 -0.047730301 0.99511701 4278190080
0.131836 -0.046899602 0.99511701 4278190080
0.137695 -0.046736199 0.99511701 4278190080
0.143555 -0.046480998 0.99511701 4278190080
0.149414 -0.044668999 0.99511701 4278190080
0.0380859 -0.032638699 0.977539 4278190080
0.043945301 -0.035347801 0.977539 4278190080
0.043945301 -0.0380859 0.98045498 4278190080
0.049804699 -0.036211502 0.977539 4278190080
0.049804699 -0.0380859 0.97966301 4278190080
0.0576928 -0.0380859 0.977539 4278190080
0.0556641 -0.037378199 0.977539 4278190080
0.0556641 -0.0380859 0.978378 4278190080
0.17163201 -0.0380859 0.977539 4278190080
0.17285199 -0.0376372 0.977539 4278190080
0.17285199 -0.0380859 0.97907799 4278190080
0.178711 -0.035691999 0.977539 4278190080
0.18457 -0.035185602 0.977539 4278190080
0.054165602 -0.0556641 1.00684 4278190080
0.049804699 -0.050704699 1.00684 4278190080
0.103534 -0.0556641 1.00684 4278190080
0.108398 -0.0535344 1.00684 4278190080
0.114258 -0.052948602 1.00684 4278190080
0.120117 -0.051865701 1.00684 4278190080
0.12597699 -0.050332699 1.00684 4278190080
0.0460671 -0.043945301 0.98925799 4278190080
0.043945301 -0.042627599 0.98925799 4278190080
0.043945301 -0.043945301 0.99291402 4278190080
0.148027 -0.043945301 0.98925799 4278190080
0.149414 -0.043303501 0.98925799 4278190080
0.149414 -0.043945301 0.99190903 4278190080
0.15527301 -0.041949298 0.98925799 4278190080
0.16113301 -0.0413347 0.98925799 4278190080
0.16699199 -0.0398148 0.98925799 4278190080
0.22232901 -0.026367201 0.959961 4278190080
0.21972699 -0.026367201 0.96350402 4278190080
0.225586 -0.0249517 0.959961 4278190080
0.231445 -0.0241438 0.959961 4278190080
0.0556641 -0.021399301 0.959961 4278190080
0.0556641 -0.026367201 0.96496701 4278190080
0.0615234 -0.0233046 0.959961 4278190080
0.0615234 -0.026367201 0.96346402 4278190080
0.071898803 -0.026367201 0.959961 4278190080
0.067382798 -0.025344601 0.959961 4278190080
0.067382798 -0.026367201 0.961101 4278190080
0.0556641 -0.0271168 0.96582001 4278190080
0.0556641 -0.0322266 0.97157001 4278190080
0.0615234 -0.0284355 0.96582001 4278190080
0.0615234 -0.0322266 0.97007197 4278190080
0.067382798 -0.0304743 0.96582001 4278190080
0.067382798 -0.0322266 0.96787101 4278190080
0.0743163 -0.0322266 0.96582001 4278190080
0.073242202 -0.0320241 0.96582001 4278190080
0.073242202 -0.0322266 0.96605003 4278190080
0.049444001 -0.049804699 1.00098 4278190080
0.043945301 -0.044785399 1.00098 4278190080
0.123737 -0.049804699 1.00098 4278190080
0.12597699 -0.0488193 1.00098 4278190080
0.12597699 -0.049804699 1.00475 4278190080
0.131836 -0.0473953 1.00098 4278190080
0.137695 -0.0470514 1.00098 4278190080
0.143555 -0.046530701 1.00098 4278190080
0.0431896 -0.0380859 0.98339802 4278190080
0.0380859 -0.0338361 0.98339802 4278190080
0.174934 -0.0380859 0.98339802 4278190080
0.17285199 -0.0380859 0.98551601 4278190080
0.178711 -0.033800699 0.98339802 4278190080
0.053520702 -0.0556641 1.0127 4278190080
0.049804699 -0.051546901 1.0127 4278190080
0.104931 -0.0556641 1.0127 4278190080
0.108398 -0.054103401 1.0127 4278190080
0.114258 -0.053202599 1.0127 4278190080
0.120117 -0.051838301 1.0127 4278190080
0.218747 -0.026367201 0.96582001 4278190080
0.21386699 -0.026367201 0.96938902 4278190080
0.0437239 -0.043945301 0.99511701 4278190080
0.150824 -0.043945301 0.99511701 4278190080
0.149414 -0.043945301 0.99661201 4278190080
0.15527301 -0.042192899 0.99511701 4278190080
0.16113301 -0.041615002 0.99511701 4278190080
0.0322266 -0.020900199 0.96582001 4278190080
0.0380859 -0.0224867 0.96582001 4278190080
0.0380859 -0.026367201 0.96965802 4278190080
0.043945301 -0.024238801 0.96582001 4278190080
0.043945301 -0.026367201 0.96792901 4278190080
0.051757801 -0.026367201 0.96582001 4278190080
0.049804699 -0.025892699 0.96582001 4278190080
0.049804699 -0.026367201 0.966259 4278190080
0.0380859 -0.028446401 0.97167999 4278190080
0.0380859 -0.0322266 0.975703 4278190080
0.043945301 -0.029691201 0.97167999 4278190080
0.043945301 -0.0322266 0.97440898 4278190080
0.0552582 -0.0322266 0.97167999 4278190080
0.049804699 -0.0309359 0.97167999 4278190080
0.049804699 -0.0322266 0.97317201 4278190080
0.0489843 -0.049804699 1.00684 4278190080
0.043945301 -0.045371801 1.00684 4278190080
0.12671 -0.049804699 1.00684 4278190080
0.12597699 -0.049804699 1.00774 4278190080
0.131836 -0.046793301 1.00684 4278190080
0.20958801 -0.026367201 0.97167999 4278190080
0.20800801 -0.026367201 0.97320902 4278190080
0.041878901 -0.0380859 0.98925799 4278190080
0.0380859 -0.034773 0.98925799 4278190080
0.169843 -0.0380859 0.98925799 4278190080
0.16699199 -0.0380859 0.99142098 4278190080
0.052880801 -0.0556641 1.01855 4278190080
0.049804699 -0.052326199 1.01855 4278190080
0.103642 -0.0556641 1.01855 4278190080
0.102539 -0.0556641 1.01993 4278190080
0.108398 -0.053333499 1.01855 4278190080
0.1472 -0.043945301 1.00098 4278190080
0.143555 -0.043945301 1.00386 4278190080
0.0360897 -0.026367201 0.97167999 4278190080
0.0322266 -0.024188399 0.97167999 4278190080
0.0322266 -0.026367201 0.97668999 4278190080
0.0378021 -0.0322266 0.977539 4278190080
0.0322266 -0.026482699 0.977539 4278190080
0.19022501 -0.0322266 0.977539 4278190080
0.18457 -0.0322266 0.98090798 4278190080
0.048304599 -0.049804699 1.0127 4278190080
0.043945301 -0.045769598 1.0127 4278190080
0.114258 -0.049804699 1.01603 4278190080
0.122625 -0.049804699 1.0127 4278190080
0.120117 -0.049804699 1.01491 4278190080
0.042688601 -0.043945301 1.00684 4278190080
0.041141499 -0.0380859 0.99511701 4278190080
0.0380859 -0.035357699 0.99511701 4278190080
0.164772 -0.0380859 0.99511701 4278190080
0.16113301 -0.0380859 0.99902201 4278190080
0.052179601 -0.0556641 1.02441 4278190080
0.049804699 -0.053205598 1.02441 4278190080
0.090820298 -0.0556641 1.02728 4278190080
0.100395 -0.0556641 1.02441 4278190080
0.096679702 -0.0556641 1.02698 4278190080
0.0321269 -0.026367201 0.977539 4278190080
0.036956299 -0.0322266 0.98339802 4278190080
0.0322266 -0.026879 0.98339802 4278190080
0.179813 -0.0322266 0.98339802 4278190080
0.047526401 -0.049804699 1.01855 4278190080
0.043945301 -0.046525501 1.01855 4278190080
0.111822 -0.049804699 1.01855 4278190080
0.108398 -0.049804699 1.0211999 4278190080
0.042171199 -0.043945301 1.0127 4278190080
0.040364102 -0.0380859 1.00098 4278190080
0.0380859 -0.036012199 1.00098 4278190080
0.052035499 -0.0556641 1.03027 4278190080
0.049804699 -0.052597299 1.03027 4278190080
0.088169001 -0.0556641 1.03027 4278190080
0.031792998 -0.026367201 0.98339802 4278190080
0.0363934 -0.0322266 0.98925799 4278190080
0.0322266 -0.0275978 0.98925799 4278190080
0.046975899 -0.049804699 1.02441 4278190080
0.043945301 -0.045719899 1.02441 4278190080
0.039542198 -0.0380859 1.00684 4278190080
0.0380859 -0.0367405 1.00684 4278190080
0.04135 -0.043945301 1.01855 4278190080
0.031142499 -0.026367201 0.98925799 4278190080
0.052497901 -0.0556641 1.03613 4278190080
0.0556641 -0.0556641 1.03923 4278190080
0.035721101 -0.0322266 0.99511701 4278190080
0.0322266 -0.0285271 0.99511701 4278190080
0.047359899 -0.049804699 1.03027 4278190080
0.049804699 -0.049804699 1.03293 4278190080
0.0386688 -0.0380859 1.0127 4278190080
0.0380859 -0.037505601 1.0127 4278190080
0.0419452 -0.043945301 1.02441 4278190080
0.043945301 -0.043945301 1.02701 4278190080
0.0302324 -0.026367201 0.99511701 4278190080
0.026367201 -0.020795001 0.99511701 4278190080
0.0351048 -0.0322266 1.00098 4278190080
0.0322266 -0.0292258 1.00098 4278190080
0.0293958 -0.026367201 1.00098 4278190080
0.026367201 -0.021372201 1.00098 4278190080
0.038710199 -0.0380859 1.01855 4278190080
0.0380859 -0.0373342 1.01855 4278190080
0.0344598 -0.0322266 1.00684 4278190080
0.0322266 -0.029781001 1.00684 4278190080
0.039954498 -0.0380859 1.02441 4278190080
0.028857199 -0.026367201 1.00684 4278190080
0.026367201 -0.020804999 1.00684 4278190080
0.033693001 -0.0322266 1.0127 4278190080
0.0322266 -0.0302143 1.0127 4278190080
0.0287074 -0.026367201 1.0127 4278190080
0.0322266 -0.026367201 1.01691 4278190080
0.034046602 -0.0322266 1.01855 4278190080
0.0380859 -0.0322266 1.0229599 4278190080
0.026367201 -0.0234829 1.02441 4278190080
0.18457 0.0143075 0.88964802 4278190080
0.18457 0.0087890597 0.89513397 4278190080
0.16699199 -0.0095577203 0.91894501 4278190080
0.16699199 -0.0146484 0.92351502 4278190080
0.17285199 -0.010474 0.91894501 4278190080
0.17285199 -0.0146484 0.92268699 4278190080
0.178711 -0.0118383 0.91894501 4278190080
0.178711 -0.0146484 0.92191303 4278190080
0.18457 -0.0131975 0.91894501 4278190080
0.18457 -0.0146484 0.920596 4278190080
0.18457 0.0084412098 0.89550799 4278190080
0.16699199 0.00185096 0.90722698 4278190080
0.16699199 -0.0029296901 0.91224599 4278190080
0.17285199 0.00092411001 0.90722698 4278190080
0.17285199 -0.0029296901 0.91116703 4278190080
0.178711 -0.00046777699 0.90722698 4278190080
0.178711 -0.0029296901 0.90972799 4278190080
0.186617 -0.0029296901 0.90722698 4278190080
0.18457 -0.00238359 0.90722698 4278190080
0.18457 -0.0029296901 0.90780997 4278190080
0.16699199 -0.0037660601 0.913086 4278190080
0.16699199 -0.0087890597 0.918257 4278190080
0.17285199 -0.0047241398 0.913086 4278190080
0.17285199 -0.0087890597 0.91738898 4278190080
0.178711 -0.00635183 0.913086 4278190080
0.178711 -0.0087890597 0.91560298 4278190080
0.188473 -0.0087890597 0.913086 4278190080
0.18457 -0.0081019402 0.913086 4278190080
0.18457 -0.0087890597 0.91378802 4278190080
0.16699199 -0.0157183 0.92480499 4278190080
0.16699199 -0.020507799 0.930484 4278190080
0.17285199 -0.0165188 0.92480499 4278190080
0.17285199 -0.020507799 0.929344 4278190080
0.178711 -0.0172603 0.92480499 4278190080
0.178711 -0.020507799 0.92840499 4278190080
0.18457 -0.018299701 0.92480499 4278190080
0.18457 -0.020507799 0.92734402 4278190080
0.16113301 0.013431 0.89550799 4278190080
0.16113301 0.0087890597 0.90126598 4278190080
0.16699199 0.0123773 0.89550799 4278190080
0.16699199 0.0087890597 0.90012199 4278190080
0.17285199 0.0117482 0.89550799 4278190080
0.17285199 0.0087890597 0.89921999 4278190080
0.183406 0.0087890597 0.89550799 4278190080
0.178711 0.0102804 0.89550799 4278190080
0.178711 0.0087890597 0.89715499 4278190080
0.143555 -0.0100533 0.92480499 4278190080
0.143555 -0.0146484 0.92979997 4278190080
0.149414 -0.0111446 0.92480499 4278190080
0.149414 -0.0146484 0.92822897 4278190080
0.15527301 -0.0121671 0.92480499 4278190080
0.15527301 -0.0146484 0.92743897 4278190080
0.163721 -0.0146484 0.92480499 4278190080
0.16113301 -0.0136986 0.92480499 4278190080
0.16113301 -0.0146484 0.925807 4278190080
0.16113301 0.0086914301 0.90136701 4278190080
0.16699199 0.0075491699 0.90136701 4278190080
0.16699199 0.0029296901 0.90605402 4278190080
0.17285199 0.00673771 0.90136701 4278190080
0.17285199 0.0029296901 0.905177 4278190080
0.178711 0.00497365 0.90136701 4278190080
0.178711 0.0029296901 0.90355003 4278190080
0.185928 0.0029296901 0.90136701 4278190080
0.18457 0.00317502 0.90136701 4278190080
0.18457 0.0029296901 0.90163499 4278190080
0.137695 0.00289011 0.913086 4278190080
0.143555 0.00145257 0.913086 4278190080
0.143555 -0.0029296901 0.91807503 4278190080
0.149414 -0.000112772 0.913086 4278190080
0.149414 -0.0029296901 0.91621399 4278190080
0.15527301 -0.0012722 0.913086 4278190080
0.15527301 -0.0029296901 0.91469699 4278190080
0.16407999 -0.0029296901 0.913086 4278190080
0.16113301 -0.00212812 0.913086 4278190080
0.16113301 -0.0029296901 0.91390997 4278190080
0.143555 -0.00385082 0.91894501 4278190080
0.143555 -0.0087890597 0.92350799 4278190080
0.149414 -0.0054425001 0.91894501 4278190080
0.149414 -0.0087890597 0.92249 4278190080
0.15527301 -0.0067614298 0.91894501 4278190080
0.15527301 -0.0087890597 0.921161 4278190080
0.164097 -0.0087890597 0.91894501 4278190080
0.16113301 -0.0081040896 0.91894501 4278190080
0.16113301 -0.0087890597 0.91963702 4278190080
0.143555 -0.0154022 0.930664 4278190080
0.143555 -0.020507799 0.936131 4278190080
0.149414 -0.0170941 0.930664 4278190080
0.149414 -0.020507799 0.93406999 4278190080
0.15527301 -0.0181603 0.930664 4278190080
0.15527301 -0.020507799 0.932841 4278190080
0.166235 -0.020507799 0.930664 4278190080
0.16113301 -0.0193359 0.930664 4278190080
0.16113301 -0.020507799 0.93190098 4278190080
0.137695 0.0136976 0.90136701 4278190080
0.137695 0.0087890597 0.90612 4278190080
0.143555 0.0120763 0.90136701 4278190080
0.143555 0.0087890597 0.90464503 4278190080
0.149414 0.0107093 0.90136701 4278190080
0.149414 0.0087890597 0.90317303 4278190080
0.160667 0.0087890597 0.90136701 4278190080
0.15527301 0.0098239202 0.90136701 4278190080
0.15527301 0.0087890597 0.90258002 4278190080
0.114258 -0.0089938603 0.930664 4278190080
0.120117 -0.0105368 0.930664 4278190080
0.120117 -0.0146484 0.93492597 4278190080
0.12597699 -0.0111806 0.930664 4278190080
0.12597699 -0.0146484 0.934039 4278190080
0.131836 -0.0125641 0.930664 4278190080
0.131836 -0.0146484 0.93273902 4278190080
0.140993 -0.0146484 0.930664 4278190080
0.137695 -0.0136745 0.930664 4278190080
0.137695 -0.0146484 0.93175 4278190080
0.114258 0.0025541801 0.91894501 4278190080
0.114258 -0.0029296901 0.92473102 4278190080
0.120117 0.00121713 0.91894501 4278190080
0.120117 -0.0029296901 0.92357397 4278190080
0.12597699 0.000188112 0.91894501 4278190080
0.12597699 -0.0029296901 0.92270899 4278190080
0.131836 -0.00142431 0.91894501 4278190080
0.131836 -0.0029296901 0.92048103 4278190080
0.137802 -0.0029296901 0.91894501 4278190080
0.137695 -0.0029138301 0.91894501 4278190080
0.137695 -0.0029296901 0.91896099 4278190080
0.137695 0.0078427801 0.90722698 4278190080
0.137695 0.0029296901 0.91304398 4278190080
0.143555 0.0064880801 0.90722698 4278190080
0.143555 0.0029296901 0.91136599 4278190080
0.149414 0.0052325702 0.90722698 4278190080
0.149414 0.0029296901 0.909805 4278190080
0.15527301 0.0046077999 0.90722698 4278190080
0.15527301 0.0029296901 0.90903598 4278190080
0.16209599 0.0029296901 0.90722698 4278190080
0.16113301 0.0031504601 0.90722698 4278190080
0.16113301 0.0029296901 0.90745997 4278190080
0.120117 -0.016011501 0.93652302 4278190080
0.120117 -0.020507799 0.94185501 4278190080
0.12597699 -0.016912 0.93652302 4278190080
0.12597699 -0.020507799 0.94053203 4278190080
0.131836 -0.018276 0.93652302 4278190080
0.131836 -0.020507799 0.93877101 4278190080
0.14099699 -0.020507799 0.93652302 4278190080
0.137695 -0.019923 0.93652302 4278190080
0.137695 -0.020507799 0.93705201 4278190080
0.114258 -0.0030028799 0.92480499 4278190080
0.114258 -0.0087890597 0.93042397 4278190080
0.120117 -0.0042150002 0.92480499 4278190080
0.120117 -0.0087890597 0.92895502 4278190080
0.12597699 -0.00511372 0.92480499 4278190080
0.12597699 -0.0087890597 0.92831099 4278190080
0.131836 -0.0068076798 0.92480499 4278190080
0.131836 -0.0087890597 0.92696398 4278190080
0.139035 -0.0087890597 0.92480499 4278190080
0.137695 -0.0084217796 0.92480499 4278190080
0.137695 -0.0087890597 0.92520303 4278190080
0.0027382399 0.0087890597 0.977539 4278190080
-0.0029296901 0.0141847 0.977539 4278190080
0.114258 0.013014 0.90722698 4278190080
0.114258 0.0087890597 0.91257602 4278190080
0.120117 0.0121251 0.90722698 4278190080
0.120117 0.0087890597 0.91098499 4278190080
0.12597699 0.0107421 0.90722698 4278190080
0.12597699 0.0087890597 0.90932798 4278190080
0.133588 0.0087890597 0.90722698 4278190080
0.131836 0.0092980899 0.90722698 4278190080
0.131836 0.0087890597 0.90772098 4278190080
0.096679702 0.0016681 0.92480499 4278190080
0.096679702 -0.0029296901 0.92944002 4278190080
0.102539 0.00022935899 0.92480499 4278190080
0.102539 -0.0029296901 0.92836398 4278190080
0.11403 -0.0029296901 0.92480499 4278190080
0.108398 -0.0013119 0.92480499 4278190080
0.108398 -0.0029296901 0.92658001 4278190080
0.096679702 -0.0089906501 0.93652302 4278190080
0.096679702 -0.0146484 0.94202697 4278190080
0.102539 -0.0104709 0.93652302 4278190080
0.102539 -0.0146484 0.94043303 4278190080
0.108398 -0.0121962 0.93652302 4278190080
0.108398 -0.0146484 0.93902898 4278190080
0.116027 -0.0146484 0.93652302 4278190080
0.114258 -0.0140355 0.93652302 4278190080
0.114258 -0.0146484 0.93721598 4278190080
0.114258 0.0082991105 0.913086 4278190080
0.114258 0.0029296901 0.91855597 4278190080
0.120117 0.0068256902 0.913086 4278190080
0.120117 0.0029296901 0.91705799 4278190080
0.12597699 0.0053877798 0.913086 4278190080
0.12597699 0.0029296901 0.91568798 4278190080
0.137509 0.0029296901 0.913086 4278190080
0.131836 0.0040798201 0.913086 4278190080
0.131836 0.0029296901 0.91438597 4278190080
0.096679702 -0.0039825402 0.930664 4278190080
0.096679702 -0.0087890597 0.93632603 4278190080
0.102539 -0.00499749 0.930664 4278190080
0.102539 -0.0087890597 0.934892 4278190080
0.113649 -0.0087890597 0.930664 4278190080
0.108398 -0.0068063699 0.930664 4278190080
0.108398 -0.0087890597 0.93282199 4278190080
0.096679702 -0.0149596 0.94238299 4278190080
0.102539 -0.0164131 0.94238299 4278190080
0.102539 -0.020507799 0.946895 4278190080
0.108398 -0.017890999 0.94238299 4278190080
0.108398 -0.020507799 0.94509202 4278190080
0.117172 -0.020507799 0.94238299 4278190080
0.114258 -0.0199742 0.94238299 4278190080
0.114258 -0.020507799 0.94289798 4278190080
0.090820298 0.0142406 0.913086 4278190080
0.096679702 0.0126001 0.913086 4278190080
0.096679702 0.0087890597 0.91698998 4278190080
0.102539 0.0113282 0.913086 4278190080
0.102539 0.0087890597 0.91570699 4278190080
0.112518 0.0087890597 0.913086 4278190080
0.108398 0.00989151 0.913086 4278190080
0.108398 0.0087890597 0.91426599 4278190080
0.073242202 0.0015626 0.930664 4278190080
0.073242202 -0.0029296901 0.93463999 4278190080
0.0791016 0.000122547 0.930664 4278190080
0.0791016 -0.0029296901 0.93346202 4278190080
0.0849609 -0.0010325901 0.930664 4278190080
0.0849609 -0.0029296901 0.93253797 4278190080
0.092003897 -0.0029296901 0.930664 4278190080
0.090820298 -0.00261414 0.930664 4278190080
0.090820298 -0.0029296901 0.930978 4278190080
0.073242202 -0.0099164201 0.94238299 4278190080
0.073242202 -0.0146484 0.94791698 4278190080
0.0791016 -0.0113657 0.94238299 4278190080
0.0791016 -0.0146484 0.94589502 4278190080
0.0849609 -0.0125777 0.94238299 4278190080
0.0849609 -0.0146484 0.94437897 4278190080
0.094743401 -0.0146484 0.94238299 4278190080
0.090820298 -0.0138874 0.94238299 4278190080
0.090820298 -0.0146484 0.94310099 4278190080
0.096679702 0.0070198802 0.91894501 4278190080
0.096679702 0.0029296901 0.92352301 4278190080
0.102539 0.0056086802 0.91894501 4278190080
0.102539 0.0029296901 0.92176098 4278190080
0.112741 0.0029296901 0.91894501 4278190080
0.108398 0.00405586 0.91894501 4278190080
0.108398 0.0029296901 0.92006397 4278190080
0.073242202 -0.0149851 0.94824201 4278190080
0.073242202 -0.020507799 0.95358998 4278190080
0.0791016 -0.016888499 0.94824201 4278190080
0.0791016 -0.020507799 0.95192301 4278190080
0.0849609 -0.0185913 0.94824201 4278190080
0.0849609 -0.020507799 0.95014501 4278190080
0.090820298 -0.0195098 0.94824201 4278190080
0.090820298 -0.020507799 0.94931197 4278190080
0.096941203 -0.020507799 0.94824201 4278190080
0.096679702 -0.0204487 0.94824201 4278190080
0.096679702 -0.020507799 0.94830602 4278190080
0.073242202 -0.0046340199 0.93652302 4278190080
0.073242202 -0.0087890597 0.94107503 4278190080
0.0791016 -0.00577843 0.93652302 4278190080
0.0791016 -0.0087890597 0.93972802 4278190080
0.0849609 -0.0065892902 0.93652302 4278190080
0.0849609 -0.0087890597 0.93888801 4278190080
0.095667601 -0.0087890597 0.93652302 4278190080
0.090820298 -0.0079359999 0.93652302 4278190080
0.090820298 -0.0087890597 0.93747699 4278190080
0.067382798 0.0141987 0.91894501 4278190080
0.067382798 0.0087890597 0.92448199 4278190080
0.073242202 0.0124158 0.91894501 4278190080
0.073242202 0.0087890597 0.92286599 4278190080
0.0791016 0.0111672 0.91894501 4278190080
0.0791016 0.0087890597 0.921067 4278190080
0.0849609 0.0103561 0.91894501 4278190080
0.0849609 0.0087890597 0.92050803 4278190080
0.091535002 0.0087890597 0.91894501 4278190080
0.090820298 0.0090338001 0.91894501 4278190080
0.090820298 0.0087890597 0.919227 4278190080
0.049804699 0.00154531 0.93652302 4278190080
0.049804699 -0.0029296901 0.94128698 4278190080
0.0556641 0.00050771201 0.93652302 4278190080
0.0556641 -0.0029296901 0.94016302 4278190080
0.0615234 -0.0010707401 0.93652302 4278190080
0.0615234 -0.0029296901 0.93854803 4278190080
0.0677706 -0.0029296901 0.93652302 4278190080
0.067382798 -0.0027967701 0.93652302 4278190080
0.067382798 -0.0029296901 0.93665498 4278190080
0.049804699 -0.0088831196 0.94824201 4278190080
0.0556641 -0.010522 0.94824201 4278190080
0.0556641 -0.0146484 0.95302099 4278190080
0.0615234 -0.0124969 0.94824201 4278190080
0.0615234 -0.0146484 0.950674 4278190080
0.0715238 -0.0146484 0.94824201 4278190080
0.067382798 -0.0139315 0.94824201 4278190080
0.067382798 -0.0146484 0.94902098 4278190080
0.067382798 0.0084804296 0.92480499 4278190080
0.073242202 0.00706875 0.92480499 4278190080
0.073242202 0.0029296901 0.929452 4278190080
0.0791016 0.0055731498 0.92480499 4278190080
0.0791016 0.0029296901 0.92795902 4278190080
0.0849609 0.0046645398 0.92480499 4278190080
0.0849609 0.0029296901 0.92660803 4278190080
0.092081398 0.0029296901 0.92480499 4278190080
0.090820298 0.0032850499 0.92480499 4278190080
0.090820298 0.0029296901 0.92515802 4278190080
0.049804699 -0.0039055301 0.94238299 4278190080
0.049804699 -0.0087890597 0.94813699 4278190080
0.0556641 -0.00514472 0.94238299 4278190080
0.0556641 -0.0087890597 0.94618899 4278190080
0.0615234 -0.0068994798 0.94238299 4278190080
0.0615234 -0.0087890597 0.94411701 4278190080
0.068272799 -0.0087890597 0.94238299 4278190080
0.067382798 -0.0085598202 0.94238299 4278190080
0.067382798 -0.0087890597 0.94261903 4278190080
0.0556641 -0.0156713 0.95410198 4278190080
0.0556641 -0.020507799 0.95904797 4278190080
0.0615234 -0.0179368 0.95410198 4278190080
0.0615234 -0.020507799 0.95675898 4278190080
0.070321202 -0.020507799 0.95410198 4278190080
0.067382798 -0.019972799 0.95410198 4278190080
0.067382798 -0.020507799 0.95460099 4278190080
0.043945301 0.0144018 0.92480499 4278190080
0.049804699 0.0131897 0.92480499 4278190080
0.049804699 0.0087890597 0.92981702 4278190080
0.0556641 0.0120145 0.92480499 4278190080
0.0556641 0.0087890597 0.928092 4278190080
0.066532701 0.0087890597 0.92480499 4278190080
0.0615234 0.010514 0.92480499 4278190080
0.0615234 0.0087890597 0.92676699 4278190080
0.026367201 -0.0029296901 0.94816101 4278190080
0.0322266 0.0014101299 0.94238299 4278190080
0.0322266 -0.0029296901 0.94653702 4278190080
0.0380859 -0.00045073 0.94238299 4278190080
0.0380859 -0.0029296901 0.94522101 4278190080
0.045389801 -0.0029296901 0.94238299 4278190080
0.043945301 -0.0025636 0.94238299 4278190080
0.043945301 -0.0029296901 0.94275397 4278190080
0.026367201 -0.0030065801 0.94824201 4278190080
0.0322266 -0.0044087199 0.94824201 4278190080
0.0322266 -0.0087890597 0.95287502 4278190080
0.0380859 -0.0057047601 0.94824201 4278190080
0.0380859 -0.0087890597 0.95149601 4278190080
0.0494546 -0.0087890597 0.94824201 4278190080
0.043945301 -0.0074478402 0.94824201 4278190080
0.043945301 -0.0087890597 0.94981498 4278190080
0.0322266 -0.0099644698 0.95410198 4278190080
0.0322266 -0.0146484 0.95936 4278190080
0.0380859 -0.0112387 0.95410198 4278190080
0.0380859 -0.0146484 0.95776302 4278190080
0.043945301 -0.013046 0.95410198 4278190080
0.043945301 -0.0146484 0.95574999 4278190080
0.051198401 -0.0146484 0.95410198 4278190080
0.049804699 -0.0143431 0.95410198 4278190080
0.049804699 -0.0146484 0.95443398 4278190080
0.049804699 0.0078357495 0.930664 4278190080
0.049804699 0.0029296901 0.93501598 4278190080
0.0556641 0.0061974502 0.930664 4278190080
0.0556641 0.0029296901 0.93392497 4278190080
0.0615234 0.00464141 0.930664 4278190080
0.0615234 0.0029296901 0.93224502 4278190080
0.067490898 0.0029296901 0.930664 4278190080
0.067382798 0.0029511501 0.930664 4278190080
0.067382798 0.0029296901 0.93068701 4278190080
0.0322266 -0.0152383 0.959961 4278190080
0.0322266 -0.020507799 0.96518099 4278190080
0.0380859 -0.0167799 0.959961 4278190080
0.0380859 -0.020507799 0.96386999 4278190080
0.043945301 -0.0185524 0.959961 4278190080
0.043945301 -0.020507799 0.962075 4278190080
0.0526063 -0.020507799 0.959961 4278190080
0.049804699 -0.0197258 0.959961 4278190080
0.049804699 -0.020507799 0.96081197 4278190080
0.026367201 0.0132692 0.930664 4278190080
0.026367201 0.0087890597 0.93535602 4278190080
0.0322266 0.0115448 0.930664 4278190080
0.0322266 0.0087890597 0.93393701 4278190080
0.0380859 0.0105395 0.930664 4278190080
0.0380859 0.0087890597 0.93260598 4278190080
0.046784502 0.0087890597 0.930664 4278190080
0.043945301 0.0094786901 0.930664 4278190080
0.043945301 0.0087890597 0.93146801 4278190080
0.28417999 0.00803125 0.87207001 4278190080
0.290039 0.0072519798 0.87207001 4278190080
0.290039 0.0029296901 0.87707901 4278190080
0.29589799 0.0071026101 0.87207001 4278190080
0.29589799 0.0029296901 0.87592602 4278190080
0.0146484 0.0013957 0.94824201 4278190080
0.026130101 -0.0029296901 0.94824201 4278190080
0.020507799 -0.0012252301 0.94824201 4278190080
0.020507799 -0.0029296901 0.95014799 4278190080
0.020507799 -0.0062674298 0.95410198 4278190080
0.020507799 -0.0087890597 0.95732599 4278190080
0.026713099 -0.0087890597 0.95410198 4278190080
0.026367201 -0.0087093096 0.95410198 4278190080
0.026367201 -0.0087890597 0.95418298 4278190080
0.020507799 -0.0092668496 0.959961 4278190080
0.026681701 -0.0146484 0.959961 4278190080
0.026367201 -0.0146147 0.959961 4278190080
0.026367201 -0.0146484 0.95999402 4278190080
0.225586 -0.0149513 0.913086 4278190080
0.231445 -0.0151607 0.913086 4278190080
0.237305 -0.0153371 0.913086 4278190080
0.243164 -0.0149482 0.913086 4278190080
0.28417999 0.0138553 0.866211 4278190080
0.28417999 0.0087890597 0.87107998 4278190080
0.290039 0.0135771 0.866211 4278190080
0.290039 0.0087890597 0.87035602 4278190080
0.29589799 0.0087890597 0.87090403 4278190080
0.031940602 -0.020507799 0.96582001 4278190080
0.026367201 -0.0165176 0.96582001 4278190080
0.026367201 0.0078339595 0.93652302 4278190080
0.0322266 0.0066516399 0.93652302 4278190080
0.0322266 0.0029296901 0.940938 4278190080
0.0380859 0.00496316 0.93652302 4278190080
0.0380859 0.0029296901 0.93857598 4278190080
0.044751499 0.0029296901 0.93652302 4278190080
0.043945301 0.0031986199 0.93652302 4278190080
0.043945301 0.0029296901 0.93676901 4278190080
0.290039 0.0024786 0.87792999 4278190080
0.29589799 0.0023577199 0.87792999 4278190080
0.24902301 -0.0089904098 0.90136701 4278190080
0.25488299 -0.0095444899 0.90136701 4278190080
0.26074201 -0.0094378004 0.90136701 4278190080
0.26660201 -0.0090646697 0.90136701 4278190080
0.017954299 -0.0029296901 0.95410198 4278190080
0.0146484 -0.00086808199 0.95410198 4278190080
0.0087890597 0.0087890597 0.939906 4278190080
0.0146484 0.0115943 0.93652302 4278190080
0.0146484 0.0087890597 0.93866402 4278190080
0.022014599 0.0087890597 0.93652302 4278190080
0.020507799 0.00925708 0.93652302 4278190080
0.020507799 0.0087890597 0.936921 4278190080
0.26660201 0.00721598 0.87792999 4278190080
0.26660201 0.0029296901 0.88245499 4278190080
0.272461 0.0054587098 0.87792999 4278190080
0.272461 0.0029296901 0.88105601 4278190080
0.27832001 0.00449479 0.87792999 4278190080
0.27832001 0.0029296901 0.87990999 4278190080
0.28705001 0.0029296901 0.87792999 4278190080
0.28417999 0.0035584001 0.87792999 4278190080
0.28417999 0.0029296901 0.87878102 4278190080
0.29727799 0.0029296901 0.87792999 4278190080
0.30175799 0.0029296901 0.88086301 4278190080
0.020116 -0.0087890597 0.959961 4278190080
0.272461 -0.0035391999 0.88964802 4278190080
0.27832001 -0.00363183 0.88964802 4278190080
0.28417999 -0.0036462501 0.88964802 4278190080
0.196289 -0.0155089 0.91894501 4278190080
0.196289 -0.020507799 0.92477 4278190080
0.20214801 -0.0165271 0.91894501 4278190080
0.20214801 -0.020507799 0.92344803 4278190080
0.20800801 -0.0178468 0.91894501 4278190080
0.20800801 -0.020507799 0.92216003 4278190080
0.21386699 -0.0193535 0.91894501 4278190080
0.21386699 -0.020507799 0.92033702 4278190080
0.21972699 -0.0190628 0.91894501 4278190080
0.21972699 -0.020507799 0.92023998 4278190080
0.225586 -0.0172862 0.91894501 4278190080
0.225586 -0.020507799 0.924465 4278190080
0.231445 -0.0166039 0.91894501 4278190080
0.237305 -0.016294099 0.91894501 4278190080
0.243164 -0.0159127 0.91894501 4278190080
0.0252696 -0.0146484 0.96582001 4278190080
0.020507799 -0.0101799 0.96582001 4278190080
0.0300366 -0.020507799 0.97167999 4278190080
0.026367201 -0.0176984 0.97167999 4278190080
0.26074201 0.0141555 0.87207001 4278190080
0.26660201 0.0123487 0.87207001 4278190080
0.26660201 0.0087890597 0.87618297 4278190080
0.272461 0.0102822 0.87207001 4278190080
0.272461 0.0087890597 0.87354797 4278190080
0.278541 0.0087890597 0.87207001 4278190080
0.27832001 0.0088285198 0.87207001 4278190080
0.27832001 0.0087890597 0.872109 4278190080
0.29618901 0.0087890597 0.87207001 4278190080
0.29589799 0.0112567 0.87207001 4278190080
0.0087890597 0.0082269898 0.94238299 4278190080
0.0146484 0.0050297999 0.94238299 4278190080
0.0146484 0.0029296901 0.944484 4278190080
0.020507799 0.00395334 0.94238299 4278190080
0.020507799 0.0029296901 0.943542 4278190080
0.0267251 0.0029296901 0.94238299 4278190080
0.026367201 0.0030080101 0.94238299 4278190080
0.026367201 0.0029296901 0.94247502 4278190080
0.26660201 0.00190139 0.883789 4278190080
0.272461 0.00057446997 0.883789 4278190080
0.272461 -0.0029296901 0.88787502 4278190080
0.27832001 -0.00086593599 0.883789 4278190080
0.27832001 -0.0029296901 0.88610798 4278190080
0.28417999 -0.0021116701 0.883789 4278190080
0.28417999 -0.0029296901 0.88460898 4278190080
0.290039 -0.000955939 0.883789 4278190080
0.290039 -0.0029296901 0.886365 4278190080
0.29589799 -7.3790601e-05 0.883789 4278190080
0.29589799 -0.0029296901 0.88805902 4278190080
0.30175799 0.0019876999 0.883789 4278190080
0.0152807 -0.0029296901 0.959961 4278190080
0.0146484 -0.0025062601 0.959961 4278190080
0.0146484 -0.0029296901 0.96153098 4278190080
0.21972699 -0.0096226903 0.90722698 4278190080
0.225586 -0.0103561 0.90722698 4278190080
0.225586 -0.0146484 0.91216701 4278190080
0.231445 -0.0115945 0.90722698 4278190080
0.231445 -0.0146484 0.91076899 4278190080
0.237305 -0.0127256 0.90722698 4278190080
0.237305 -0.0146484 0.90934801 4278190080
0.243164 -0.0118113 0.90722698 4278190080
0.243164 -0.0146484 0.91137302 4278190080
0.24902301 -0.0115764 0.90722698 4278190080
0.25488299 -0.0121228 0.90722698 4278190080
0.25488299 -0.0146484 0.91083503 4278190080
0.26074201 -0.010308 0.90722698 4278190080
0.26660201 -0.00989151 0.90722698 4278190080
0.0083249798 0.0087890597 0.94238299 4278190080
0.0193894 -0.0087890597 0.96582001 4278190080
0.0146484 -0.0034403801 0.96582001 4278190080
0.237305 0.0083945999 0.883789 4278190080
0.237305 0.0029296901 0.88907897 4278190080
0.243164 0.0071680499 0.883789 4278190080
0.243164 0.0029296901 0.888255 4278190080
0.24902301 0.0057183499 0.883789 4278190080
0.24902301 0.0029296901 0.88699001 4278190080
0.25488299 0.0042072502 0.883789 4278190080
0.25488299 0.0029296901 0.88537401 4278190080
0.261305 0.0029296901 0.883789 4278190080
0.26074201 0.0030598601 0.883789 4278190080
0.26074201 0.0029296901 0.88392597 4278190080
0.30268499 0.0029296901 0.883789 4278190080
0.024343099 -0.0146484 0.97167999 4278190080
0.020507799 -0.0110046 0.97167999 4278190080
0.243164 -0.0038596401 0.89550799 4278190080
0.24902301 -0.0045458102 0.89550799 4278190080
0.24902301 -0.0087890597 0.900904 4278190080
0.25488299 -0.00580621 0.89550799 4278190080
0.25488299 -0.0087890597 0.89879 4278190080
0.26074201 -0.0071991701 0.89550799 4278190080
0.26074201 -0.0087890597 0.89692497 4278190080
0.26660201 -0.0063986802 0.89550799 4278190080
0.26660201 -0.0087890597 0.89930302 4278190080
0.272461 -0.00586724 0.89550799 4278190080
0.27832001 -0.0048577799 0.89550799 4278190080
0.28417999 -0.0043979902 0.89550799 4278190080
0.290039 -0.0042469501 0.89550799 4278190080
0.028818499 -0.020507799 0.977539 4278190080
0.026367201 -0.0185412 0.977539 4278190080
0.19614699 -0.020507799 0.92480499 4278190080
0.19043 -0.0193596 0.92480499 4278190080
0.19043 -0.020507799 0.92619699 4278190080
0.225831 -0.020507799 0.92480499 4278190080
0.231445 -0.0178844 0.92480499 4278190080
0.237305 -0.017403699 0.92480499 4278190080
0.243164 -0.0166378 0.92480499 4278190080
0.24902301 -0.0161031 0.92480499 4278190080
0.237305 0.0142915 0.87792999 4278190080
0.237305 0.0087890597 0.88339901 4278190080
0.243164 0.0130024 0.87792999 4278190080
0.243164 0.0087890597 0.88204199 4278190080
0.24902301 0.0111635 0.87792999 4278190080
0.24902301 0.0087890597 0.88017398 4278190080
0.25488299 0.0092929602 0.87792999 4278190080
0.25488299 0.0087890597 0.87841302 4278190080
0.26111501 0.0087890597 0.87792999 4278190080
0.26074201 0.0088849096 0.87792999 4278190080
0.26074201 0.0087890597 0.878034 4278190080
0.299187 0.0087890597 0.87792999 4278190080
0.30175799 0.0087890597 0.87984103 4278190080
0.0137843 0.0029296901 0.94824201 4278190080
0.0087890597 0.0071562501 0.94824201 4278190080
0.0141262 -0.0029296901 0.96582001 4278190080
0.19043 -0.0091044903 0.913086 4278190080
0.196289 -0.0100369 0.913086 4278190080
0.196289 -0.0146484 0.91798401 4278190080
0.20214801 -0.0114882 0.913086 4278190080
0.20214801 -0.0146484 0.91676098 4278190080
0.20800801 -0.0127277 0.913086 4278190080
0.20800801 -0.0146484 0.915443 4278190080
0.21386699 -0.0135436 0.913086 4278190080
0.21386699 -0.0146484 0.91434199 4278190080
0.221241 -0.0146484 0.913086 4278190080
0.21972699 -0.0143945 0.913086 4278190080
0.21972699 -0.0146484 0.91338497 4278190080
0.245814 -0.0146484 0.913086 4278190080
0.25135601 -0.0146484 0.913086 4278190080
0.24902301 -0.013639 0.913086 4278190080
0.24902301 -0.0146484 0.91486502 4278190080
0.25574899 -0.0146484 0.913086 4278190080
0.26074201 -0.0112456 0.913086 4278190080
0.26660201 -0.0106196 0.913086 4278190080
0.0073528299 0.0087890597 0.94824201 4278190080
0.237305 0.0024212601 0.88964802 4278190080
0.243164 0.00160265 0.88964802 4278190080
0.243164 -0.0029296901 0.89429599 4278190080
0.24902301 0.00060355698 0.88964802 4278190080
0.24902301 -0.0029296901 0.89351499 4278190080
0.25488299 -0.00027883099 0.88964802 4278190080
0.25488299 -0.0029296901 0.89268303 4278190080
0.26074201 -0.00139713 0.88964802 4278190080
0.26074201 -0.0029296901 0.89171201 4278190080
0.26786 -0.0029296901 0.88964802 4278190080
0.26660201 -0.00254297 0.88964802 4278190080
0.26660201 -0.0029296901 0.89014202 4278190080
0.29670301 -0.0029296901 0.88964802 4278190080
0.30175799 0.000216007 0.88964802 4278190080
0.018674999 -0.0087890597 0.97167999 4278190080
0.0146484 -0.0043873801 0.97167999 4278190080
0.023479201 -0.0146484 0.977539 4278190080
0.020507799 -0.0118068 0.977539 4278190080
0.027792601 -0.020507799 0.98339802 4278190080
0.026367201 -0.019292399 0.98339802 4278190080
0.21386699 0.0084379902 0.88964802 4278190080
0.21386699 0.0029296901 0.89473999 4278190080
0.21972699 0.00696385 0.88964802 4278190080
0.21972699 0.0029296901 0.89341402 4278190080
0.225586 0.0058261198 0.88964802 4278190080
0.225586 0.0029296901 0.89260203 4278190080
0.235788 0.0029296901 0.88964802 4278190080
0.231445 0.0044635502 0.88964802 4278190080
0.231445 0.0029296901 0.891276 4278190080
0.30478299 0.0029296901 0.88964802 4278190080
0.30761701 0.0029296901 0.89301801 4278190080
0.229491 -0.020507799 0.930664 4278190080
0.231445 -0.019575 0.930664 4278190080
0.231445 -0.020507799 0.93539703 4278190080
0.237305 -0.0188022 0.930664 4278190080
0.243164 -0.017337199 0.930664 4278190080
0.24902301 -0.016705399 0.930664 4278190080
0.25488299 -0.016562199 0.930664 4278190080
0.26074201 -0.016704001 0.930664 4278190080
0.21386699 -0.00346994 0.90136701 4278190080
0.21972699 -0.0045047998 0.90136701 4278190080
0.21972699 -0.0087890597 0.90625501 4278190080
0.225586 -0.0051578302 0.90136701 4278190080
0.225586 -0.0087890597 0.905523 4278190080
0.231445 -0.0063865199 0.90136701 4278190080
0.231445 -0.0087890597 0.90419698 4278190080
0.237305 -0.0074806199 0.90136701 4278190080
0.237305 -0.0087890597 0.90284598 4278190080
0.24625 -0.0087890597 0.90136701 4278190080
0.243164 -0.0084190397 0.90136701 4278190080
0.243164 -0.0087890597 0.90185702 4278190080
0.27019101 -0.0087890597 0.90136701 4278190080
0.272461 -0.0082817096 0.90136701 4278190080
0.272461 -0.0087890597 0.90233499 4278190080
0.27832001 -0.00608361 0.90136701 4278190080
0.28417999 -0.0051809498 0.90136701 4278190080
0.290039 -0.0050061899 0.90136701 4278190080
0.29589799 -0.0045836 0.90136701 4278190080
0.0126765 0.0029296901 0.95410198 4278190080
0.0087890597 0.0062673101 0.95410198 4278190080
0.0130839 -0.0029296901 0.97167999 4278190080
0.20800801 0.0146427 0.883789 4278190080
0.21386699 0.0136522 0.883789 4278190080
0.21386699 0.0087890597 0.88932902 4278190080
0.21972699 0.0122417 0.883789 4278190080
0.21972699 0.0087890597 0.887851 4278190080
0.225586 0.0112237 0.883789 4278190080
0.225586 0.0087890597 0.88654101 4278190080
0.23570301 0.0087890597 0.883789 4278190080
0.231445 0.0098695802 0.883789 4278190080
0.231445 0.0087890597 0.88484901 4278190080
0.303363 0.0087890597 0.883789 4278190080
0.30175799 0.0137107 0.883789 4278190080
0.19074599 -0.0146484 0.91894501 4278190080
0.19043 -0.0145953 0.91894501 4278190080
0.19043 -0.0146484 0.91900301 4278190080
0.25758299 -0.0146484 0.91894501 4278190080
0.26074201 -0.0127926 0.91894501 4278190080
0.26074201 -0.0146484 0.92266899 4278190080
0.26660201 -0.0111663 0.91894501 4278190080
0.272461 -0.0107338 0.91894501 4278190080
0.27832001 -0.0104764 0.91894501 4278190080
0.0063241702 0.0087890597 0.95410198 4278190080
0.0029296901 0.0141556 0.95410198 4278190080
0.0179087 -0.0087890597 0.977539 4278190080
0.0146484 -0.0052915802 0.977539 4278190080
0.21386699 0.00221455 0.89550799 4278190080
0.21386699 -0.0029296901 0.90073001 4278190080
0.21972699 0.00084173703 0.89550799 4278190080
0.21972699 -0.0029296901 0.89944899 4278190080
0.225586 0.000136852 0.89550799 4278190080
0.225586 -0.0029296901 0.89871103 4278190080
0.231445 -0.00129604 0.89550799 4278190080
0.231445 -0.0029296901 0.89717603 4278190080
0.23790801 -0.0029296901 0.89550799 4278190080
0.237305 -0.0027930699 0.89550799 4278190080
0.237305 -0.0029296901 0.89565903 4278190080
0.29990399 -0.0029296901 0.89550799 4278190080
0.30175799 -0.0019853101 0.89550799 4278190080
0.30175799 -0.0029296901 0.89746702 4278190080
0.30761701 0.0017029 0.89550799 4278190080
0.0227268 -0.0146484 0.98339802 4278190080
0.020507799 -0.0125754 0.98339802 4278190080
0.026704 -0.020507799 0.98925799 4278190080
0.026367201 -0.0202171 0.98925799 4278190080
0.026367201 -0.020507799 0.99211103 4278190080
0.0116129 0.0029296901 0.959961 4278190080
0.0087890597 0.0053614401 0.959961 4278190080
0.19043 0.0075391498 0.89550799 4278190080
0.19043 0.0029296901 0.90049398 4278190080
0.196289 0.0062853098 0.89550799 4278190080
0.196289 0.0029296901 0.89891303 4278190080
0.20214801 0.0049723401 0.89550799 4278190080
0.20214801 0.0029296901 0.89769799 4278190080
0.21105599 0.0029296901 0.89550799 4278190080
0.20800801 0.0036927499 0.89550799 4278190080
0.20800801 0.0029296901 0.89630198 4278190080
0.30904201 0.0029296901 0.89550799 4278190080
0.23261601 -0.020507799 0.93652302 4278190080
0.237305 -0.019827399 0.93652302 4278190080
0.237305 -0.020507799 0.93876398 4278190080
0.243164 -0.0180887 0.93652302 4278190080
0.24902301 -0.0173393 0.93652302 4278190080
0.25488299 -0.017023601 0.93652302 4278190080
0.26074201 -0.017273201 0.93652302 4278190080
0.26660201 -0.0153832 0.93652302 4278190080
0.0120972 -0.0029296901 0.977539 4278190080
0.0087890597 0.0021824799 0.977539 4278190080
0.19043 -0.0038638101 0.90722698 4278190080
0.19043 -0.0087890597 0.91274703 4278190080
0.196289 -0.0052760802 0.90722698 4278190080
0.196289 -0.0087890597 0.91169298 4278190080
0.20214801 -0.0066114701 0.90722698 4278190080
0.20214801 -0.0087890597 0.90986598 4278190080
0.20800801 -0.0079026204 0.90722698 4278190080
0.20800801 -0.0087890597 0.90821499 4278190080
0.215479 -0.0087890597 0.90722698 4278190080
0.21386699 -0.0084494399 0.90722698 4278190080
0.21386699 -0.0087890597 0.90760201 4278190080
0.27623701 -0.0087890597 0.90722698 4278190080
0.27832001 -0.0079419604 0.90722698 4278190080
0.27832001 -0.0087890597 0.90916902 4278190080
0.28417999 -0.0060880198 0.90722698 4278190080
0.290039 -0.0054672998 0.90722698 4278190080
0.29589799 -0.0050518499 0.90722698 4278190080
0.30175799 -0.0047812499 0.90722698 4278190080
0.017028701 -0.0087890597 0.98339802 4278190080
0.0146484 -0.0063259602 0.98339802 4278190080
0.0053108898 0.0087890597 0.959961 4278190080
0.0029296901 0.012547 0.959961 4278190080
0.19043 0.0135041 0.88964802 4278190080
0.19043 0.0087890597 0.89416599 4278190080
0.196289 0.0120735 0.88964802 4278190080
0.196289 0.0087890597 0.89288098 4278190080
0.20214801 0.0101948 0.88964802 4278190080
0.20214801 0.0087890597 0.89119601 4278190080
0.211134 0.0087890597 0.88964802 4278190080
0.20800801 0.0091178399 0.88964802 4278190080
0.20800801 0.0087890597 0.89001501 4278190080
0.30521101 0.0087890597 0.88964802 4278190080
0.30761701 0.0087890597 0.892685 4278190080
0.26182801 -0.0146484 0.92480499 4278190080
0.26660201 -0.01196 0.92480499 4278190080
0.272461 -0.0113958 0.92480499 4278190080
0.27832001 -0.0111996 0.92480499 4278190080
0.28417999 -0.0103587 0.92480499 4278190080
0.19043 0.0019748199 0.90136701 4278190080
0.19043 -0.0029296901 0.90611398 4278190080
0.196289 0.000186205 0.90136701 4278190080
0.196289 -0.0029296901 0.904203 4278190080
0.20214801 -0.00128639 0.90136701 4278190080
0.20214801 -0.0029296901 0.90282899 4278190080
0.210898 -0.0029296901 0.90136701 4278190080
0.20800801 -0.00228488 0.90136701 4278190080
0.20800801 -0.0029296901 0.90194798 4278190080
0.30305299 -0.0029296901 0.90136701 4278190080
0.30761701 0.000131607 0.90136701 4278190080
0.0218012 -0.0146484 0.98925799 4278190080
0.020507799 -0.0134358 0.98925799 4278190080
