# .PCD v0.7 - Point Cloud Data file format
VERSION 0.7
FIELDS x y z rgb
SIZE 4 4 4 4
TYPE F F F U
COUNT 1 1 1 1
WIDTH 1080
HEIGHT 1
VIEWPOINT 0 0 0 1 0 0 0
POINTS 1080
DATA ascii
0.17285199 -0.026367201 0.94115603 4278190080
0.178711 -0.024697101 0.93652302 4278190080
0.56542999 -0.038806099 0.836914 4278190080
0.571289 -0.0385275 0.836914 4278190080
0.57714802 -0.0391194 0.836914 4278190080
0.57714802 -0.043945301 0.84235299 4278190080
0.58300799 -0.0403914 0.836914 4278190080
0.58300799 -0.043945301 0.84082198 4278190080
0.58886701 -0.041742399 0.836914 4278190080
0.58886701 -0.043945301 0.83916497 4278190080
0.597808 -0.043945301 0.836914 4278190080
0.59472698 -0.043007299 0.836914 4278190080
0.59472698 -0.043945301 0.83780098 4278190080
0.62610197 -0.043945301 0.836914 4278190080
0.62988299 -0.0418295 0.836914 4278190080
0.63574201 -0.0391431 0.836914 4278190080
0.18174499 -0.0322266 0.93652302 4278190080
0.178711 -0.026747299 0.93652302 4278190080
0.178711 -0.0322266 0.93902498 4278190080
0.56542999 -0.034029201 0.83105499 4278190080
0.56542999 -0.0380859 0.83574599 4278190080
0.571289 -0.034546901 0.83105499 4278190080
0.571289 -0.0380859 0.83625102 4278190080
0.57714802 -0.0358449 0.83105499 4278190080
0.57714802 -0.0380859 0.83528602 4278190080
0.58300799 -0.0362048 0.83105499 4278190080
0.58300799 -0.0380859 0.83418 4278190080
0.58886701 -0.036692102 0.83105499 4278190080
0.58886701 -0.0380859 0.83327103 4278190080
0.598176 -0.0380859 0.83105499 4278190080
0.59472698 -0.0374492 0.83105499 4278190080
0.59472698 -0.0380859 0.83198202 4278190080
0.63348198 -0.0380859 0.83105499 4278190080
0.63574201 -0.0358155 0.83105499 4278190080
0.63574201 -0.0380859 0.833018 4278190080
0.64160198 -0.033386 0.83105499 4278190080
0.44824201 -0.0380859 0.865502 4278190080
0.45410201 -0.0336955 0.86035198 4278190080
0.45410201 -0.0380859 0.86418098 4278190080
0.459961 -0.035083499 0.86035198 4278190080
0.459961 -0.0380859 0.86338502 4278190080
0.46994501 -0.0380859 0.86035198 4278190080
0.46582001 -0.0370709 0.86035198 4278190080
0.46582001 -0.0380859 0.86150301 4278190080
0.56542999 -0.021493601 0.819336 4278190080
0.56542999 -0.026367201 0.82503903 4278190080
0.571289 -0.022942301 0.819336 4278190080
0.571289 -0.026367201 0.82340598 4278190080
0.57714802 -0.0244008 0.819336 4278190080
0.57714802 -0.026367201 0.821325 4278190080
0.58542103 -0.026367201 0.819336 4278190080
0.58300799 -0.0257078 0.819336 4278190080
0.58300799 -0.026367201 0.81998903 4278190080
0.62930501 -0.026367201 0.819336 4278190080
0.62988299 -0.025719799 0.819336 4278190080
0.62988299 -0.026367201 0.81973302 4278190080
0.63574201 -0.021563301 0.819336 4278190080
0.63574201 -0.026367201 0.82262403 4278190080
0.20800801 -0.049804699 0.93645 4278190080
0.21386699 -0.045673698 0.930664 4278190080
0.21386699 -0.049804699 0.93515199 4278190080
0.21972699 -0.047025401 0.930664 4278190080
0.21972699 -0.049804699 0.93350202 4278190080
0.225586 -0.0484308 0.930664 4278190080
0.225586 -0.049804699 0.93219298 4278190080
0.237004 -0.049804699 0.930664 4278190080
0.231445 -0.0492175 0.930664 4278190080
0.231445 -0.049804699 0.93130797 4278190080
0.47167999 -0.0385089 0.86035198 4278190080
0.47167999 -0.043945301 0.86571097 4278190080
0.477539 -0.039422002 0.86035198 4278190080
0.477539 -0.043945301 0.86398298 4278190080
0.48339799 -0.041213501 0.86035198 4278190080
0.48339799 -0.043945301 0.86249799 4278190080
0.48925799 -0.041687999 0.86035198 4278190080
0.48925799 -0.043945301 0.86196399 4278190080
0.496315 -0.043945301 0.86035198 4278190080
0.49511701 -0.043279398 0.86035198 4278190080
0.49511701 -0.043945301 0.86102098 4278190080
0.59558499 -0.049804699 0.85449201 4278190080
0.59472698 -0.049804699 0.85699898 4278190080
0.600586 -0.047447599 0.85449201 4278190080
0.60644501 -0.046525601 0.85449201 4278190080
0.61230499 -0.045566801 0.85449201 4278190080
0.618164 -0.044595201 0.85449201 4278190080
0.44824201 -0.049804699 0.87711102 4278190080
0.45410201 -0.044309601 0.87207001 4278190080
0.45410201 -0.049804699 0.87603003 4278190080
0.459961 -0.047159899 0.87207001 4278190080
0.459961 -0.049804699 0.87394798 4278190080
0.465855 -0.049804699 0.87207001 4278190080
0.46582001 -0.049792901 0.87207001 4278190080
0.46582001 -0.049804699 0.87208003 4278190080
0.178711 -0.0390401 0.94238299 4278190080
0.189291 -0.043945301 0.94238299 4278190080
0.18457 -0.041974999 0.94238299 4278190080
0.18457 -0.043945301 0.94682002 4278190080
0.20214801 -0.0380859 0.92465401 4278190080
0.20800801 -0.032530501 0.91894501 4278190080
0.20800801 -0.0380859 0.92304403 4278190080
0.21386699 -0.0349885 0.91894501 4278190080
0.21386699 -0.0380859 0.92172098 4278190080
0.21972699 -0.036422499 0.91894501 4278190080
0.21972699 -0.0380859 0.92043698 4278190080
0.225586 -0.037351701 0.91894501 4278190080
0.225586 -0.0380859 0.91983497 4278190080
0.231445 -0.037388299 0.91894501 4278190080
0.231445 -0.0380859 0.91987503 4278190080
0.237517 -0.0380859 0.91894501 4278190080
0.237305 -0.038063999 0.91894501 4278190080
0.237305 -0.0380859 0.91897303 4278190080
0.56542999 -0.053583 0.866211 4278190080
0.571289 -0.052230701 0.866211 4278190080
0.57714802 -0.051945899 0.866211 4278190080
0.58300799 -0.051195901 0.866211 4278190080
0.20800801 -0.049872302 0.93652302 4278190080
0.21386699 -0.051004801 0.93652302 4278190080
0.21386699 -0.0556641 0.94213903 4278190080
0.21972699 -0.0519384 0.93652302 4278190080
0.21972699 -0.0556641 0.941185 4278190080
0.225586 -0.052700799 0.93652302 4278190080
0.225586 -0.0556641 0.94055003 4278190080
0.231445 -0.053259499 0.93652302 4278190080
0.231445 -0.0556641 0.93969601 4278190080
0.243008 -0.0556641 0.93652302 4278190080
0.237305 -0.054631699 0.93652302 4278190080
0.237305 -0.0556641 0.937693 4278190080
0.44824201 -0.050664399 0.87792999 4278190080
0.44824201 -0.0556641 0.88327098 4278190080
0.45410201 -0.051589102 0.87792999 4278190080
0.45410201 -0.0556641 0.88229102 4278190080
0.459961 -0.052856199 0.87792999 4278190080
0.459961 -0.0556641 0.882258 4278190080
0.46582001 -0.054236099 0.87792999 4278190080
0.46582001 -0.0556641 0.87997502 4278190080
0.477281 -0.0556641 0.87792999 4278190080
0.47167999 -0.054853901 0.87792999 4278190080
0.47167999 -0.0556641 0.879197 4278190080
0.55647302 -0.0556641 0.87792999 4278190080
0.553711 -0.0556641 0.88364297 4278190080
0.55957001 -0.054059599 0.87792999 4278190080
0.20800801 -0.0322266 0.91872698 4278190080
0.21386699 -0.0322266 0.91663897 4278190080
0.21972699 -0.0270612 0.913086 4278190080
0.21972699 -0.0322266 0.91478002 4278190080
0.225916 -0.0322266 0.913086 4278190080
0.225586 -0.0320164 0.913086 4278190080
0.225586 -0.0322266 0.91316098 4278190080
0.177431 -0.0380859 0.94238299 4278190080
0.17285199 -0.0380859 0.94678497 4278190080
0.20214801 -0.038192399 0.92480499 4278190080
0.20800801 -0.039512299 0.92480499 4278190080
0.21386699 -0.040523998 0.92480499 4278190080
0.21386699 -0.043945301 0.92900902 4278190080
0.21972699 -0.041860901 0.92480499 4278190080
0.21972699 -0.043945301 0.92781299 4278190080
0.225586 -0.042390101 0.92480499 4278190080
0.225586 -0.043945301 0.92663997 4278190080
0.236251 -0.043945301 0.92480499 4278190080
0.231445 -0.042890102 0.92480499 4278190080
0.231445 -0.043945301 0.92598599 4278190080
0.44824201 -0.0269692 0.85449201 4278190080
0.45410201 -0.027399501 0.85449201 4278190080
0.45410201 -0.0322266 0.85913402 4278190080
0.459961 -0.0290222 0.85449201 4278190080
0.459961 -0.0322266 0.85726798 4278190080
0.46764201 -0.0322266 0.85449201 4278190080
0.46582001 -0.031665899 0.85449201 4278190080
0.46582001 -0.0322266 0.85501802 4278190080
0.20214801 -0.026367201 0.91889602 4278190080
0.20800801 -0.026367201 0.91637999 4278190080
0.218971 -0.026367201 0.913086 4278190080
0.21386699 -0.0236404 0.913086 4278190080
0.21386699 -0.026367201 0.91459799 4278190080
0.64278001 -0.0322266 0.83105499 4278190080
0.647461 -0.0322266 0.83663398 4278190080
0.17171399 -0.026367201 0.94238299 4278190080
0.44824201 -0.0209997 0.84863299 4278190080
0.44824201 -0.026367201 0.85377997 4278190080
0.45410201 -0.0221816 0.84863299 4278190080
0.45410201 -0.026367201 0.853329 4278190080
0.459961 -0.023515301 0.84863299 4278190080
0.459961 -0.026367201 0.85193002 4278190080
0.468036 -0.026367201 0.84863299 4278190080
0.46582001 -0.0256579 0.84863299 4278190080
0.46582001 -0.026367201 0.84934098 4278190080
0.56542999 -0.042057302 0.84277302 4278190080
0.56542999 -0.043945301 0.84524202 4278190080
0.57568997 -0.043945301 0.84277302 4278190080
0.571289 -0.042909998 0.84277302 4278190080
0.571289 -0.043945301 0.84397697 4278190080
0.62639201 -0.043945301 0.84277302 4278190080
0.62402302 -0.043945301 0.84835398 4278190080
0.62988299 -0.0419867 0.84277302 4278190080
0.63574201 -0.040167801 0.84277302 4278190080
0.175181 -0.0322266 0.94238299 4278190080
0.17285199 -0.028237 0.94238299 4278190080
0.17285199 -0.0322266 0.94578397 4278190080
0.207939 -0.049804699 0.93652302 4278190080
0.20214801 -0.045855299 0.93652302 4278190080
0.64091998 -0.0380859 0.836914 4278190080
0.64160198 -0.037595499 0.836914 4278190080
0.647461 -0.032451998 0.836914 4278190080
0.44824201 -0.038709201 0.866211 4278190080
0.45410201 -0.039763499 0.866211 4278190080
0.45410201 -0.043945301 0.87177801 4278190080
0.459961 -0.040706199 0.866211 4278190080
0.459961 -0.043945301 0.86986202 4278190080
0.47017801 -0.043945301 0.866211 4278190080
0.46582001 -0.042399399 0.866211 4278190080
0.46582001 -0.043945301 0.86771297 4278190080
0.430664 -0.0329067 0.866211 4278190080
0.430664 -0.0380859 0.87025201 4278190080
0.43652299 -0.0343723 0.866211 4278190080
0.43652299 -0.0380859 0.86890203 4278190080
0.44615301 -0.0380859 0.866211 4278190080
0.44238299 -0.036425799 0.866211 4278190080
0.44238299 -0.0380859 0.86756402 4278190080
0.63885599 -0.026367201 0.82519501 4278190080
0.64160198 -0.022748699 0.82519501 4278190080
0.64160198 -0.026367201 0.827079 4278190080
0.59278202 -0.049804699 0.86035198 4278190080
0.58886701 -0.049804699 0.86546302 4278190080
0.59472698 -0.049135599 0.86035198 4278190080
0.600586 -0.047378499 0.86035198 4278190080
0.60644501 -0.0466385 0.86035198 4278190080
0.61230499 -0.045359999 0.86035198 4278190080
0.618164 -0.043953501 0.86035198 4278190080
0.17285199 -0.040365301 0.94824201 4278190080
0.182363 -0.043945301 0.94824201 4278190080
0.178711 -0.042796299 0.94824201 4278190080
0.187417 -0.043945301 0.94824201 4278190080
0.18457 -0.043945301 0.95404202 4278190080
0.430664 -0.0451837 0.87792999 4278190080
0.430664 -0.049804699 0.88277298 4278190080
0.43652299 -0.046415199 0.87792999 4278190080
0.43652299 -0.049804699 0.88137501 4278190080
0.44575301 -0.049804699 0.87792999 4278190080
0.44238299 -0.0482428 0.87792999 4278190080
0.44238299 -0.049804699 0.87913799 4278190080
0.20192 -0.0380859 0.92480499 4278190080
0.196289 -0.0340712 0.92480499 4278190080
0.196289 -0.0380859 0.92828101 4278190080
0.56542999 -0.053347599 0.87207001 4278190080
0.571289 -0.052559901 0.87207001 4278190080
0.57714802 -0.051732302 0.87207001 4278190080
0.58300799 -0.0502894 0.87207001 4278190080
0.171207 -0.0380859 0.94824201 4278190080
0.21334 -0.0556641 0.94238299 4278190080
0.20800801 -0.053792 0.94238299 4278190080
0.20800801 -0.0556641 0.94500202 4278190080
0.196289 -0.0322266 0.92328501 4278190080
0.20741899 -0.0322266 0.91894501 4278190080
0.20214801 -0.0264962 0.91894501 4278190080
0.20214801 -0.0322266 0.92091697 4278190080
0.42480499 -0.0556641 0.889615 4278190080
0.430664 -0.0510532 0.883789 4278190080
0.430664 -0.0556641 0.88785899 4278190080
0.43652299 -0.052739099 0.883789 4278190080
0.43652299 -0.0556641 0.88613099 4278190080
0.44636801 -0.0556641 0.883789 4278190080
0.44238299 -0.054568298 0.883789 4278190080
0.44238299 -0.0556641 0.88490599 4278190080
0.55362499 -0.0556641 0.883789 4278190080
0.553711 -0.055619098 0.883789 4278190080
0.55957001 -0.054192498 0.883789 4278190080
0.196289 -0.0390599 0.930664 4278190080
0.20214801 -0.0425351 0.930664 4278190080
0.20214801 -0.043945301 0.933043 4278190080
0.208423 -0.043945301 0.930664 4278190080
0.20800801 -0.043855201 0.930664 4278190080
0.20800801 -0.043945301 0.93078899 4278190080
0.42480499 -0.026965501 0.86035198 4278190080
0.430664 -0.0281626 0.86035198 4278190080
0.430664 -0.0322266 0.865605 4278190080
0.43652299 -0.0291532 0.86035198 4278190080
0.43652299 -0.0322266 0.86449999 4278190080
0.44238299 -0.029992299 0.86035198 4278190080
0.44238299 -0.0322266 0.86291099 4278190080
0.449435 -0.0322266 0.86035198 4278190080
0.44824201 -0.031901099 0.86035198 4278190080
0.44824201 -0.0322266 0.86069697 4278190080
0.64777601 -0.0322266 0.836914 4278190080
0.201983 -0.026367201 0.91894501 4278190080
0.196289 -0.020817401 0.91894501 4278190080
0.196289 -0.026367201 0.92058098 4278190080
0.18457 -0.044402201 0.94824201 4278190080
0.19043 -0.044217799 0.94238299 4278190080
0.196289 -0.045191899 0.94238299 4278190080
0.204032 -0.049804699 0.94238299 4278190080
0.20214801 -0.048528299 0.94238299 4278190080
0.20214801 -0.049804699 0.94484103 4278190080
0.64152002 -0.0380859 0.84277302 4278190080
0.64160198 -0.038002402 0.84277302 4278190080
0.647461 -0.0352415 0.84277302 4278190080
0.17047501 -0.0322266 0.94824201 4278190080
0.16699199 -0.026867401 0.94824201 4278190080
0.42480499 -0.026367201 0.859644 4278190080
0.430664 -0.0221885 0.85449201 4278190080
0.430664 -0.026367201 0.85821199 4278190080
0.43652299 -0.023553999 0.85449201 4278190080
0.43652299 -0.026367201 0.85688502 4278190080
0.44587201 -0.026367201 0.85449201 4278190080
0.44238299 -0.0252272 0.85449201 4278190080
0.44238299 -0.026367201 0.85573 4278190080
0.62383199 -0.043945301 0.84863299 4278190080
0.62402302 -0.043869901 0.84863299 4278190080
0.62988299 -0.041896001 0.84863299 4278190080
0.63574201 -0.040722702 0.84863299 4278190080
0.430664 -0.0399643 0.87207001 4278190080
0.430664 -0.043945301 0.87641901 4278190080
0.43652299 -0.0410721 0.87207001 4278190080
0.43652299 -0.043945301 0.87533599 4278190080
0.44238299 -0.042002399 0.87207001 4278190080
0.44238299 -0.043945301 0.874349 4278190080
0.45227799 -0.043945301 0.87207001 4278190080
0.44824201 -0.043423899 0.87207001 4278190080
0.44824201 -0.043945301 0.872711 4278190080
0.40136701 -0.032591201 0.87207001 4278190080
0.40722701 -0.033801999 0.87207001 4278190080
0.40722701 -0.0380859 0.87739599 4278190080
0.413086 -0.035084698 0.87207001 4278190080
0.413086 -0.0380859 0.87544101 4278190080
0.41894501 -0.0360456 0.87207001 4278190080
0.41894501 -0.0380859 0.87396598 4278190080
0.425657 -0.0380859 0.87207001 4278190080
0.42480499 -0.037663601 0.87207001 4278190080
0.42480499 -0.0380859 0.87238997 4278190080
0.645518 -0.026367201 0.83105499 4278190080
0.647461 -0.026367201 0.83345401 4278190080
0.58842802 -0.049804699 0.866211 4278190080
0.58886701 -0.049616799 0.866211 4278190080
0.59472698 -0.048101399 0.866211 4278190080
0.600586 -0.047651399 0.866211 4278190080
0.60644501 -0.046535101 0.866211 4278190080
0.61230499 -0.045102101 0.866211 4278190080
0.618164 -0.044197101 0.866211 4278190080
0.17285199 -0.038736202 0.95410198 4278190080
0.178711 -0.041575801 0.95410198 4278190080
0.184591 -0.043945301 0.95410198 4278190080
0.18457 -0.043934599 0.95410198 4278190080
0.18457 -0.043945301 0.95412397 4278190080
0.56542999 -0.053547598 0.87792999 4278190080
0.571289 -0.052864999 0.87792999 4278190080
0.57714802 -0.051522601 0.87792999 4278190080
0.193538 -0.0380859 0.930664 4278190080
0.19043 -0.034931902 0.930664 4278190080
0.19043 -0.0380859 0.93270802 4278190080
0.40136701 -0.044339299 0.883789 4278190080
0.40722701 -0.045306601 0.883789 4278190080
0.40722701 -0.049804699 0.88946497 4278190080
0.413086 -0.0466033 0.883789 4278190080
0.413086 -0.049804699 0.887586 4278190080
0.41894501 -0.0475614 0.883789 4278190080
0.41894501 -0.049804699 0.88676101 4278190080
0.42751899 -0.049804699 0.883789 4278190080
0.42480499 -0.048930801 0.883789 4278190080
0.42480499 -0.049804699 0.88471001 4278190080
0.20636199 -0.0556641 0.94824201 4278190080
0.20214801 -0.0515977 0.94824201 4278190080
0.17056701 -0.0380859 0.95410198 4278190080
0.194802 -0.0322266 0.92480499 4278190080
0.19043 -0.0322266 0.92873299 4278190080
0.19043 -0.040391602 0.93652302 4278190080
0.19043 -0.043945301 0.941809 4278190080
0.198906 -0.043945301 0.93652302 4278190080
0.196289 -0.042639099 0.93652302 4278190080
0.196289 -0.043945301 0.93920898 4278190080
0.40722701 -0.0500191 0.88964802 4278190080
0.40722701 -0.0556641 0.89429897 4278190080
0.413086 -0.052283999 0.88964802 4278190080
0.413086 -0.0556641 0.892232 4278190080
0.42468399 -0.0556641 0.88964802 4278190080
0.41894501 -0.0536176 0.88964802 4278190080
0.41894501 -0.0556641 0.89104801 4278190080
0.55280602 -0.0556641 0.88964802 4278190080
0.553711 -0.0552007 0.88964802 4278190080
0.55957001 -0.053971302 0.88964802 4278190080
0.19116899 -0.026367201 0.92480499 4278190080
0.19043 -0.024281099 0.92480499 4278190080
0.19043 -0.026367201 0.92536098 4278190080
0.40136701 -0.0322266 0.87162501 4278190080
0.40722701 -0.028405201 0.866211 4278190080
0.40722701 -0.0322266 0.87002099 4278190080
0.413086 -0.0302619 0.866211 4278190080
0.413086 -0.0322266 0.86833203 4278190080
0.41894501 -0.031032201 0.866211 4278190080
0.41894501 -0.0322266 0.86760098 4278190080
0.428781 -0.0322266 0.866211 4278190080
0.42480499 -0.0312673 0.866211 4278190080
0.42480499 -0.0322266 0.86749703 4278190080
0.65113699 -0.0322266 0.84277302 4278190080
0.65332001 -0.0272082 0.84277302 4278190080
0.64078599 -0.0380859 0.84863299 4278190080
0.64160198 -0.037424799 0.84863299 4278190080
0.647461 -0.0359057 0.84863299 4278190080
0.19902299 -0.049804699 0.94824201 4278190080
0.196289 -0.0472605 0.94824201 4278190080
0.196289 -0.049804699 0.95200503 4278190080
0.16874599 -0.0322266 0.95410198 4278190080
0.16699199 -0.0303923 0.95410198 4278190080
0.16699199 -0.0322266 0.95613497 4278190080
0.40136701 -0.020810001 0.86035198 4278190080
0.40722701 -0.0213145 0.86035198 4278190080
0.40722701 -0.026367201 0.86427498 4278190080
0.413086 -0.0234611 0.86035198 4278190080
0.413086 -0.026367201 0.86242998 4278190080
0.42268899 -0.026367201 0.86035198 4278190080
0.41894501 -0.0248264 0.86035198 4278190080
0.41894501 -0.026367201 0.86147302 4278190080
0.620336 -0.043945301 0.85449201 4278190080
0.62402302 -0.042795099 0.85449201 4278190080
0.62988299 -0.042157099 0.85449201 4278190080
0.63574201 -0.040842399 0.85449201 4278190080
0.40136701 -0.043945301 0.88338 4278190080
0.40722701 -0.038752802 0.87792999 4278190080
0.40722701 -0.043945301 0.88210702 4278190080
0.413086 -0.041253202 0.87792999 4278190080
0.413086 -0.043945301 0.88038403 4278190080
0.41894501 -0.042753 0.87792999 4278190080
0.41894501 -0.043945301 0.87910098 4278190080
0.426516 -0.043945301 0.87792999 4278190080
0.42480499 -0.0433979 0.87792999 4278190080
0.42480499 -0.043945301 0.87849599 4278190080
0.37792999 -0.032795899 0.87792999 4278190080
0.37792999 -0.0380859 0.88339102 4278190080
0.383789 -0.033957701 0.87792999 4278190080
0.383789 -0.0380859 0.88255602 4278190080
0.38964799 -0.035103999 0.87792999 4278190080
0.38964799 -0.0380859 0.88201302 4278190080
0.39550799 -0.036367901 0.87792999 4278190080
0.39550799 -0.0380859 0.88010299 4278190080
0.40576899 -0.0380859 0.87792999 4278190080
0.40136701 -0.036951199 0.87792999 4278190080
0.40136701 -0.0380859 0.879381 4278190080
0.17285199 -0.039133299 0.959961 4278190080
0.18082 -0.043945301 0.959961 4278190080
0.178711 -0.041846499 0.959961 4278190080
0.64971101 -0.026367201 0.836914 4278190080
0.65332001 -0.026367201 0.842197 4278190080
0.58492601 -0.049804699 0.87207001 4278190080
0.58300799 -0.049804699 0.87717497 4278190080
0.58886701 -0.048883099 0.87207001 4278190080
0.59472698 -0.048312299 0.87207001 4278190080
0.600586 -0.0474803 0.87207001 4278190080
0.60644501 -0.046474598 0.87207001 4278190080
0.61230499 -0.0448585 0.87207001 4278190080
0.169236 -0.0380859 0.959961 4278190080
0.16699199 -0.036676601 0.959961 4278190080
0.196289 -0.050773699 0.95410198 4278190080
0.20245799 -0.0556641 0.95410198 4278190080
0.20214801 -0.0553784 0.95410198 4278190080
0.20214801 -0.0556641 0.954741 4278190080
0.56542999 -0.0534149 0.883789 4278190080
0.571289 -0.0524179 0.883789 4278190080
0.57714802 -0.050899401 0.883789 4278190080
0.58300799 -0.049992301 0.883789 4278190080
0.37792999 -0.049804699 0.89519501 4278190080
0.383789 -0.044980802 0.88964802 4278190080
0.383789 -0.049804699 0.89381999 4278190080
0.38964799 -0.046756599 0.88964802 4278190080
0.38964799 -0.049804699 0.892793 4278190080
0.39550799 -0.0486844 0.88964802 4278190080
0.39550799 -0.049804699 0.89086097 4278190080
0.40497199 -0.049804699 0.88964802 4278190080
0.40136701 -0.049556602 0.88964802 4278190080
0.40136701 -0.049804699 0.88995898 4278190080
0.18817 -0.049804699 0.959961 4278190080
0.18457 -0.046333998 0.959961 4278190080
0.18457 -0.049804699 0.96536201 4278190080
0.19043 -0.043945301 0.94481802 4278190080
0.37792999 -0.050060499 0.89550799 4278190080
0.383789 -0.051157001 0.89550799 4278190080
0.38964799 -0.052079301 0.89550799 4278190080
0.38964799 -0.0556641 0.89951402 4278190080
0.39550799 -0.053549901 0.89550799 4278190080
0.39550799 -0.0556641 0.89767599 4278190080
0.40393201 -0.0556641 0.89550799 4278190080
0.40136701 -0.054745 0.89550799 4278190080
0.40136701 -0.0556641 0.89634597 4278190080
0.55163997 -0.0556641 0.89550799 4278190080
0.54785198 -0.0556641 0.90007597 4278190080
0.553711 -0.054648198 0.89550799 4278190080
0.55957001 -0.053789001 0.89550799 4278190080
0.37792999 -0.0322266 0.87739301 4278190080
0.383789 -0.0264879 0.87207001 4278190080
0.383789 -0.0322266 0.876109 4278190080
0.38964799 -0.029528899 0.87207001 4278190080
0.38964799 -0.0322266 0.87434298 4278190080
0.39907899 -0.0322266 0.87207001 4278190080
0.39550799 -0.0314354 0.87207001 4278190080
0.39550799 -0.0322266 0.87281603 4278190080
0.65173399 -0.0322266 0.84863299 4278190080
0.65332001 -0.030284001 0.84863299 4278190080
0.194823 -0.049804699 0.95410198 4278190080
0.19043 -0.046500299 0.95410198 4278190080
0.19043 -0.049804699 0.95766097 4278190080
0.64057201 -0.0380859 0.85449201 4278190080
0.64160198 -0.0374832 0.85449201 4278190080
0.647461 -0.0355446 0.85449201 4278190080
0.61821097 -0.043945301 0.86035198 4278190080
0.62402302 -0.0430055 0.86035198 4278190080
0.62988299 -0.041896299 0.86035198 4278190080
0.63574201 -0.0403657 0.86035198 4278190080
0.37792999 -0.0213583 0.866211 4278190080
0.383789 -0.022383699 0.866211 4278190080
0.383789 -0.026367201 0.87197202 4278190080
0.38964799 -0.023334101 0.866211 4278190080
0.38964799 -0.026367201 0.86966503 4278190080
0.39550799 -0.0247372 0.866211 4278190080
0.39550799 -0.026367201 0.86789697 4278190080
0.40234101 -0.026367201 0.866211 4278190080
0.40136701 -0.0259928 0.866211 4278190080
0.40136701 -0.026367201 0.86655003 4278190080
0.18457 -0.0501922 0.96582001 4278190080
0.37792999 -0.0384048 0.883789 4278190080
0.383789 -0.0391475 0.883789 4278190080
0.383789 -0.043945301 0.88878697 4278190080
0.38964799 -0.0399996 0.883789 4278190080
0.38964799 -0.043945301 0.88686901 4278190080
0.39980799 -0.043945301 0.883789 4278190080
0.39550799 -0.042385899 0.883789 4278190080
0.39550799 -0.043945301 0.88501602 4278190080
0.17285199 -0.0394185 0.96582001 4278190080
0.180595 -0.043945301 0.96582001 4278190080
0.178711 -0.041982401 0.96582001 4278190080
0.178711 -0.043945301 0.96879399 4278190080
0.654028 -0.026367201 0.84277302 4278190080
0.58277202 -0.049804699 0.87792999 4278190080
0.58300799 -0.0497352 0.87792999 4278190080
0.58300799 -0.049804699 0.88025802 4278190080
0.58886701 -0.049224101 0.87792999 4278190080
0.59472698 -0.048351601 0.87792999 4278190080
0.600586 -0.0473787 0.87792999 4278190080
0.60644501 -0.045914099 0.87792999 4278190080
0.61230499 -0.044393402 0.87792999 4278190080
0.618164 -0.044116002 0.87792999 4278190080
0.170258 -0.0380859 0.96582001 4278190080
0.56542999 -0.053146102 0.88964802 4278190080
0.571289 -0.052431501 0.88964802 4278190080
0.57714802 -0.051318299 0.88964802 4278190080
0.191965 -0.043945301 0.94824201 4278190080
0.19043 -0.043028001 0.94824201 4278190080
0.19043 -0.043945301 0.94978797 4278190080
0.19043 -0.051959001 0.959961 4278190080
0.197809 -0.0556641 0.959961 4278190080
0.196289 -0.0545245 0.959961 4278190080
0.196289 -0.0556641 0.96159899 4278190080
0.184158 -0.049804699 0.96582001 4278190080
0.178711 -0.049804699 0.971407 4278190080
0.37792999 -0.054354101 0.90136701 4278190080
0.37792999 -0.0556641 0.90304297 4278190080
0.38515899 -0.0556641 0.90136701 4278190080
0.383789 -0.055249799 0.90136701 4278190080
0.383789 -0.0556641 0.901896 4278190080
0.54506397 -0.0556641 0.90136701 4278190080
0.54785198 -0.055051301 0.90136701 4278190080
0.553711 -0.054311499 0.90136701 4278190080
0.55957001 -0.053113099 0.90136701 4278190080
0.64069599 -0.0380859 0.86035198 4278190080
0.64160198 -0.037649501 0.86035198 4278190080
0.647461 -0.0348363 0.86035198 4278190080
0.178711 -0.050068099 0.97167999 4278190080
0.187158 -0.0556641 0.97167999 4278190080
0.18457 -0.0534705 0.97167999 4278190080
0.6196 -0.043945301 0.866211 4278190080
0.618164 -0.043945301 0.87120599 4278190080
0.62402302 -0.043137301 0.866211 4278190080
0.62988299 -0.041490301 0.866211 4278190080
0.63574201 -0.039563902 0.866211 4278190080
0.38323101 -0.026367201 0.87207001 4278190080
0.37792999 -0.025683001 0.87207001 4278190080
0.37792999 -0.026367201 0.87295002 4278190080
0.380337 -0.043945301 0.88964802 4278190080
0.37792999 -0.043319199 0.88964802 4278190080
0.37792999 -0.043945301 0.89029598 4278190080
0.58395499 -0.049804699 0.883789 4278190080
0.58300799 -0.049804699 0.88570398 4278190080
0.58886701 -0.048859 0.883789 4278190080
0.59472698 -0.047569301 0.883789 4278190080
0.600586 -0.0462141 0.883789 4278190080
0.60644501 -0.0452701 0.883789 4278190080
0.176139 -0.043945301 0.97167999 4278190080
0.17285199 -0.043945301 0.97494602 4278190080
0.56542999 -0.053104602 0.89550799 4278190080
0.571289 -0.0513345 0.89550799 4278190080
0.57714802 -0.050168201 0.89550799 4278190080
0.192286 -0.0556641 0.96582001 4278190080
0.19043 -0.054650199 0.96582001 4278190080
0.19043 -0.0556641 0.96780002 4278190080
0.178491 -0.049804699 0.97167999 4278190080
0.178711 -0.049804699 0.97265297 4278190080
0.54407901 -0.0556641 0.90722698 4278190080
0.54785198 -0.054885302 0.90722698 4278190080
0.54785198 -0.0556641 0.909899 4278190080
0.652812 -0.0322266 0.86035198 4278190080
0.65332001 -0.031861398 0.86035198 4278190080
0.65332001 -0.0322266 0.86101699 4278190080
0.638659 -0.0380859 0.866211 4278190080
0.64160198 -0.036641099 0.866211 4278190080
0.64160198 -0.0380859 0.87018597 4278190080
0.647461 -0.0356488 0.866211 4278190080
0.186932 -0.0556641 0.977539 4278190080
0.61782497 -0.043945301 0.87207001 4278190080
0.618164 -0.043892499 0.87207001 4278190080
0.618164 -0.043945301 0.87391102 4278190080
0.62402302 -0.0418415 0.87207001 4278190080
0.62988299 -0.040171001 0.87207001 4278190080
0.63574201 -0.039315902 0.87207001 4278190080
0.64160198 -0.039292701 0.87207001 4278190080
0.581671 -0.049804699 0.88964802 4278190080
0.58300799 -0.049266499 0.88964802 4278190080
0.58886701 -0.047019999 0.88964802 4278190080
0.59472698 -0.046983801 0.88964802 4278190080
0.17285199 -0.0458255 0.977539 4278190080
0.178711 -0.047904801 0.977539 4278190080
0.178711 -0.049804699 0.98015302 4278190080
0.58229601 -0.049804699 0.89550799 4278190080
0.58300799 -0.049736399 0.89550799 4278190080
0.58300799 -0.049804699 0.89560699 4278190080
0.61891401 -0.043945301 0.87792999 4278190080
0.62402302 -0.0421784 0.87792999 4278190080
0.62402302 -0.043945301 0.88072401 4278190080
0.55957001 -0.020507799 0.81914097 4278190080
0.54199201 0.0143402 0.790039 4278190080
0.54199201 0.0087890597 0.79475403 4278190080
0.54785198 0.0135764 0.790039 4278190080
0.54785198 0.0087890597 0.79379302 4278190080
0.553711 0.0111319 0.790039 4278190080
0.553711 0.0087890597 0.792036 4278190080
0.56107599 0.0087890597 0.790039 4278190080
0.55957001 0.00911796 0.790039 4278190080
0.55957001 0.0087890597 0.79034698 4278190080
0.54199201 0.0075658602 0.79589802 4278190080
0.54199201 0.0029296901 0.80100501 4278190080
0.54785198 0.0066858502 0.79589802 4278190080
0.54785198 0.0029296901 0.79979599 4278190080
0.553711 0.0057637701 0.79589802 4278190080
0.553711 0.0029296901 0.799519 4278190080
0.55957001 0.0045092101 0.79589802 4278190080
0.55957001 0.0029296901 0.79798901 4278190080
0.54199201 -0.00887156 0.81347698 4278190080
0.54785198 -0.0110459 0.81347698 4278190080
0.54785198 -0.0146484 0.81824303 4278190080
0.553711 -0.0125684 0.81347698 4278190080
0.553711 -0.0146484 0.81605601 4278190080
0.56355202 -0.0146484 0.81347698 4278190080
0.55957001 -0.0131903 0.81347698 4278190080
0.55957001 -0.0146484 0.81481701 4278190080
0.54785198 -0.016036199 0.819336 4278190080
0.54785198 -0.020507799 0.82323301 4278190080
0.55863899 -0.020507799 0.819336 4278190080
0.553711 -0.0189023 0.819336 4278190080
0.553711 -0.020507799 0.82065201 4278190080
0.54199201 0.0022617599 0.80175799 4278190080
0.54199201 -0.0029296901 0.80737001 4278190080
0.54785198 0.000859141 0.80175799 4278190080
0.54785198 -0.0029296901 0.80539203 4278190080
0.553711 0.00053620298 0.80175799 4278190080
0.553711 -0.0029296901 0.80431998 4278190080
0.56200999 -0.0029296901 0.80175799 4278190080
0.55957001 -0.0019987801 0.80175799 4278190080
0.55957001 -0.0029296901 0.80244797 4278190080
0.53027302 0.0124522 0.79589802 4278190080
0.53027302 0.0087890597 0.80045903 4278190080
0.53808498 0.0087890597 0.79589802 4278190080
0.53613299 0.0096381903 0.79589802 4278190080
0.53613299 0.0087890597 0.79671299 4278190080
0.54199201 -0.0032403499 0.80761701 4278190080
0.54199201 -0.0087890597 0.81336302 4278190080
0.54785198 -0.0058585401 0.80761701 4278190080
0.54785198 -0.0087890597 0.81040001 4278190080
0.553711 -0.0071556601 0.80761701 4278190080
0.553711 -0.0087890597 0.80910498 4278190080
0.56433302 -0.0087890597 0.80761701 4278190080
0.55957001 -0.00756669 0.80761701 4278190080
0.55957001 -0.0087890597 0.80891401 4278190080
0.53027302 -0.0146484 0.82471299 4278190080
0.53613299 -0.0102179 0.819336 4278190080
0.53613299 -0.0146484 0.82298499 4278190080
0.54572701 -0.0146484 0.819336 4278190080
0.54199201 -0.0130782 0.819336 4278190080
0.54199201 -0.0146484 0.82102001 4278190080
0.53027302 0.0077543301 0.80175799 4278190080
0.53027302 0.0029296901 0.807522 4278190080
0.53990799 0.0029296901 0.80175799 4278190080
0.53613299 0.0043747402 0.80175799 4278190080
0.53613299 0.0029296901 0.80351698 4278190080
0.34277299 -0.0149733 0.866211 4278190080
0.34863299 -0.015848 0.866211 4278190080
0.35449201 -0.016231701 0.866211 4278190080
0.35449201 -0.020507799 0.87201101 4278190080
0.36035201 -0.016477801 0.866211 4278190080
0.36035201 -0.020507799 0.87027502 4278190080
0.366211 -0.0168768 0.866211 4278190080
0.366211 -0.020507799 0.86886299 4278190080
0.37451899 -0.020507799 0.866211 4278190080
0.37207001 -0.019582599 0.866211 4278190080
0.37207001 -0.020507799 0.86694902 4278190080
0.524414 -0.020507799 0.829454 4278190080
0.53027302 -0.015923301 0.82519501 4278190080
0.53027302 -0.020507799 0.82710499 4278190080
0.53613299 -0.0191232 0.82519501 4278190080
0.53613299 -0.020507799 0.82594198 4278190080
0.54415101 -0.020507799 0.82519501 4278190080
0.54199201 -0.0194625 0.82519501 4278190080
0.54199201 -0.020507799 0.82592499 4278190080
0.53027302 0.0028569701 0.80761701 4278190080
0.54154003 -0.0029296901 0.80761701 4278190080
0.53613299 -4.78029e-05 0.80761701 4278190080
0.53613299 -0.0029296901 0.81100702 4278190080
0.37207001 -0.00895047 0.85449201 4278190080
0.37207001 -0.0087890597 0.85431302 4278190080
0.49511701 0.0131569 0.80175799 4278190080
0.49511701 0.0087890597 0.80692297 4278190080
0.50097698 0.0122654 0.80175799 4278190080
0.50097698 0.0087890597 0.806054 4278190080
0.506836 0.0123472 0.80175799 4278190080
0.506836 0.0087890597 0.80643702 4278190080
0.51269501 0.0116975 0.80175799 4278190080
0.51269501 0.0087890597 0.80607897 4278190080
0.51855499 0.0111285 0.80175799 4278190080
0.51855499 0.0087890597 0.80494398 4278190080
0.52809 0.0087890597 0.80175799 4278190080
0.524414 0.0104133 0.80175799 4278190080
0.524414 0.0087890597 0.80341297 4278190080
0.51269501 -0.0094929896 0.82519501 4278190080
0.51269501 -0.0146484 0.82973802 4278190080
0.51855499 -0.0111498 0.82519501 4278190080
0.51855499 -0.0146484 0.82840502 4278190080
0.52893001 -0.0146484 0.82519501 4278190080
0.524414 -0.0128213 0.82519501 4278190080
0.524414 -0.0146484 0.82684797 4278190080
0.49511701 0.00807977 0.80761701 4278190080
0.49511701 0.0029296901 0.81256503 4278190080
0.50097698 0.0069512101 0.80761701 4278190080
0.50097698 0.0029296901 0.81082499 4278190080
0.506836 0.0074086199 0.80761701 4278190080
0.506836 0.0029296901 0.810929 4278190080
0.51269501 0.0072474498 0.80761701 4278190080
0.51269501 0.0029296901 0.81157202 4278190080
0.51855499 0.0061051799 0.80761701 4278190080
0.51855499 0.0029296901 0.81063199 4278190080
0.53006601 0.0029296901 0.80761701 4278190080
0.524414 0.0048553902 0.80761701 4278190080
0.524414 0.0029296901 0.80966502 4278190080
0.541848 -0.0087890597 0.81347698 4278190080
0.53613299 -0.0051760701 0.81347698 4278190080
0.53613299 -0.0087890597 0.81762302 4278190080
0.36035201 -0.0029296901 0.85419703 4278190080
0.366211 -0.0029296901 0.851632 4278190080
0.37590101 -0.0029296901 0.84863299 4278190080
0.37207001 7.3432901e-05 0.84863299 4278190080
0.37207001 -0.0029296901 0.84966898 4278190080
0.32519501 -0.0163405 0.87207001 4278190080
0.32519501 -0.020507799 0.87696302 4278190080
0.33105499 -0.0172629 0.87207001 4278190080
0.33105499 -0.020507799 0.87785298 4278190080
0.336914 -0.0178026 0.87207001 4278190080
0.336914 -0.020507799 0.87725002 4278190080
0.34277299 -0.018673699 0.87207001 4278190080
0.34277299 -0.020507799 0.87476099 4278190080
0.35424399 -0.020507799 0.87207001 4278190080
0.34863299 -0.019701401 0.87207001 4278190080
0.34863299 -0.020507799 0.87335902 4278190080
0.506836 -0.020507799 0.83542502 4278190080
0.51269501 -0.0168432 0.83105499 4278190080
0.51269501 -0.020507799 0.83314103 4278190080
0.51956701 -0.020507799 0.83105499 4278190080
0.51855499 -0.0198565 0.83105499 4278190080
0.51855499 -0.020507799 0.83135998 4278190080
0.49511701 0.0020055801 0.81347698 4278190080
0.50097698 5.1259999e-06 0.81347698 4278190080
0.50097698 -0.0029296901 0.81682903 4278190080
0.506836 -0.00014233599 0.81347698 4278190080
0.506836 -0.0029296901 0.81660497 4278190080
0.51269501 0.00107718 0.81347698 4278190080
0.51269501 -0.0029296901 0.818012 4278190080
0.51855499 0.00015449501 0.81347698 4278190080
0.51855499 -0.0029296901 0.81703299 4278190080
0.524414 -0.00106442 0.81347698 4278190080
0.524414 -0.0029296901 0.815337 4278190080
0.530882 -0.0029296901 0.81347698 4278190080
0.53027302 -0.0026708799 0.81347698 4278190080
0.53027302 -0.0029296901 0.81372398 4278190080
0.36035201 0.0087890597 0.84702897 4278190080
0.366211 0.0087890597 0.84508401 4278190080
0.37266001 0.0087890597 0.84277302 4278190080
0.37207001 0.0090819597 0.84277302 4278190080
0.37207001 0.0087890597 0.84292901 4278190080
0.34863299 -0.0087890597 0.859828 4278190080
0.35449201 -0.0087890597 0.85846102 4278190080
0.36035201 -0.0035983301 0.85449201 4278190080
0.36035201 -0.0087890597 0.85729098 4278190080
0.37121701 -0.0087890597 0.85449201 4278190080
0.366211 -0.00728893 0.85449201 4278190080
0.366211 -0.0087890597 0.85561502 4278190080
0.34277299 -0.0146484 0.86575502 4278190080
0.34863299 -0.00949228 0.86035198 4278190080
0.34863299 -0.0146484 0.86454201 4278190080
0.35449201 -0.0110831 0.86035198 4278190080
0.35449201 -0.0146484 0.863985 4278190080
0.36035201 -0.0120316 0.86035198 4278190080
0.36035201 -0.0146484 0.86386901 4278190080
0.366211 -0.0123816 0.86035198 4278190080
0.366211 -0.0146484 0.86421698 4278190080
0.37207001 -0.0132694 0.86035198 4278190080
0.37207001 -0.0146484 0.862252 4278190080
0.37207001 0.0029296901 0.84759402 4278190080
0.47167999 0.0137188 0.80761701 4278190080
0.47167999 0.0087890597 0.81279999 4278190080
0.477539 0.0117744 0.80761701 4278190080
0.477539 0.0087890597 0.810718 4278190080
0.48339799 0.0106359 0.80761701 4278190080
0.48339799 0.0087890597 0.809461 4278190080
0.49187201 0.0087890597 0.80761701 4278190080
0.48925799 0.0093398103 0.80761701 4278190080
0.48925799 0.0087890597 0.80828798 4278190080
0.47167999 0.0083632497 0.81347698 4278190080
0.477539 0.0072337398 0.81347698 4278190080
0.48339799 0.0063959402 0.81347698 4278190080
0.49366701 0.0029296901 0.81347698 4278190080
0.48925799 0.0052431799 0.81347698 4278190080
0.48925799 0.0029296901 0.81672001 4278190080
0.50097698 -0.0041427598 0.819336 4278190080
0.506836 -0.0045830002 0.819336 4278190080
0.51269501 -0.0041867499 0.819336 4278190080
0.51269501 -0.0087890597 0.82456499 4278190080
0.51855499 -0.0052527199 0.819336 4278190080
0.51855499 -0.0087890597 0.822869 4278190080
0.524414 -0.0068744398 0.819336 4278190080
0.524414 -0.0087890597 0.82125199 4278190080
0.53198898 -0.0087890597 0.819336 4278190080
0.53027302 -0.0082347402 0.819336 4278190080
0.53027302 -0.0087890597 0.81992799 4278190080
0.48925799 -0.0093461303 0.83105499 4278190080
0.48925799 -0.0146484 0.83619201 4278190080
0.49511701 -0.0111287 0.83105499 4278190080
0.49511701 -0.0146484 0.83455497 4278190080
0.50097698 -0.0126197 0.83105499 4278190080
0.50097698 -0.0146484 0.833 4278190080
0.50804597 -0.0146484 0.83105499 4278190080
0.506836 -0.0142857 0.83105499 4278190080
0.506836 -0.0146484 0.83140498 4278190080
0.29589799 -0.020507799 0.883425 4278190080
0.30175799 -0.020507799 0.88196301 4278190080
0.30761701 -0.016790301 0.87792999 4278190080
0.30761701 -0.020507799 0.88031101 4278190080
0.31347701 -0.019529 0.87792999 4278190080
0.31347701 -0.020507799 0.87876898 4278190080
0.320133 -0.020507799 0.87792999 4278190080
0.319336 -0.020377001 0.87792999 4278190080
0.319336 -0.020507799 0.87808102 4278190080
0.34863299 -0.0029296901 0.858962 4278190080
0.35965601 -0.0029296901 0.85449201 4278190080
0.35449201 0.00087499601 0.85449201 4278190080
0.35449201 -0.0029296901 0.85685599 4278190080
0.47167999 -0.020507799 0.84225398 4278190080
0.477539 -0.020507799 0.84245002 4278190080
0.48339799 -0.020507799 0.84264803 4278190080
0.48925799 -0.0154312 0.836914 4278190080
0.48925799 -0.020507799 0.841429 4278190080
0.49511701 -0.0174539 0.836914 4278190080
0.49511701 -0.020507799 0.83932 4278190080
0.50288099 -0.020507799 0.836914 4278190080
0.50097698 -0.019576401 0.836914 4278190080
0.50097698 -0.020507799 0.83754301 4278190080
0.48925799 0.00077605201 0.819336 4278190080
0.48925799 -0.0029296901 0.82346898 4278190080
0.49569201 -0.0029296901 0.819336 4278190080
0.49511701 -0.0026984201 0.819336 4278190080
0.49511701 -0.0029296901 0.81964201 4278190080
0.34277299 0.0087890597 0.853688 4278190080
0.34863299 0.0087890597 0.85131198 4278190080
0.355896 0.0087890597 0.84863299 4278190080
0.35449201 0.0087890597 0.84913802 4278190080
0.336914 -0.0087890597 0.86414599 4278190080
0.34711701 -0.0087890597 0.86035198 4278190080
0.34277299 -0.0087890597 0.86181599 4278190080
0.32519501 -0.0146484 0.87038702 4278190080
0.33105499 -0.0146484 0.86890101 4278190080
0.34077001 -0.0146484 0.866211 4278190080
0.336914 -0.0130842 0.866211 4278190080
0.336914 -0.0146484 0.86706901 4278190080
0.35449201 0.0029296901 0.85296398 4278190080
0.36035201 0.0065072798 0.84863299 4278190080
0.36035201 0.0029296901 0.85123199 4278190080
0.36882401 0.0029296901 0.84863299 4278190080
0.366211 0.0040776702 0.84863299 4278190080
0.366211 0.0029296901 0.84945297 4278190080
0.61230499 -0.020507799 0.80738598 4278190080
0.44824201 0.0087890597 0.81807798 4278190080
0.45410201 0.0139265 0.81347698 4278190080
0.45410201 0.0087890597 0.81671798 4278190080
0.459961 0.012554 0.81347698 4278190080
0.459961 0.0087890597 0.81628603 4278190080
0.470723 0.0087890597 0.81347698 4278190080
0.46582001 0.0115619 0.81347698 4278190080
0.46582001 0.0087890597 0.81631202 4278190080
0.44824201 -0.0098106898 0.836914 4278190080
0.45410201 -0.0110166 0.836914 4278190080
0.45410201 -0.0146484 0.84188002 4278190080
0.459961 -0.0122761 0.836914 4278190080
0.459961 -0.0146484 0.840087 4278190080
0.46582001 -0.0133197 0.836914 4278190080
0.46582001 -0.0146484 0.83837998 4278190080
0.47167999 -0.0143238 0.836914 4278190080
0.47167999 -0.0146484 0.83721298 4278190080
0.477539 -0.0130861 0.836914 4278190080
0.477539 -0.0146484 0.83803803 4278190080
0.485715 -0.0146484 0.836914 4278190080
0.48339799 -0.0141931 0.836914 4278190080
0.48339799 -0.0146484 0.83736098 4278190080
0.44824201 0.0074288798 0.819336 4278190080
0.44824201 0.0029296901 0.82398701 4278190080
0.45410201 0.0061997198 0.819336 4278190080
0.45410201 0.0029296901 0.82278699 4278190080
0.459961 0.00543606 0.819336 4278190080
0.459961 0.0029296901 0.82218802 4278190080
0.46582001 0.00632858 0.819336 4278190080
0.46582001 0.0029296901 0.82281101 4278190080
0.47167999 0.0052094501 0.819336 4278190080
0.47167999 0.0029296901 0.82249701 4278190080
0.477539 0.0043265801 0.819336 4278190080
0.477539 0.0029296901 0.82134598 4278190080
0.48421201 0.0029296901 0.819336 4278190080
0.48339799 0.00318038 0.819336 4278190080
0.48339799 0.0029296901 0.819691 4278190080
0.48925799 -0.0043220501 0.82519501 4278190080
0.48925799 -0.0087890597 0.830486 4278190080
0.49511701 -0.0060467701 0.82519501 4278190080
0.49511701 -0.0087890597 0.828749 4278190080
0.50097698 -0.00734019 0.82519501 4278190080
0.50097698 -0.0087890597 0.82731199 4278190080
0.51025701 -0.0087890597 0.82519501 4278190080
0.506836 -0.0081203002 0.82519501 4278190080
0.506836 -0.0087890597 0.82603598 4278190080
0.27832001 -0.020507799 0.88902497 4278190080
0.28417999 -0.020507799 0.88694298 4278190080
0.294698 -0.020507799 0.883789 4278190080
0.290039 -0.020507799 0.88525599 4278190080
0.33105499 0.0027934299 0.86035198 4278190080
0.33105499 -0.0029296901 0.86469299 4278190080
0.336914 0.00024127999 0.86035198 4278190080
0.336914 -0.0029296901 0.86275101 4278190080
0.34486699 -0.0029296901 0.86035198 4278190080
0.34277299 -0.00189841 0.86035198 4278190080
0.34277299 -0.0029296901 0.86113101 4278190080
0.44824201 0.00192869 0.82519501 4278190080
0.44824201 -0.0029296901 0.83070898 4278190080
0.45410201 0.00056386 0.82519501 4278190080
0.45410201 -0.0029296901 0.82886797 4278190080
0.459961 -0.00053560699 0.82519501 4278190080
0.459961 -0.0029296901 0.82716501 4278190080
0.46582001 -0.00100195 0.82519501 4278190080
0.46582001 -0.0029296901 0.82652003 4278190080
0.47167999 2.20537e-05 0.82519501 4278190080
0.47167999 -0.0029296901 0.82755297 4278190080
0.477539 -0.00102878 0.82519501 4278190080
0.477539 -0.0029296901 0.827012 4278190080
0.484712 -0.0029296901 0.82519501 4278190080
0.48339799 -0.0024799099 0.82519501 4278190080
0.48339799 -0.0029296901 0.82562399 4278190080
0.44824201 -0.020507799 0.84815902 4278190080
0.45410201 -0.0154769 0.84277302 4278190080
0.45410201 -0.020507799 0.84699702 4278190080
0.459961 -0.0175914 0.84277302 4278190080
0.459961 -0.020507799 0.84532702 4278190080
0.469062 -0.020507799 0.84277302 4278190080
0.46582001 -0.019703601 0.84277302 4278190080
0.46582001 -0.020507799 0.84352201 4278190080
0.33105499 0.0087890597 0.85919601 4278190080
0.34072599 0.0087890597 0.85449201 4278190080
0.336914 0.0087890597 0.856291 4278190080
0.34277299 0.0099031897 0.85449201 4278190080
0.30761701 -0.0146484 0.87668699 4278190080
0.31347701 -0.0146484 0.87449503 4278190080
0.32043099 -0.0146484 0.87207001 4278190080
0.319336 -0.0124222 0.87207001 4278190080
0.319336 -0.0146484 0.872446 4278190080
0.319336 -0.0087890597 0.87146401 4278190080
0.32519501 -0.0087890597 0.86909199 4278190080
0.33165899 -0.0087890597 0.866211 4278190080
0.33105499 -0.0079079904 0.866211 4278190080
0.33105499 -0.0087890597 0.86645401 4278190080
0.33105499 0.0029296901 0.86025 4278190080
0.336914 0.0029296901 0.85826403 4278190080
0.34277299 0.00665033 0.85449201 4278190080
0.34277299 0.0029296901 0.85634202 4278190080
0.349482 0.0029296901 0.85449201 4278190080
0.34863299 0.0033345199 0.85449201 4278190080
0.34863299 0.0029296901 0.85474497 4278190080
0.58886701 -0.00904202 0.80175799 4278190080
0.58886701 -0.0146484 0.806306 4278190080
0.59472698 -0.0109292 0.80175799 4278190080
0.59472698 -0.0146484 0.80478001 4278190080
0.600586 -0.0122484 0.80175799 4278190080
0.600586 -0.0146484 0.803877 4278190080
0.60644501 -0.0144231 0.80175799 4278190080
0.60644501 -0.0146484 0.80197698 4278190080
0.61230499 -0.0138239 0.80175799 4278190080
0.61230499 -0.0146484 0.80244499 4278190080
0.618164 -0.0101399 0.80175799 4278190080
0.618164 -0.0146484 0.805498 4278190080
0.430664 0.0087890597 0.82379103 4278190080
0.43652299 0.0087890597 0.822061 4278190080
0.44482699 0.0087890597 0.819336 4278190080
0.44238299 0.0107622 0.819336 4278190080
0.44238299 0.0087890597 0.82028198 4278190080
0.42480499 -0.0090901898 0.84277302 4278190080
0.42480499 -0.0146484 0.84826201 4278190080
0.430664 -0.0109942 0.84277302 4278190080
0.430664 -0.0146484 0.846448 4278190080
0.43652299 -0.0122333 0.84277302 4278190080
0.43652299 -0.0146484 0.84545302 4278190080
0.44238299 -0.0136008 0.84277302 4278190080
0.44238299 -0.0146484 0.84416097 4278190080
0.44915301 -0.0146484 0.84277302 4278190080
0.44824201 -0.0145303 0.84277302 4278190080
0.44824201 -0.0146484 0.84292799 4278190080
0.42480499 0.0029296901 0.830576 4278190080
0.430664 0.00683808 0.82519501 4278190080
0.430664 0.0029296901 0.828578 4278190080
0.43652299 0.0048191501 0.82519501 4278190080
0.43652299 0.0029296901 0.82701403 4278190080
0.44487399 0.0029296901 0.82519501 4278190080
0.44238299 0.00378621 0.82519501 4278190080
0.44238299 0.0029296901 0.82596397 4278190080
0.58886701 -0.0158806 0.80761701 4278190080
0.58886701 -0.020507799 0.81307697 4278190080
0.59472698 -0.0171961 0.80761701 4278190080
0.59472698 -0.020507799 0.81185102 4278190080
0.600586 -0.017811701 0.80761701 4278190080
0.600586 -0.020507799 0.81065202 4278190080
0.61135602 -0.020507799 0.80761701 4278190080
0.60644501 -0.0190998 0.80761701 4278190080
0.60644501 -0.020507799 0.80916899 4278190080
0.61311799 -0.020507799 0.80761701 4278190080
0.618164 -0.018224601 0.80761701 4278190080
0.618164 -0.020507799 0.80889499 4278190080
0.62402302 -0.020507799 0.81161898 4278190080
0.189696 -0.020507799 0.92480499 4278190080
0.30761701 -0.0029296901 0.87130702 4278190080
0.31347701 -0.0029296901 0.86962497 4278190080
0.319336 0.000161648 0.866211 4278190080
0.319336 -0.0029296901 0.86822301 4278190080
0.326148 -0.0029296901 0.866211 4278190080
0.32519501 -0.0025267601 0.866211 4278190080
0.32519501 -0.0029296901 0.86651403 4278190080
0.44824201 -0.00333834 0.83105499 4278190080
0.44824201 -0.0087890597 0.83574802 4278190080
0.45410201 -0.0054180599 0.83105499 4278190080
0.45410201 -0.0087890597 0.83420199 4278190080
0.459961 -0.0071873702 0.83105499 4278190080
0.459961 -0.0087890597 0.83261698 4278190080
0.46582001 -0.0082259197 0.83105499 4278190080
0.46582001 -0.0087890597 0.831608 4278190080
0.47167999 -0.0071477899 0.83105499 4278190080
0.47167999 -0.0087890597 0.83245999 4278190080
0.477539 -0.0069339299 0.83105499 4278190080
0.477539 -0.0087890597 0.83307999 4278190080
0.48707601 -0.0087890597 0.83105499 4278190080
0.48339799 -0.0079872599 0.83105499 4278190080
0.48339799 -0.0087890597 0.83187401 4278190080
0.26660201 -0.020507799 0.89395398 4278190080
0.276871 -0.020507799 0.88964802 4278190080
0.272461 -0.020507799 0.89162099 4278190080
0.42480499 -0.014941 0.84863299 4278190080
0.430664 -0.016446101 0.84863299 4278190080
0.430664 -0.020507799 0.85310298 4278190080
0.43652299 -0.0174092 0.84863299 4278190080
0.43652299 -0.020507799 0.85184097 4278190080
0.44654301 -0.020507799 0.84863299 4278190080
0.44238299 -0.019063899 0.84863299 4278190080
0.44238299 -0.020507799 0.84986299 4278190080
0.42480499 0.00248313 0.83105499 4278190080
0.430664 0.00080990797 0.83105499 4278190080
0.430664 -0.0029296901 0.83606797 4278190080
0.43652299 -0.000325203 0.83105499 4278190080
0.43652299 -0.0029296901 0.83444297 4278190080
