# .PCD v0.7 - Point Cloud Data file format
VERSION 0.7
FIELDS x y z rgb
SIZE 4 4 4 4
TYPE F F F U
COUNT 1 1 1 1
WIDTH 1135
HEIGHT 1
VIEWPOINT 0 0 0 1 0 0 0
POINTS 1135
DATA ascii
0.46626699 0.0791016 0.94238299 4278190080
0.47167999 0.081062697 0.94238299 4278190080
0.477539 0.082295202 0.94238299 4278190080
0.48339799 0.084942602 0.94238299 4278190080
0.29589799 0.060206499 0.99511701 4278190080
0.301992 0.0556641 0.99511701 4278190080
0.30175799 0.055801298 0.99511701 4278190080
0.43392599 0.067382798 0.96582001 4278190080
0.43652299 0.0684589 0.96582001 4278190080
0.44238299 0.069759697 0.96582001 4278190080
0.44824201 0.070927598 0.96582001 4278190080
0.28108099 0.067382798 0.977539 4278190080
0.27832001 0.069101699 0.977539 4278190080
0.26143 0.0791016 0.95410198 4278190080
0.26074201 0.080625199 0.95410198 4278190080
0.270643 0.073242202 0.97167999 4278190080
0.26660201 0.076798998 0.97167999 4278190080
0.272461 0.073242202 0.97620702 4278190080
0.40720201 0.0556641 0.99511701 4278190080
0.40722701 0.055676099 0.99511701 4278190080
0.40722701 0.0556641 0.99520302 4278190080
0.413086 0.057891101 0.99511701 4278190080
0.41894501 0.0605403 0.99511701 4278190080
0.311638 0.049804699 1.00684 4278190080
0.30761701 0.052928898 1.00684 4278190080
0.38754201 0.049804699 1.00684 4278190080
0.38964799 0.051140498 1.00684 4278190080
0.39550799 0.052117798 1.00684 4278190080
0.40136701 0.0531049 1.00684 4278190080
0.452353 0.073242202 0.959961 4278190080
0.45410201 0.074172601 0.959961 4278190080
0.459961 0.076115496 0.959961 4278190080
0.468622 0.0791016 0.94824201 4278190080
0.47167999 0.080474101 0.94824201 4278190080
0.477539 0.0821345 0.94824201 4278190080
0.418109 0.0615234 0.98339802 4278190080
0.41894501 0.062187102 0.98339802 4278190080
0.41894501 0.0615234 0.985825 4278190080
0.42480499 0.064542197 0.98339802 4278190080
0.430664 0.065696001 0.98339802 4278190080
0.29335299 0.0615234 0.98925799 4278190080
0.290039 0.063965 0.98925799 4278190080
0.28332201 0.067382798 0.98339802 4278190080
0.27832001 0.071135603 0.98339802 4278190080
0.28417999 0.067382798 0.98476499 4278190080
0.436012 0.067382798 0.97167999 4278190080
0.43652299 0.067617401 0.97167999 4278190080
0.43652299 0.067382798 0.97295302 4278190080
0.44238299 0.0693506 0.97167999 4278190080
0.44824201 0.071483001 0.97167999 4278190080
0.30388501 0.0556641 1.00098 4278190080
0.30175799 0.057073601 1.00098 4278190080
0.26277599 0.0791016 0.959961 4278190080
0.26074201 0.082449801 0.959961 4278190080
0.26660201 0.078794703 0.977539 4278190080
0.27295899 0.073242202 0.977539 4278190080
0.272461 0.0737257 0.977539 4278190080
0.312783 0.049804699 1.0127 4278190080
0.30761701 0.0551649 1.0127 4278190080
0.31347701 0.049804699 1.01385 4278190080
0.40838999 0.0556641 1.00098 4278190080
0.40722701 0.0556641 1.00466 4278190080
0.413086 0.057968099 1.00098 4278190080
0.38912201 0.049804699 1.0127 4278190080
0.38964799 0.050219201 1.0127 4278190080
0.39550799 0.051950101 1.0127 4278190080
0.45232099 0.073242202 0.96582001 4278190080
0.45410201 0.074398302 0.96582001 4278190080
0.468256 0.0791016 0.95410198 4278190080
0.46582001 0.0791016 0.956994 4278190080
0.47167999 0.081025504 0.95410198 4278190080
0.29449099 0.0615234 0.99511701 4278190080
0.290039 0.0660448 0.99511701 4278190080
0.29589799 0.0615234 0.99865001 4278190080
0.42012101 0.0615234 0.98925799 4278190080
0.42480499 0.064108603 0.98925799 4278190080
0.30457601 0.0556641 1.00684 4278190080
0.30175799 0.058389999 1.00684 4278190080
0.437758 0.067382798 0.977539 4278190080
0.43652299 0.067382798 0.97856998 4278190080
0.44238299 0.069368102 0.977539 4278190080
0.263414 0.0791016 0.96582001 4278190080
0.26074201 0.084099501 0.96582001 4278190080
0.28615901 0.067382798 0.98925799 4278190080
0.28417999 0.069424197 0.98925799 4278190080
0.276333 0.073242202 0.98339802 4278190080
0.272461 0.077355601 0.98339802 4278190080
0.27832001 0.073242202 0.98513699 4278190080
0.31568801 0.049804699 1.01855 4278190080
0.31347701 0.051774099 1.01855 4278190080
0.40669301 0.0556641 1.00684 4278190080
0.40136701 0.0556641 1.01255 4278190080
0.40722701 0.056060001 1.00684 4278190080
0.38929099 0.049804699 1.01855 4278190080
0.38964799 0.050112098 1.01855 4278190080
0.39550799 0.0535901 1.01855 4278190080
0.45035899 0.073242202 0.97167999 4278190080
0.44824201 0.073242202 0.97354698 4278190080
0.46381199 0.0791016 0.959961 4278190080
0.459961 0.0791016 0.96459001 4278190080
0.46582001 0.080604598 0.959961 4278190080
0.29672399 0.0615234 1.00098 4278190080
0.29589799 0.062363598 1.00098 4278190080
0.307118 0.0556641 1.0127 4278190080
0.30761701 0.0556641 1.01332 4278190080
0.26410699 0.0791016 0.97167999 4278190080
0.42009899 0.0615234 0.99511701 4278190080
0.41894501 0.0615234 0.99915302 4278190080
0.42480499 0.064648502 0.99511701 4278190080
0.28901401 0.067382798 0.99511701 4278190080
0.290039 0.067382798 0.99629903 4278190080
0.43277499 0.067382798 0.98339802 4278190080
0.430664 0.067382798 0.98790997 4278190080
0.31764299 0.049804699 1.02441 4278190080
0.319336 0.049804699 1.0262001 4278190080
0.281589 0.073242202 0.98925799 4278190080
0.28417999 0.073242202 0.99220598 4278190080
0.385876 0.049804699 1.02441 4278190080
0.383789 0.049804699 1.02789 4278190080
0.40125501 0.0556641 1.0127 4278190080
0.44573 0.073242202 0.977539 4278190080
0.459061 0.0791016 0.96582001 4278190080
0.31006601 0.0556641 1.01855 4278190080
0.31347701 0.0556641 1.02131 4278190080
0.29922101 0.0615234 1.00684 4278190080
0.30175799 0.0615234 1.0092 4278190080
0.266215 0.0791016 0.977539 4278190080
0.26660201 0.0791016 0.97817999 4278190080
0.29288 0.067382798 1.00098 4278190080
0.29589799 0.067382798 1.0045 4278190080
0.41834801 0.0615234 1.00098 4278190080
0.42994601 0.067382798 0.98925799 4278190080
0.430664 0.067998998 0.98925799 4278190080
0.322476 0.049804699 1.03027 4278190080
0.32519501 0.049804699 1.03251 4278190080
0.286342 0.073242202 0.99511701 4278190080
0.290039 0.073242202 1.00076 4278190080
0.381605 0.049804699 1.03027 4278190080
0.30427399 0.0615234 1.0127 4278190080
0.30761701 0.0615234 1.0165499 4278190080
0.269833 0.0791016 0.98339802 4278190080
0.26660201 0.082361601 0.98339802 4278190080
0.272461 0.0791016 0.98518598 4278190080
0.42730001 0.067382798 0.99511701 4278190080
0.29844701 0.067382798 1.00684 4278190080
0.30175799 0.067382798 1.00901 4278190080
0.29025501 0.073242202 1.00098 4278190080
0.331204 0.049804699 1.04199 4278190080
0.30937999 0.0615234 1.01855 4278190080
0.30472299 0.067382798 1.0127 4278190080
0.58886701 0.119987 0.83105499 4278190080
0.59472698 0.119848 0.83105499 4278190080
0.37207001 0.113036 0.85449201 4278190080
0.37207001 0.11797 0.84863299 4278190080
0.37207001 0.114258 0.852121 4278190080
0.35449201 0.108358 0.866211 4278190080
0.36035201 0.107398 0.866211 4278190080
0.366211 0.107063 0.866211 4278190080
0.37207001 0.107716 0.866211 4278190080
0.34863299 0.101893 0.87792999 4278190080
0.35449201 0.101862 0.87792999 4278190080
0.36035201 0.10198 0.87792999 4278190080
0.366211 0.102164 0.87792999 4278190080
0.58300799 0.119827 0.836914 4278190080
0.58886701 0.119272 0.836914 4278190080
0.59472698 0.119168 0.836914 4278190080
0.56542999 0.113651 0.86035198 4278190080
0.33105499 0.096645802 0.88964802 4278190080
0.336914 0.096321002 0.88964802 4278190080
0.34277299 0.096595503 0.88964802 4278190080
0.50097698 0.114206 0.84863299 4278190080
0.506836 0.11346 0.84863299 4278190080
0.51269501 0.113224 0.84863299 4278190080
0.51855499 0.112915 0.84863299 4278190080
0.524414 0.113956 0.84863299 4278190080
0.35449201 0.108398 0.86614197 4278190080
0.36035201 0.111696 0.86035198 4278190080
0.36035201 0.108398 0.864142 4278190080
0.366211 0.110352 0.86035198 4278190080
0.366211 0.108398 0.86292303 4278190080
0.37207001 0.11025 0.86035198 4278190080
0.37207001 0.108398 0.86412102 4278190080
0.506836 0.119316 0.836914 4278190080
0.51269501 0.118541 0.836914 4278190080
0.51855499 0.118549 0.836914 4278190080
0.524414 0.118696 0.836914 4278190080
0.53027302 0.119615 0.836914 4278190080
0.477539 0.108325 0.86035198 4278190080
0.51855499 0.108069 0.86035198 4278190080
0.524414 0.10719 0.86035198 4278190080
0.53027302 0.107768 0.86035198 4278190080
0.30175799 0.090414301 0.90722698 4278190080
0.30761701 0.089415401 0.90722698 4278190080
0.31347701 0.089385897 0.90722698 4278190080
0.319336 0.089770898 0.90722698 4278190080
0.32519501 0.089448497 0.90722698 4278190080
0.33105499 0.089033999 0.90722698 4278190080
0.336914 0.089608297 0.90722698 4278190080
0.34277299 0.090477102 0.90722698 4278190080
0.36035201 0.118717 0.85449201 4278190080
0.36035201 0.114258 0.85731697 4278190080
0.366247 0.114258 0.85449201 4278190080
0.366211 0.114277 0.85449201 4278190080
0.366211 0.114258 0.85450703 4278190080
0.45410201 0.096667103 0.883789 4278190080
0.49511701 0.096191503 0.883789 4278190080
0.50097698 0.0959628 0.883789 4278190080
0.57714802 0.119838 0.84277302 4278190080
0.58300799 0.119624 0.84277302 4278190080
0.58886701 0.118799 0.84277302 4278190080
0.59472698 0.118925 0.84277302 4278190080
0.600586 0.119793 0.84277302 4278190080
0.34277299 0.107368 0.87207001 4278190080
0.34863299 0.105816 0.87207001 4278190080
0.34863299 0.102539 0.87646598 4278190080
0.35449201 0.1048 0.87207001 4278190080
0.35449201 0.102539 0.87593502 4278190080
0.36035201 0.104688 0.87207001 4278190080
0.36035201 0.102539 0.87621301 4278190080
0.366211 0.104445 0.87207001 4278190080
0.366211 0.102539 0.87658501 4278190080
0.37207001 0.105684 0.87207001 4278190080
0.33105499 0.101088 0.883789 4278190080
0.33105499 0.096679702 0.88957101 4278190080
0.336914 0.099762999 0.883789 4278190080
0.336914 0.096679702 0.88856298 4278190080
0.34277299 0.099593297 0.883789 4278190080
0.34277299 0.096679702 0.88935399 4278190080
0.34863299 0.099474497 0.883789 4278190080
0.35449201 0.099560097 0.883789 4278190080
0.36035201 0.100069 0.883789 4278190080
0.366211 0.100459 0.883789 4278190080
0.37207001 0.100673 0.883789 4278190080
0.56542999 0.113034 0.866211 4278190080
0.571289 0.113597 0.866211 4278190080
0.46582001 0.102486 0.87207001 4278190080
0.506836 0.102123 0.87207001 4278190080
0.51269501 0.101711 0.87207001 4278190080
0.51855499 0.101659 0.87207001 4278190080
0.477539 0.090697899 0.89550799 4278190080
0.319336 0.095426597 0.89550799 4278190080
0.32519501 0.094062202 0.89550799 4278190080
0.33105499 0.093920797 0.89550799 4278190080
0.336914 0.094254598 0.89550799 4278190080
0.34277299 0.094732903 0.89550799 4278190080
0.34863299 0.095537901 0.89550799 4278190080
0.35449201 0.095323801 0.89550799 4278190080
0.36035201 0.095775597 0.89550799 4278190080
0.37792999 0.112356 0.85449201 4278190080
0.383789 0.112392 0.85449201 4278190080
0.38964799 0.112715 0.85449201 4278190080
0.39550799 0.113127 0.85449201 4278190080
0.45410201 0.114038 0.85449201 4278190080
0.459961 0.114063 0.85449201 4278190080
0.46582001 0.114197 0.85449201 4278190080
0.47167999 0.113018 0.85449201 4278190080
0.477539 0.111837 0.85449201 4278190080
0.477539 0.108398 0.86018598 4278190080
0.48339799 0.11242 0.85449201 4278190080
0.48925799 0.111942 0.85449201 4278190080
0.49511701 0.111466 0.85449201 4278190080
0.50097698 0.111816 0.85449201 4278190080
0.506836 0.11177 0.85449201 4278190080
0.51269501 0.111263 0.85449201 4278190080
0.51855499 0.110655 0.85449201 4278190080
0.51855499 0.108398 0.85988599 4278190080
0.524414 0.11017 0.85449201 4278190080
0.524414 0.108398 0.858199 4278190080
0.53027302 0.112844 0.85449201 4278190080
0.53027302 0.108398 0.85871899 4278190080
0.55957001 0.114188 0.85449201 4278190080
0.56542999 0.118494 0.84863299 4278190080
0.571289 0.119118 0.84863299 4278190080
0.57714802 0.119295 0.84863299 4278190080
0.58300799 0.11928 0.84863299 4278190080
0.58886701 0.118877 0.84863299 4278190080
0.59472698 0.118725 0.84863299 4278190080
0.600586 0.118901 0.84863299 4278190080
0.383789 0.119195 0.84277302 4278190080
0.38964799 0.118441 0.84277302 4278190080
0.39550799 0.118358 0.84277302 4278190080
0.40136701 0.119331 0.84277302 4278190080
0.40722701 0.119997 0.84277302 4278190080
0.413086 0.119634 0.84277302 4278190080
0.41894501 0.12005 0.84277302 4278190080
0.44824201 0.119889 0.84277302 4278190080
0.47167999 0.119638 0.84277302 4278190080
0.477539 0.119587 0.84277302 4278190080
0.48339799 0.118834 0.84277302 4278190080
0.48925799 0.117987 0.84277302 4278190080
0.49511701 0.117737 0.84277302 4278190080
0.50097698 0.117345 0.84277302 4278190080
0.50097698 0.114258 0.84847099 4278190080
0.506836 0.115682 0.84277302 4278190080
0.506836 0.114258 0.84555697 4278190080
0.51269501 0.115593 0.84277302 4278190080
0.51269501 0.114258 0.84561098 4278190080
0.51855499 0.115508 0.84277302 4278190080
0.51855499 0.114258 0.84548301 4278190080
0.524414 0.117117 0.84277302 4278190080
0.524414 0.114258 0.84830397 4278190080
0.53027302 0.11777 0.84277302 4278190080
0.53613299 0.119003 0.84277302 4278190080
0.290039 0.0849609 0.91850501 4278190080
0.29589799 0.089341603 0.913086 4278190080
0.29589799 0.0849609 0.91838503 4278190080
0.30175799 0.087863803 0.913086 4278190080
0.30175799 0.0849609 0.91832697 4278190080
0.30761701 0.086590402 0.913086 4278190080
0.30761701 0.0849609 0.91739899 4278190080
0.31347701 0.086553097 0.913086 4278190080
0.31347701 0.0849609 0.91729897 4278190080
0.319336 0.087344602 0.913086 4278190080
0.32519501 0.087224498 0.913086 4278190080
0.32519501 0.0849609 0.91816902 4278190080
0.33105499 0.087329097 0.913086 4278190080
0.336914 0.087751202 0.913086 4278190080
0.34277299 0.088093601 0.913086 4278190080
0.34863299 0.088886701 0.913086 4278190080
0.35449201 0.089287497 0.913086 4278190080
0.36035201 0.0884436 0.913086 4278190080
0.366211 0.088123702 0.913086 4278190080
0.37207001 0.088410899 0.913086 4278190080
0.34277299 0.108398 0.87086803 4278190080
0.354312 0.108398 0.866211 4278190080
0.34863299 0.111038 0.866211 4278190080
0.34863299 0.108398 0.86838502 4278190080
0.37792999 0.107876 0.866211 4278190080
0.383789 0.107899 0.866211 4278190080
0.44238299 0.108292 0.866211 4278190080
0.459961 0.107554 0.866211 4278190080
0.46582001 0.106815 0.866211 4278190080
0.46582001 0.102539 0.87194902 4278190080
0.47167999 0.106309 0.866211 4278190080
0.477539 0.105755 0.866211 4278190080
0.48339799 0.105801 0.866211 4278190080
0.48925799 0.106591 0.866211 4278190080
0.49511701 0.10694 0.866211 4278190080
0.50097698 0.106702 0.866211 4278190080
0.506836 0.105868 0.866211 4278190080
0.506836 0.102539 0.87012798 4278190080
0.51269501 0.103733 0.866211 4278190080
0.51269501 0.102539 0.86718702 4278190080
0.51855499 0.103393 0.866211 4278190080
0.51855499 0.102539 0.866943 4278190080
0.524414 0.105545 0.866211 4278190080
0.53027302 0.105998 0.866211 4278190080
0.53613299 0.107033 0.866211 4278190080
0.54199201 0.108301 0.866211 4278190080
0.56542999 0.112635 0.87207001 4278190080
0.571289 0.11281 0.87207001 4278190080
0.43652299 0.096350104 0.88964802 4278190080
0.44238299 0.095410503 0.88964802 4278190080
0.44824201 0.094483703 0.88964802 4278190080
0.45410201 0.094392501 0.88964802 4278190080
0.459961 0.094696999 0.88964802 4278190080
0.46582001 0.0952553 0.88964802 4278190080
0.47167999 0.095183097 0.88964802 4278190080
0.477539 0.094526999 0.88964802 4278190080
0.477539 0.090820298 0.89474398 4278190080
0.48339799 0.0949241 0.88964802 4278190080
0.48925799 0.095316201 0.88964802 4278190080
0.49511701 0.095298402 0.88964802 4278190080
0.50097698 0.095231801 0.88964802 4278190080
0.506836 0.096160702 0.88964802 4278190080
0.34863299 0.114258 0.86351103 4278190080
0.35472599 0.114258 0.86035198 4278190080
0.35449201 0.114481 0.86035198 4278190080
0.35449201 0.114258 0.86047 4278190080
0.319336 0.100237 0.88964802 4278190080
0.319336 0.096679702 0.89291102 4278190080
0.33066201 0.096679702 0.88964802 4278190080
0.32519501 0.097813196 0.88964802 4278190080
0.32519501 0.096679702 0.89069498 4278190080
0.34408101 0.096679702 0.88964802 4278190080
0.34863299 0.097125404 0.88964802 4278190080
0.34863299 0.096679702 0.890953 4278190080
0.35449201 0.097293101 0.88964802 4278190080
0.35449201 0.096679702 0.891285 4278190080
0.36035201 0.097890303 0.88964802 4278190080
0.36035201 0.096679702 0.89318299 4278190080
0.366211 0.098637499 0.88964802 4278190080
0.37207001 0.098876096 0.88964802 4278190080
0.42480499 0.090549298 0.90136701 4278190080
0.430664 0.089452997 0.90136701 4278190080
0.43652299 0.088894002 0.90136701 4278190080
0.44238299 0.089091398 0.90136701 4278190080
0.44824201 0.089607403 0.90136701 4278190080
0.45410201 0.0900058 0.90136701 4278190080
0.459961 0.089140899 0.90136701 4278190080
0.46582001 0.090636797 0.90136701 4278190080
0.46582001 0.0849609 0.90699202 4278190080
0.47167999 0.090810902 0.90136701 4278190080
0.477539 0.090085603 0.90136701 4278190080
0.48339799 0.089949302 0.90136701 4278190080
0.48925799 0.090597503 0.90136701 4278190080
0.44824201 0.102462 0.87792999 4278190080
0.45410201 0.101322 0.87792999 4278190080
0.45410201 0.096679702 0.883753 4278190080
0.459961 0.100086 0.87792999 4278190080
0.46582001 0.099989899 0.87792999 4278190080
0.47167999 0.100191 0.87792999 4278190080
0.477539 0.100844 0.87792999 4278190080
0.48339799 0.100549 0.87792999 4278190080
0.48925799 0.101111 0.87792999 4278190080
0.49511701 0.100439 0.87792999 4278190080
0.49511701 0.096679702 0.88099098 4278190080
0.50097698 0.100531 0.87792999 4278190080
0.50097698 0.096679702 0.88107401 4278190080
0.506836 0.100942 0.87792999 4278190080
0.51269501 0.100859 0.87792999 4278190080
0.51855499 0.100889 0.87792999 4278190080
0.524414 0.102002 0.87792999 4278190080
0.33105499 0.107946 0.87792999 4278190080
0.33105499 0.102539 0.88191998 4278190080
0.336914 0.104508 0.87792999 4278190080
0.336914 0.102539 0.87967098 4278190080
0.34308001 0.102539 0.87792999 4278190080
0.34277299 0.102612 0.87792999 4278190080
0.34277299 0.102539 0.878016 4278190080
0.36795801 0.102539 0.87792999 4278190080
0.37207001 0.103515 0.87792999 4278190080
0.37207001 0.102539 0.879933 4278190080
0.30175799 0.090820298 0.90640199 4278190080
0.30761701 0.094330199 0.90136701 4278190080
0.30761701 0.090820298 0.90429801 4278190080
0.31347701 0.093508802 0.90136701 4278190080
0.31347701 0.090820298 0.90454298 4278190080
0.319336 0.092677496 0.90136701 4278190080
0.319336 0.090820298 0.90495098 4278190080
0.32519501 0.091573402 0.90136701 4278190080
0.32519501 0.090820298 0.90320301 4278190080
0.33105499 0.091233499 0.90136701 4278190080
0.33105499 0.090820298 0.90210301 4278190080
0.336914 0.0918345 0.90136701 4278190080
0.336914 0.090820298 0.903817 4278190080
0.34277299 0.092748597 0.90136701 4278190080
0.34277299 0.090820298 0.906488 4278190080
0.34863299 0.093711503 0.90136701 4278190080
0.35449201 0.093563698 0.90136701 4278190080
0.36035201 0.093347304 0.90136701 4278190080
0.366211 0.093936697 0.90136701 4278190080
0.37207001 0.094070204 0.90136701 4278190080
0.56542999 0.114461 0.85449201 4278190080
0.56542999 0.114258 0.85492003 4278190080
0.571289 0.11756 0.85449201 4278190080
0.57714802 0.118594 0.85449201 4278190080
0.58300799 0.118793 0.85449201 4278190080
0.58886701 0.119235 0.85449201 4278190080
0.59472698 0.11866 0.85449201 4278190080
0.600586 0.119163 0.85449201 4278190080
0.37792999 0.109753 0.86035198 4278190080
0.37792999 0.108398 0.86413801 4278190080
0.383789 0.110021 0.86035198 4278190080
0.383789 0.108398 0.86465901 4278190080
0.38964799 0.111038 0.86035198 4278190080
0.39550799 0.111378 0.86035198 4278190080
0.40136701 0.111972 0.86035198 4278190080
0.40722701 0.112578 0.86035198 4278190080
0.413086 0.113018 0.86035198 4278190080
0.41894501 0.112559 0.86035198 4278190080
0.42480499 0.113063 0.86035198 4278190080
0.430664 0.112772 0.86035198 4278190080
0.43652299 0.111675 0.86035198 4278190080
0.44238299 0.111704 0.86035198 4278190080
0.44238299 0.108398 0.866027 4278190080
0.44824201 0.112078 0.86035198 4278190080
0.45410201 0.111469 0.86035198 4278190080
0.459961 0.110335 0.86035198 4278190080
0.459961 0.108398 0.864663 4278190080
0.46582001 0.110592 0.86035198 4278190080
0.46582001 0.108398 0.86389399 4278190080
0.477034 0.108398 0.86035198 4278190080
0.47167999 0.109646 0.86035198 4278190080
0.47167999 0.108398 0.86236799 4278190080
0.48175299 0.108398 0.86035198 4278190080
0.48339799 0.108439 0.86035198 4278190080
0.48339799 0.108398 0.86040598 4278190080
0.48925799 0.109166 0.86035198 4278190080
0.48925799 0.108398 0.86177498 4278190080
0.49511701 0.109109 0.86035198 4278190080
0.49511701 0.108398 0.86231899 4278190080
0.50097698 0.109302 0.86035198 4278190080
0.50097698 0.108398 0.86293399 4278190080
0.506836 0.10954 0.86035198 4278190080
0.506836 0.108398 0.86355603 4278190080
0.51739001 0.108398 0.86035198 4278190080
0.51269501 0.109123 0.86035198 4278190080
0.51269501 0.108398 0.86212802 4278190080
0.53372902 0.108398 0.86035198 4278190080
0.53613299 0.109762 0.86035198 4278190080
0.53613299 0.108398 0.86129099 4278190080
0.54199201 0.113575 0.86035198 4278190080
0.54199201 0.108398 0.86580598 4278190080
0.54785198 0.113516 0.86035198 4278190080
0.553711 0.113213 0.86035198 4278190080
0.55957001 0.113402 0.86035198 4278190080
0.56542999 0.111851 0.87792999 4278190080
0.571289 0.112427 0.87792999 4278190080
0.57714802 0.113681 0.87792999 4278190080
0.37792999 0.115309 0.84863299 4278190080
0.37792999 0.114258 0.84972101 4278190080
0.383789 0.114539 0.84863299 4278190080
0.383789 0.114258 0.84899402 4278190080
0.38964799 0.114724 0.84863299 4278190080
0.38964799 0.114258 0.84935802 4278190080
0.39550799 0.115214 0.84863299 4278190080
0.39550799 0.114258 0.85066098 4278190080
0.40136701 0.116668 0.84863299 4278190080
0.40722701 0.117326 0.84863299 4278190080
0.413086 0.117201 0.84863299 4278190080
0.41894501 0.117481 0.84863299 4278190080
0.42480499 0.118026 0.84863299 4278190080
0.430664 0.117793 0.84863299 4278190080
0.43652299 0.11799 0.84863299 4278190080
0.44238299 0.118207 0.84863299 4278190080
0.44824201 0.11724 0.84863299 4278190080
0.45410201 0.117023 0.84863299 4278190080
0.45410201 0.114258 0.85412502 4278190080
0.459961 0.118119 0.84863299 4278190080
0.459961 0.114258 0.85422897 4278190080
0.46582001 0.11792 0.84863299 4278190080
0.46582001 0.114258 0.85439003 4278190080
0.47167999 0.115866 0.84863299 4278190080
0.47167999 0.114258 0.85176897 4278190080
0.477539 0.115427 0.84863299 4278190080
0.477539 0.114258 0.85038298 4278190080
0.48339799 0.115753 0.84863299 4278190080
0.48339799 0.114258 0.85128301 4278190080
0.48925799 0.114866 0.84863299 4278190080
0.48925799 0.114258 0.84974903 4278190080
0.49940899 0.114258 0.84863299 4278190080
0.49511701 0.114474 0.84863299 4278190080
0.49511701 0.114258 0.84896702 4278190080
0.52480203 0.114258 0.84863299 4278190080
0.53027302 0.116199 0.84863299 4278190080
0.53027302 0.114258 0.85337901 4278190080
0.53613299 0.117158 0.84863299 4278190080
0.54199201 0.118555 0.84863299 4278190080
0.54785198 0.119232 0.84863299 4278190080
0.553711 0.118889 0.84863299 4278190080
0.55957001 0.118047 0.84863299 4278190080
0.55957001 0.114258 0.85396701 4278190080
0.289101 0.0849609 0.91894501 4278190080
0.28417999 0.087912299 0.91894501 4278190080
0.28417999 0.0849609 0.92175102 4278190080
0.318977 0.0849609 0.91894501 4278190080
0.31993201 0.0849609 0.91894501 4278190080
0.319336 0.084997401 0.91894501 4278190080
0.319336 0.0849609 0.919034 4278190080
0.328848 0.0849609 0.91894501 4278190080
0.33105499 0.085149199 0.91894501 4278190080
0.33105499 0.0849609 0.91946203 4278190080
0.336914 0.0857713 0.91894501 4278190080
0.336914 0.0849609 0.92120802 4278190080
0.34277299 0.085712999 0.91894501 4278190080
0.34277299 0.0849609 0.92103201 4278190080
0.34863299 0.0859382 0.91894501 4278190080
0.34863299 0.0849609 0.920941 4278190080
0.35449201 0.086201496 0.91894501 4278190080
0.35449201 0.0849609 0.92107099 4278190080
0.36035201 0.086019501 0.91894501 4278190080
0.36035201 0.0849609 0.92106801 4278190080
0.366211 0.085157901 0.91894501 4278190080
0.366211 0.0849609 0.91939002 4278190080
0.37207001 0.085429899 0.91894501 4278190080
0.37207001 0.0849609 0.919824 4278190080
0.37792999 0.106154 0.87207001 4278190080
0.383789 0.105916 0.87207001 4278190080
0.38964799 0.106316 0.87207001 4278190080
0.39550799 0.107428 0.87207001 4278190080
0.40136701 0.107396 0.87207001 4278190080
0.40722701 0.10717 0.87207001 4278190080
0.413086 0.107339 0.87207001 4278190080
0.41894501 0.106971 0.87207001 4278190080
0.42480499 0.10614 0.87207001 4278190080
0.430664 0.106807 0.87207001 4278190080
0.43652299 0.106598 0.87207001 4278190080
0.44238299 0.105473 0.87207001 4278190080
0.44824201 0.105313 0.87207001 4278190080
0.44824201 0.102539 0.87783402 4278190080
0.45410201 0.104945 0.87207001 4278190080
0.45410201 0.102539 0.87615401 4278190080
0.46521401 0.102539 0.87207001 4278190080
0.459961 0.10347 0.87207001 4278190080
0.459961 0.102539 0.87327802 4278190080
0.46779901 0.102539 0.87207001 4278190080
0.47167999 0.102718 0.87207001 4278190080
0.47167999 0.102539 0.872307 4278190080
0.477539 0.103268 0.87207001 4278190080
0.477539 0.102539 0.87365001 4278190080
0.48339799 0.103287 0.87207001 4278190080
0.48339799 0.102539 0.87380701 4278190080
0.48925799 0.103993 0.87207001 4278190080
0.48925799 0.102539 0.87607598 4278190080
0.49511701 0.104211 0.87207001 4278190080
0.49511701 0.102539 0.87629098 4278190080
0.50422001 0.102539 0.87207001 4278190080
0.50097698 0.103707 0.87207001 4278190080
0.50097698 0.102539 0.87449098 4278190080
0.522093 0.102539 0.87207001 4278190080
0.524414 0.103959 0.87207001 4278190080
0.524414 0.102539 0.87513399 4278190080
0.53027302 0.104695 0.87207001 4278190080
0.53613299 0.106027 0.87207001 4278190080
0.54199201 0.106769 0.87207001 4278190080
0.383789 0.096601099 0.89550799 4278190080
0.38964799 0.095840603 0.89550799 4278190080
0.39550799 0.0953537 0.89550799 4278190080
0.40136701 0.095797502 0.89550799 4278190080
0.40722701 0.095975399 0.89550799 4278190080
0.413086 0.094690099 0.89550799 4278190080
0.41894501 0.094040498 0.89550799 4278190080
0.42480499 0.094127499 0.89550799 4278190080
0.42480499 0.090820298 0.900904 4278190080
0.430664 0.092827298 0.89550799 4278190080
0.430664 0.090820298 0.89787602 4278190080
0.43652299 0.0918703 0.89550799 4278190080
0.43652299 0.090820298 0.89669001 4278190080
0.44238299 0.0919533 0.89550799 4278190080
0.44238299 0.090820298 0.89714497 4278190080
0.44824201 0.092076696 0.89550799 4278190080
0.44824201 0.090820298 0.89838099 4278190080
0.45410201 0.092191897 0.89550799 4278190080
0.45410201 0.090820298 0.899813 4278190080
0.459961 0.092512503 0.89550799 4278190080
0.459961 0.090820298 0.89953798 4278190080
0.46582001 0.093121998 0.89550799 4278190080
0.46582001 0.090820298 0.90110397 4278190080
0.47668201 0.090820298 0.89550799 4278190080
0.47167999 0.092839099 0.89550799 4278190080
0.47167999 0.090820298 0.90131199 4278190080
0.48098001 0.090820298 0.89550799 4278190080
0.48339799 0.091143101 0.89550799 4278190080
0.48339799 0.090820298 0.89593399 4278190080
0.48925799 0.092846297 0.89550799 4278190080
0.48925799 0.090820298 0.90012401 4278190080
0.49511701 0.094463699 0.89550799 4278190080
0.50097698 0.094573103 0.89550799 4278190080
0.506836 0.095122799 0.89550799 4278190080
0.33105499 0.108398 0.87758201 4278190080
0.34072101 0.108398 0.87207001 4278190080
0.336914 0.112327 0.87207001 4278190080
0.336914 0.108398 0.87436402 4278190080
0.336914 0.114258 0.87088102 4278190080
0.344179 0.114258 0.866211 4278190080
0.34277299 0.118576 0.866211 4278190080
0.34277299 0.114258 0.86711299 4278190080
0.37792999 0.0903515 0.90722698 4278190080
0.383789 0.090401903 0.90722698 4278190080
0.38964799 0.090164699 0.90722698 4278190080
0.39550799 0.0896139 0.90722698 4278190080
0.40136701 0.089085102 0.90722698 4278190080
0.40722701 0.089070402 0.90722698 4278190080
0.413086 0.088447496 0.90722698 4278190080
0.413086 0.0849609 0.91199702 4278190080
0.41894501 0.086933501 0.90722698 4278190080
0.41894501 0.0849609 0.90952998 4278190080
0.42480499 0.086932696 0.90722698 4278190080
0.42480499 0.0849609 0.909693 4278190080
0.430664 0.087172002 0.90722698 4278190080
0.430664 0.0849609 0.91140199 4278190080
0.43652299 0.086792298 0.90722698 4278190080
0.44238299 0.086671099 0.90722698 4278190080
0.44238299 0.0849609 0.91233802 4278190080
0.44824201 0.086939901 0.90722698 4278190080
0.44824201 0.0849609 0.91229898 4278190080
0.45410201 0.086786397 0.90722698 4278190080
0.45410201 0.0849609 0.91066402 4278190080
0.462414 0.0849609 0.90722698 4278190080
0.459961 0.085158698 0.90722698 4278190080
0.459961 0.0849609 0.90753502 4278190080
0.46593899 0.0849609 0.90722698 4278190080
0.47167999 0.089371398 0.90722698 4278190080
0.477539 0.089814998 0.90722698 4278190080
0.48339799 0.089459099 0.90722698 4278190080
0.48925799 0.089697503 0.90722698 4278190080
0.30761701 0.10168 0.89550799 4278190080
0.30761701 0.096679702 0.89922601 4278190080
0.31492999 0.096679702 0.89550799 4278190080
0.31347701 0.097655296 0.89550799 4278190080
0.31347701 0.096679702 0.89638799 4278190080
0.36539999 0.096679702 0.89550799 4278190080
0.366211 0.096798897 0.89550799 4278190080
0.366211 0.096679702 0.89583498 4278190080
0.37207001 0.096781097 0.89550799 4278190080
0.37207001 0.096679702 0.89582002 4278190080
0.319336 0.102539 0.88771701 4278190080
0.32756999 0.102539 0.883789 4278190080
0.32519501 0.104475 0.883789 4278190080
0.32519501 0.102539 0.88510102 4278190080
0.37792999 0.10214 0.883789 4278190080
0.383789 0.102237 0.883789 4278190080
0.38964799 0.101702 0.883789 4278190080
0.39550799 0.102024 0.883789 4278190080
0.40136701 0.102072 0.883789 4278190080
0.40722701 0.101323 0.883789 4278190080
0.413086 0.101101 0.883789 4278190080
0.41894501 0.101615 0.883789 4278190080
0.42480499 0.100751 0.883789 4278190080
0.430664 0.099971801 0.883789 4278190080
0.43652299 0.099641703 0.883789 4278190080
0.43652299 0.096679702 0.88912499 4278190080
0.44238299 0.098889001 0.883789 4278190080
0.44238299 0.096679702 0.88695502 4278190080
0.45373201 0.096679702 0.883789 4278190080
0.44824201 0.097216599 0.883789 4278190080
0.44824201 0.096679702 0.88440198 4278190080
0.454355 0.096679702 0.883789 4278190080
0.459961 0.097191498 0.883789 4278190080
0.459961 0.096679702 0.88449901 4278190080
0.46582001 0.0975926 0.883789 4278190080
0.46582001 0.096679702 0.88585001 4278190080
0.47167999 0.097819299 0.883789 4278190080
0.47167999 0.096679702 0.886953 4278190080
0.477539 0.098191001 0.883789 4278190080
0.477539 0.096679702 0.88711798 4278190080
0.48339799 0.097941801 0.883789 4278190080
0.48339799 0.096679702 0.88655001 4278190080
0.490343 0.096679702 0.883789 4278190080
0.48925799 0.097058102 0.883789 4278190080
0.48925799 0.096679702 0.884444 4278190080
0.50344598 0.096679702 0.883789 4278190080
0.506836 0.098924302 0.883789 4278190080
0.506836 0.096679702 0.88763398 4278190080
0.51269501 0.100138 0.883789 4278190080
0.51855499 0.100349 0.883789 4278190080
0.524414 0.101066 0.883789 4278190080
0.56542999 0.111373 0.883789 4278190080
0.571289 0.111959 0.883789 4278190080
0.57714802 0.112938 0.883789 4278190080
0.56823403 0.114258 0.86035198 4278190080
0.571289 0.115561 0.86035198 4278190080
0.571289 0.114258 0.863186 4278190080
0.57714802 0.117726 0.86035198 4278190080
0.58300799 0.118369 0.86035198 4278190080
0.58886701 0.118913 0.86035198 4278190080
0.59472698 0.119434 0.86035198 4278190080
0.386318 0.108398 0.866211 4278190080
0.38964799 0.10903 0.866211 4278190080
0.38964799 0.108398 0.86763698 4278190080
0.39550799 0.109561 0.866211 4278190080
0.39550799 0.108398 0.86994803 4278190080
0.40136701 0.109697 0.866211 4278190080
0.40136701 0.108398 0.87009001 4278190080
0.40722701 0.110043 0.866211 4278190080
0.40722701 0.108398 0.86976701 4278190080
0.413086 0.110079 0.866211 4278190080
0.413086 0.108398 0.86971998 4278190080
0.41894501 0.109156 0.866211 4278190080
0.41894501 0.108398 0.86797601 4278190080
0.42480499 0.109455 0.866211 4278190080
0.42480499 0.108398 0.86793703 4278190080
0.430664 0.110012 0.866211 4278190080
0.430664 0.108398 0.86916 4278190080
0.44162899 0.108398 0.866211 4278190080
0.43652299 0.109158 0.866211 4278190080
0.43652299 0.108398 0.86797899 4278190080
0.44346401 0.108398 0.866211 4278190080
0.44824201 0.108927 0.866211 4278190080
0.44824201 0.108398 0.866983 4278190080
0.4553 0.108398 0.866211 4278190080
0.45410201 0.108578 0.866211 4278190080
0.45410201 0.108398 0.86652899 4278190080
0.54246199 0.108398 0.866211 4278190080
0.54785198 0.11116 0.866211 4278190080
0.553711 0.112354 0.866211 4278190080
0.55957001 0.112512 0.866211 4278190080
0.30067101 0.090820298 0.90722698 4278190080
0.29589799 0.094216101 0.90722698 4278190080
0.29589799 0.090820298 0.91093498 4278190080
0.34424901 0.090820298 0.90722698 4278190080
0.34863299 0.091663003 0.90722698 4278190080
0.34863299 0.090820298 0.90952098 4278190080
0.35449201 0.0916752 0.90722698 4278190080
0.35449201 0.090820298 0.910025 4278190080
0.36035201 0.091033198 0.90722698 4278190080
0.36035201 0.090820298 0.90782601 4278190080
0.366211 0.091173902 0.90722698 4278190080
0.366211 0.090820298 0.90799701 4278190080
0.37532401 0.090820298 0.90722698 4278190080
0.37207001 0.091401801 0.90722698 4278190080
0.37207001 0.090820298 0.90840101 4278190080
0.28095099 0.0849609 0.92480499 4278190080
0.27832001 0.087899297 0.92480499 4278190080
0.27832001 0.0849609 0.92717201 4278190080
0.37792999 0.093319401 0.90136701 4278190080
0.37792999 0.090820298 0.90620703 4278190080
0.383789 0.093535103 0.90136701 4278190080
0.383789 0.090820298 0.90652299 4278190080
0.38964799 0.093359001 0.90136701 4278190080
0.38964799 0.090820298 0.90609097 4278190080
0.39550799 0.092316903 0.90136701 4278190080
0.39550799 0.090820298 0.90452802 4278190080
0.40136701 0.092551902 0.90136701 4278190080
0.40136701 0.090820298 0.90413803 4278190080
0.40722701 0.092952996 0.90136701 4278190080
0.40722701 0.090820298 0.904764 4278190080
0.413086 0.0920856 0.90136701 4278190080
0.413086 0.090820298 0.90393698 4278190080
0.42335799 0.090820298 0.90136701 4278190080
0.41894501 0.0914087 0.90136701 4278190080
0.41894501 0.090820298 0.90270501 4278190080
0.48988301 0.090820298 0.90136701 4278190080
0.49511701 0.093193397 0.90136701 4278190080
0.50097698 0.0942479 0.90136701 4278190080
0.506836 0.094521597 0.90136701 4278190080
0.51269501 0.095854603 0.90136701 4278190080
0.37792999 0.104227 0.87792999 4278190080
0.37792999 0.102539 0.88290501 4278190080
0.383789 0.104179 0.87792999 4278190080
0.383789 0.102539 0.88317001 4278190080
0.38964799 0.104131 0.87792999 4278190080
0.38964799 0.102539 0.882424 4278190080
0.39550799 0.104896 0.87792999 4278190080
0.39550799 0.102539 0.882882 4278190080
0.40136701 0.104673 0.87792999 4278190080
0.40136701 0.102539 0.88273603 4278190080
0.40722701 0.104228 0.87792999 4278190080
0.40722701 0.102539 0.88138998 4278190080
0.413086 0.104506 0.87792999 4278190080
0.413086 0.102539 0.88159198 4278190080
0.41894501 0.104433 0.87792999 4278190080
0.41894501 0.102539 0.88206398 4278190080
0.42480499 0.103403 0.87792999 4278190080
0.42480499 0.102539 0.879897 4278190080
0.430664 0.103323 0.87792999 4278190080
0.430664 0.102539 0.87925398 4278190080
0.43652299 0.103685 0.87792999 4278190080
0.43652299 0.102539 0.87973601 4278190080
0.447734 0.102539 0.87792999 4278190080
0.44238299 0.103033 0.87792999 4278190080
0.44238299 0.102539 0.87898803 4278190080
0.526281 0.102539 0.87792999 4278190080
0.53027302 0.10419 0.87792999 4278190080
0.53613299 0.105222 0.87792999 4278190080
0.54199201 0.106009 0.87792999 4278190080
0.54785198 0.1072 0.87792999 4278190080
0.33043399 0.108398 0.87792999 4278190080
0.32519501 0.108398 0.88098699 4278190080
0.40105599 0.114258 0.85449201 4278190080
0.40136701 0.114331 0.85449201 4278190080
0.40136701 0.114258 0.85468102 4278190080
0.40722701 0.115245 0.85449201 4278190080
0.40722701 0.114258 0.85705602 4278190080
0.413086 0.115284 0.85449201 4278190080
0.413086 0.114258 0.85766703 4278190080
0.41894501 0.115123 0.85449201 4278190080
0.41894501 0.114258 0.85698402 4278190080
0.42480499 0.115727 0.85449201 4278190080
0.42480499 0.114258 0.858136 4278190080
0.430664 0.115224 0.85449201 4278190080
0.430664 0.114258 0.85683399 4278190080
0.43652299 0.114357 0.85449201 4278190080
0.43652299 0.114258 0.85467303 4278190080
0.44238299 0.115221 0.85449201 4278190080
0.44238299 0.114258 0.85605699 4278190080
0.45293099 0.114258 0.85449201 4278190080
0.44824201 0.115001 0.85449201 4278190080
0.44824201 0.114258 0.85606003 4278190080
0.53229201 0.114258 0.85449201 4278190080
0.53613299 0.115211 0.85449201 4278190080
0.53613299 0.114258 0.85687101 4278190080
0.54199201 0.115816 0.85449201 4278190080
0.54199201 0.114258 0.85925502 4278190080
0.54785198 0.116111 0.85449201 4278190080
0.54785198 0.114258 0.85806799 4278190080
0.55782199 0.114258 0.85449201 4278190080
0.553711 0.114995 0.85449201 4278190080
0.553711 0.114258 0.85556501 4278190080
0.56283098 0.114258 0.85449201 4278190080
0.56542999 0.111048 0.88964802 4278190080
0.571289 0.111519 0.88964802 4278190080
0.57714802 0.112902 0.88964802 4278190080
0.33531401 0.114258 0.87207001 4278190080
0.33105499 0.114258 0.875202 4278190080
0.37792999 0.087941296 0.913086 4278190080
0.383789 0.086815603 0.913086 4278190080
0.383789 0.0849609 0.916421 4278190080
0.38964799 0.086918101 0.913086 4278190080
0.38964799 0.0849609 0.91628402 4278190080
0.39550799 0.086952701 0.913086 4278190080
0.39550799 0.0849609 0.91688699 4278190080
0.40136701 0.086234599 0.913086 4278190080
0.40136701 0.0849609 0.91565001 4278190080
0.410447 0.0849609 0.913086 4278190080
0.40722701 0.085657001 0.913086 4278190080
0.40722701 0.0849609 0.914433 4278190080
0.43504101 0.0849609 0.913086 4278190080
0.43934301 0.0849609 0.913086 4278190080
0.43652299 0.085197099 0.913086 4278190080
0.43652299 0.0849609 0.91364801 4278190080
0.46865001 0.0849609 0.913086 4278190080
0.47167999 0.087238401 0.913086 4278190080
0.47167999 0.0849609 0.91612601 4278190080
0.477539 0.088785797 0.913086 4278190080
0.48339799 0.089231297 0.913086 4278190080
0.48925799 0.089203097 0.913086 4278190080
0.49511701 0.090064898 0.913086 4278190080
0.29589799 0.096679702 0.90469098 4278190080
0.30184999 0.096679702 0.90136701 4278190080
0.30175799 0.096744701 0.90136701 4278190080
0.30175799 0.096679702 0.90140098 4278190080
0.30761701 0.102539 0.89480799 4278190080
0.31581399 0.102539 0.88964802 4278190080
0.31347701 0.105377 0.88964802 4278190080
0.31347701 0.102539 0.891092 4278190080
0.572703 0.114258 0.866211 4278190080
0.57714802 0.116626 0.866211 4278190080
0.58300799 0.117782 0.866211 4278190080
0.58886701 0.118994 0.866211 4278190080
0.37792999 0.0992788 0.88964802 4278190080
0.383789 0.099388704 0.88964802 4278190080
0.383789 0.096679702 0.89534402 4278190080
0.38964799 0.098392799 0.88964802 4278190080
0.38964799 0.096679702 0.89332998 4278190080
0.39550799 0.098700799 0.88964802 4278190080
0.39550799 0.096679702 0.89316702 4278190080
0.40136701 0.0990429 0.88964802 4278190080
0.40136701 0.096679702 0.89388198 4278190080
0.40722701 0.098669603 0.88964802 4278190080
0.40722701 0.096679702 0.89396602 4278190080
0.413086 0.097296998 0.88964802 4278190080
0.413086 0.096679702 0.8908 4278190080
0.41894501 0.097694002 0.88964802 4278190080
0.41894501 0.096679702 0.89104801 4278190080
0.42480499 0.097840898 0.88964802 4278190080
0.42480499 0.096679702 0.89170402 4278190080
0.434782 0.096679702 0.88964802 4278190080
0.430664 0.097215198 0.88964802 4278190080
0.430664 0.096679702 0.89081901 4278190080
0.507846 0.096679702 0.88964802 4278190080
0.51269501 0.099403299 0.88964802 4278190080
0.51855499 0.099826097 0.88964802 4278190080
0.524414 0.100439 0.88964802 4278190080
0.53027302 0.101764 0.88964802 4278190080
0.54714698 0.108398 0.87207001 4278190080
0.54785198 0.109041 0.87207001 4278190080
0.54785198 0.108398 0.87301201 4278190080
0.553711 0.111022 0.87207001 4278190080
0.55957001 0.111898 0.87207001 4278190080
0.28417999 0.095730104 0.913086 4278190080
0.28417999 0.090820298 0.91633499 4278190080
0.291724 0.090820298 0.913086 4278190080
0.290039 0.091735497 0.913086 4278190080
0.290039 0.090820298 0.91382003 4278190080
0.56542999 0.111122 0.89550799 4278190080
0.571289 0.111908 0.89550799 4278190080
0.57516497 0.114258 0.87207001 4278190080
0.57714802 0.11536 0.87207001 4278190080
0.57714802 0.114258 0.87558901 4278190080
0.58300799 0.117116 0.87207001 4278190080
0.58886701 0.118078 0.87207001 4278190080
0.493826 0.090820298 0.90722698 4278190080
0.49511701 0.091397598 0.90722698 4278190080
0.49511701 0.090820298 0.90909398 4278190080
0.50097698 0.093423799 0.90722698 4278190080
0.506836 0.094080098 0.90722698 4278190080
0.51269501 0.094814204 0.90722698 4278190080
0.31347701 0.108398 0.88819802 4278190080
0.32076901 0.108398 0.883789 4278190080
0.319336 0.108398 0.88463402 4278190080
0.26660201 0.0849609 0.93596101 4278190080
0.27389801 0.0849609 0.930664 4278190080
0.272461 0.0887089 0.930664 4278190080
0.272461 0.0849609 0.93171299 4278190080
0.52892601 0.102539 0.883789 4278190080
0.53027302 0.103253 0.883789 4278190080
0.53027302 0.102539 0.88603598 4278190080
0.53613299 0.10472 0.883789 4278190080
0.54199201 0.10553 0.883789 4278190080
0.54785198 0.106185 0.883789 4278190080
0.32762 0.114258 0.87792999 4278190080
0.32519501 0.114258 0.879682 4278190080
0.33105499 0.117922 0.87792999 4278190080
0.30655 0.102539 0.89550799 4278190080
0.30175799 0.102539 0.89835203 4278190080
0.28417999 0.096679702 0.91250199 4278190080
0.29218501 0.096679702 0.90722698 4278190080
0.290039 0.101946 0.90722698 4278190080
0.290039 0.096679702 0.90868503 4278190080
0.37878001 0.0849609 0.91894501 4278190080
0.37792999 0.085170597 0.91894501 4278190080
0.37792999 0.0849609 0.91932899 4278190080
0.47368601 0.0849609 0.91894501 4278190080
0.477539 0.087510698 0.91894501 4278190080
0.48339799 0.089033499 0.91894501 4278190080
0.48925799 0.0889595 0.91894501 4278190080
0.49511701 0.089633599 0.91894501 4278190080
0.381769 0.096679702 0.89550799 4278190080
0.37792999 0.096801497 0.89550799 4278190080
0.37792999 0.096679702 0.89578903 4278190080
0.51033998 0.096679702 0.89550799 4278190080
0.51269501 0.098212697 0.89550799 4278190080
0.51269501 0.096679702 0.89888299 4278190080
0.51855499 0.099403299 0.89550799 4278190080
0.524414 0.100314 0.89550799 4278190080
0.53027302 0.100695 0.89550799 4278190080
0.28158399 0.090820298 0.91894501 4278190080
0.27832001 0.090820298 0.92236799 4278190080
0.56542999 0.112169 0.90136701 4278190080
0.550565 0.108398 0.87792999 4278190080
0.553711 0.110431 0.87792999 4278190080
0.55957001 0.111235 0.87792999 4278190080
0.57802999 0.114258 0.87792999 4278190080
0.58300799 0.11668 0.87792999 4278190080
0.58886701 0.117555 0.87792999 4278190080
0.59472698 0.120084 0.87792999 4278190080
0.497217 0.090820298 0.913086 4278190080
0.50097698 0.0922556 0.913086 4278190080
0.506836 0.093924299 0.913086 4278190080
0.51269501 0.0944544 0.913086 4278190080
0.53202999 0.102539 0.88964802 4278190080
0.53613299 0.104233 0.88964802 4278190080
0.54199201 0.105136 0.88964802 4278190080
0.54785198 0.105747 0.88964802 4278190080
0.553711 0.106937 0.88964802 4278190080
0.311692 0.108398 0.88964802 4278190080
0.30761701 0.108398 0.89283299 4278190080
0.31347701 0.110212 0.88964802 4278190080
0.26586699 0.0849609 0.93652302 4278190080
0.26074201 0.0849609 0.94028503 4278190080
0.32102001 0.114258 0.883789 4278190080
0.319336 0.114258 0.88546801 4278190080
0.32519501 0.116693 0.883789 4278190080
0.290039 0.102539 0.907058 4278190080
0.29680401 0.102539 0.90136701 4278190080
0.29589799 0.102539 0.90198302 4278190080
0.283678 0.096679702 0.913086 4278190080
0.28417999 0.098012201 0.913086 4278190080
0.47644499 0.0849609 0.92480499 4278190080
0.477539 0.0858045 0.92480499 4278190080
0.477539 0.0849609 0.92630899 4278190080
0.48339799 0.087962501 0.92480499 4278190080
0.48925799 0.089199997 0.92480499 4278190080
0.49511701 0.089625098 0.92480499 4278190080
0.50097698 0.090449996 0.92480499 4278190080
0.56542999 0.111442 0.90722698 4278190080
0.51411301 0.096679702 0.90136701 4278190080
0.51855499 0.0988959 0.90136701 4278190080
0.524414 0.099724703 0.90136701 4278190080
0.53027302 0.100391 0.90136701 4278190080
0.27638701 0.090820298 0.92480499 4278190080
0.272461 0.090820298 0.92997199 4278190080
0.57947397 0.114258 0.883789 4278190080
0.58300799 0.116127 0.883789 4278190080
0.58886701 0.117663 0.883789 4278190080
0.552661 0.108398 0.883789 4278190080
0.553711 0.109211 0.883789 4278190080
0.553711 0.108398 0.88537902 4278190080
0.55957001 0.110987 0.883789 4278190080
0.53372902 0.102539 0.89550799 4278190080
0.53613299 0.103934 0.89550799 4278190080
0.54199201 0.105005 0.89550799 4278190080
0.54785198 0.105765 0.89550799 4278190080
0.553711 0.107626 0.89550799 4278190080
0.499823 0.090820298 0.91894501 4278190080
0.50097698 0.091191098 0.91894501 4278190080
0.50097698 0.090820298 0.92168802 4278190080
0.506836 0.093316004 0.91894501 4278190080
0.51269501 0.094650097 0.91894501 4278190080
0.25996399 0.0849609 0.94238299 4278190080
0.315992 0.114258 0.88964802 4278190080
0.31347701 0.114258 0.89269698 4278190080
0.319336 0.115874 0.88964802 4278190080
0.32519501 0.120081 0.88964802 4278190080
0.289895 0.102539 0.90722698 4278190080
0.290039 0.102625 0.90722698 4278190080
0.29589799 0.107135 0.90722698 4278190080
0.27969599 0.096679702 0.91894501 4278190080
0.27832001 0.096679702 0.92134798 4278190080
0.305062 0.108398 0.89550799 4278190080
0.30175799 0.108398 0.899562 4278190080
0.30761701 0.109961 0.89550799 4278190080
0.48041999 0.0849609 0.930664 4278190080
0.48339799 0.086794399 0.930664 4278190080
0.48925799 0.088831097 0.930664 4278190080
0.49511701 0.090100303 0.930664 4278190080
0.51643002 0.096679702 0.90722698 4278190080
0.51855499 0.0979608 0.90722698 4278190080
0.524414 0.099582799 0.90722698 4278190080
0.53027302 0.100783 0.90722698 4278190080
0.27185199 0.090820298 0.930664 4278190080
0.26660201 0.090820298 0.93611401 4278190080
0.272461 0.092560597 0.930664 4278190080
0.58004898 0.114258 0.88964802 4278190080
0.57714802 0.114258 0.893058 4278190080
0.58300799 0.115655 0.88964802 4278190080
0.58886701 0.117491 0.88964802 4278190080
0.53503698 0.102539 0.90136701 4278190080
0.53613299 0.103155 0.90136701 4278190080
0.54199201 0.105005 0.90136701 4278190080
0.54785198 0.106843 0.90136701 4278190080
0.55607301 0.108398 0.88964802 4278190080
0.55957001 0.110534 0.88964802 4278190080
0.50183898 0.090820298 0.92480499 4278190080
0.50097698 0.090820298 0.92688602 4278190080
0.506836 0.0927938 0.92480499 4278190080
0.27661401 0.096679702 0.92480499 4278190080
0.27832001 0.098638698 0.92480499 4278190080
0.25957099 0.0849609 0.94824201 4278190080
0.285658 0.102539 0.913086 4278190080
0.28417999 0.102539 0.915353 4278190080
0.290039 0.105652 0.913086 4278190080
0.31183299 0.114258 0.89550799 4278190080
0.31347701 0.115543 0.89550799 4278190080
0.319336 0.11783 0.89550799 4278190080
0.300749 0.108398 0.90136701 4278190080
0.30175799 0.109119 0.90136701 4278190080
0.30761701 0.113412 0.90136701 4278190080
0.51832902 0.096679702 0.913086 4278190080
0.51855499 0.096811697 0.913086 4278190080
0.524414 0.099913098 0.913086 4278190080
0.482602 0.0849609 0.93652302 4278190080
0.48339799 0.085520104 0.93652302 4278190080
0.48339799 0.0849609 0.94219899 4278190080
0.48925799 0.087724 0.93652302 4278190080
0.57554603 0.114258 0.89550799 4278190080
0.571289 0.114258 0.89806998 4278190080
0.57714802 0.115285 0.89550799 4278190080
0.266139 0.090820298 0.93652302 4278190080
0.26074201 0.090820298 0.94223201 4278190080
0.26660201 0.091403201 0.93652302 4278190080
0.55552101 0.108398 0.89550799 4278190080
0.553711 0.108398 0.89736497 4278190080
0.55957001 0.109863 0.89550799 4278190080
0.53327101 0.102539 0.90722698 4278190080
0.53027302 0.102539 0.91004097 4278190080
0.53613299 0.104029 0.90722698 4278190080
0.54199201 0.105304 0.90722698 4278190080
0.49801299 0.090820298 0.930664 4278190080
0.49511701 0.090820298 0.93268001 4278190080
0.50097698 0.0914459 0.930664 4278190080
0.27335 0.096679702 0.930664 4278190080
0.272461 0.096679702 0.932037 4278190080
