# .PCD v0.7 - Point Cloud Data file format
VERSION 0.7
FIELDS x y z rgb
SIZE 4 4 4 4
TYPE F F F U
COUNT 1 1 1 1
WIDTH 1147
HEIGHT 1
VIEWPOINT 0 0 0 1 0 0 0
POINTS 1147
DATA ascii
0.17285199 0.241997 0.82519501 4278190080
0.17285199 0.237305 0.82938099 4278190080
0.178711 0.24215899 0.82519501 4278190080
0.178711 0.237305 0.82985401 4278190080
0.18457 0.24260899 0.82519501 4278190080
0.18457 0.237305 0.83060801 4278190080
0.37792999 0.225586 0.85815501 4278190080
0.096679702 0.225586 0.84204602 4278190080
0.102539 0.225586 0.84113401 4278190080
0.108398 0.230543 0.836914 4278190080
0.108398 0.225586 0.840312 4278190080
0.114258 0.229571 0.836914 4278190080
0.114258 0.225586 0.83960003 4278190080
0.120117 0.22915401 0.836914 4278190080
0.120117 0.225586 0.83932102 4278190080
0.12597699 0.228736 0.836914 4278190080
0.12597699 0.225586 0.83922499 4278190080
0.131836 0.228361 0.836914 4278190080
0.131836 0.225586 0.83891898 4278190080
0.137695 0.22859 0.836914 4278190080
0.137695 0.225586 0.83923399 4278190080
0.143555 0.22846299 0.836914 4278190080
0.143555 0.225586 0.83924598 4278190080
0.149414 0.228449 0.836914 4278190080
0.149414 0.225586 0.83943099 4278190080
0.15527301 0.228884 0.836914 4278190080
0.15527301 0.225586 0.840029 4278190080
0.16113301 0.229381 0.836914 4278190080
0.16113301 0.225586 0.840819 4278190080
0.16699199 0.230085 0.836914 4278190080
0.16699199 0.225586 0.84123302 4278190080
0.17285199 0.230554 0.836914 4278190080
0.17285199 0.225586 0.84209901 4278190080
0.178711 0.23058499 0.836914 4278190080
0.178711 0.225586 0.84241599 4278190080
0.18457 0.229756 0.836914 4278190080
0.18457 0.225586 0.84109402 4278190080
0.108398 0.231445 0.83631599 4278190080
0.114258 0.231445 0.835639 4278190080
0.120117 0.231445 0.83533698 4278190080
0.12597699 0.23682 0.83105499 4278190080
0.12597699 0.231445 0.834943 4278190080
0.131836 0.236268 0.83105499 4278190080
0.131836 0.231445 0.83472502 4278190080
0.137695 0.236432 0.83105499 4278190080
0.137695 0.231445 0.834701 4278190080
0.143555 0.235861 0.83105499 4278190080
0.143555 0.231445 0.83449602 4278190080
0.149414 0.23529901 0.83105499 4278190080
0.149414 0.231445 0.83425701 4278190080
0.15527301 0.235175 0.83105499 4278190080
0.15527301 0.231445 0.83437401 4278190080
0.16113301 0.2353 0.83105499 4278190080
0.16113301 0.231445 0.83482701 4278190080
0.16699199 0.23556399 0.83105499 4278190080
0.16699199 0.231445 0.83549702 4278190080
0.17285199 0.235871 0.83105499 4278190080
0.17285199 0.231445 0.83602101 4278190080
0.178711 0.236127 0.83105499 4278190080
0.178711 0.231445 0.83599299 4278190080
0.18457 0.23679499 0.83105499 4278190080
0.18457 0.231445 0.83546901 4278190080
0.12597699 0.24902301 0.82440799 4278190080
0.131836 0.24902301 0.82305801 4278190080
0.137695 0.25393599 0.819336 4278190080
0.137695 0.24902301 0.82168198 4278190080
0.143555 0.25176701 0.819336 4278190080
0.143555 0.24902301 0.82098401 4278190080
0.149414 0.25101599 0.819336 4278190080
0.149414 0.24902301 0.82073098 4278190080
0.15527301 0.25020799 0.819336 4278190080
0.15527301 0.24902301 0.82021201 4278190080
0.16113301 0.24955 0.819336 4278190080
0.16113301 0.24902301 0.81976998 4278190080
0.16699199 0.249042 0.819336 4278190080
0.16699199 0.24902301 0.81935102 4278190080
0.17285199 0.249249 0.819336 4278190080
0.17285199 0.24902301 0.81952399 4278190080
0.178711 0.24904899 0.819336 4278190080
0.178711 0.24902301 0.819359 4278190080
0.18939599 0.24902301 0.819336 4278190080
0.18457 0.249323 0.819336 4278190080
0.18457 0.24902301 0.819628 4278190080
0.19043 0.243158 0.82519501 4278190080
0.20214801 0.237305 0.830383 4278190080
0.37792999 0.231445 0.85506499 4278190080
0.19043 0.24902301 0.81927598 4278190080
0.137695 0.25488299 0.81889802 4278190080
0.143555 0.25488299 0.81750602 4278190080
0.149414 0.25488299 0.81675702 4278190080
0.15527301 0.25909299 0.81347698 4278190080
0.15527301 0.25488299 0.81585002 4278190080
0.16113301 0.25735 0.81347698 4278190080
0.16113301 0.25488299 0.81515002 4278190080
0.16699199 0.25687599 0.81347698 4278190080
0.16699199 0.25488299 0.81479901 4278190080
0.17285199 0.256394 0.81347698 4278190080
0.17285199 0.25488299 0.814533 4278190080
0.178711 0.25569999 0.81347698 4278190080
0.178711 0.25488299 0.81409597 4278190080
0.18457 0.25556299 0.81347698 4278190080
0.18457 0.25488299 0.81401098 4278190080
0.19043 0.25555101 0.81347698 4278190080
0.19043 0.25488299 0.81401002 4278190080
0.196289 0.255804 0.81347698 4278190080
0.196289 0.25488299 0.81427801 4278190080
0.20214801 0.25606301 0.81347698 4278190080
0.20214801 0.25488299 0.81462997 4278190080
0.20800801 0.25633001 0.81347698 4278190080
0.20800801 0.25488299 0.81484699 4278190080
0.21386699 0.25686601 0.81347698 4278190080
0.21386699 0.25488299 0.81548297 4278190080
0.21972699 0.25756699 0.81347698 4278190080
0.21972699 0.25488299 0.81625199 4278190080
0.225586 0.25807399 0.81347698 4278190080
0.225586 0.25488299 0.81684703 4278190080
0.231445 0.25810301 0.81347698 4278190080
0.231445 0.25488299 0.81645799 4278190080
0.237305 0.257052 0.81347698 4278190080
0.237305 0.25488299 0.81496799 4278190080
0.243164 0.257135 0.81347698 4278190080
0.243164 0.25488299 0.8154 4278190080
0.24902301 0.25758299 0.81347698 4278190080
0.24902301 0.25488299 0.81628501 4278190080
0.25488299 0.25788 0.81347698 4278190080
0.25488299 0.25488299 0.81708902 4278190080
0.26074201 0.25847599 0.81347698 4278190080
0.26074201 0.25488299 0.81745201 4278190080
0.26660201 0.260104 0.81347698 4278190080
0.26660201 0.25488299 0.818223 4278190080
0.27832001 0.26067701 0.81347698 4278190080
0.190512 0.243164 0.82519501 4278190080
0.196289 0.243623 0.82519501 4278190080
0.196289 0.243164 0.82567501 4278190080
0.20214801 0.243568 0.82519501 4278190080
0.20214801 0.243164 0.82556802 4278190080
0.20800801 0.24373201 0.82519501 4278190080
0.20800801 0.243164 0.82562602 4278190080
0.21386699 0.24358401 0.82519501 4278190080
0.21386699 0.243164 0.82556701 4278190080
0.21972699 0.24385799 0.82519501 4278190080
0.21972699 0.243164 0.82591999 4278190080
0.225586 0.245948 0.82519501 4278190080
0.225586 0.243164 0.82797098 4278190080
0.231445 0.248125 0.82519501 4278190080
0.231445 0.243164 0.83004397 4278190080
0.237305 0.24766301 0.82519501 4278190080
0.243164 0.247155 0.82519501 4278190080
0.243164 0.243164 0.830446 4278190080
0.24902301 0.246712 0.82519501 4278190080
0.24902301 0.243164 0.82876998 4278190080
0.25488299 0.248347 0.82519501 4278190080
0.25488299 0.243164 0.83019698 4278190080
0.19043 0.231445 0.836101 4278190080
0.20214801 0.23677 0.83105499 4278190080
0.38069001 0.225586 0.86035198 4278190080
0.383789 0.225586 0.86191499 4278190080
0.19043 0.23051099 0.836914 4278190080
0.19043 0.225586 0.84162599 4278190080
0.0849609 0.231445 0.84201002 4278190080
0.090820298 0.231445 0.84013098 4278190080
0.096679702 0.235688 0.836914 4278190080
0.096679702 0.231445 0.83861899 4278190080
0.10506 0.231445 0.836914 4278190080
0.102539 0.2324 0.836914 4278190080
0.102539 0.231445 0.83737099 4278190080
0.114258 0.243164 0.82918501 4278190080
0.120117 0.243164 0.82796401 4278190080
0.12597699 0.24709301 0.82519501 4278190080
0.12597699 0.243164 0.82687497 4278190080
0.131836 0.244931 0.82519501 4278190080
0.131836 0.243164 0.82613498 4278190080
0.137695 0.24371301 0.82519501 4278190080
0.137695 0.243164 0.82555699 4278190080
0.143555 0.24327099 0.82519501 4278190080
0.143555 0.243164 0.82527798 4278190080
0.15044899 0.243164 0.82519501 4278190080
0.149414 0.24328101 0.82519501 4278190080
0.149414 0.243164 0.825288 4278190080
0.067382798 0.225586 0.84848601 4278190080
0.073242202 0.225586 0.84704399 4278190080
0.0791016 0.225586 0.84555298 4278190080
0.0849609 0.22953799 0.84277302 4278190080
0.0849609 0.225586 0.84430802 4278190080
0.091443896 0.225586 0.84277302 4278190080
0.090820298 0.225767 0.84277302 4278190080
0.090820298 0.225586 0.842857 4278190080
0.096679702 0.24902301 0.83007699 4278190080
0.102539 0.24902301 0.82911497 4278190080
0.108398 0.25437999 0.82519501 4278190080
0.108398 0.24902301 0.82838702 4278190080
0.114258 0.25275701 0.82519501 4278190080
0.114258 0.24902301 0.82719499 4278190080
0.12299 0.24902301 0.82519501 4278190080
0.120117 0.250797 0.82519501 4278190080
0.120117 0.24902301 0.825966 4278190080
0.37993601 0.231445 0.86035198 4278190080
0.383789 0.231445 0.86355901 4278190080
0.19043 0.237425 0.83105499 4278190080
0.19043 0.237305 0.83117998 4278190080
0.198048 0.237305 0.83105499 4278190080
0.196289 0.237608 0.83105499 4278190080
0.196289 0.237305 0.83133799 4278190080
0.206431 0.237305 0.83105499 4278190080
0.20800801 0.237546 0.83105499 4278190080
0.20800801 0.237305 0.831294 4278190080
0.21386699 0.238974 0.83105499 4278190080
0.21386699 0.237305 0.83316702 4278190080
0.21972699 0.239764 0.83105499 4278190080
0.21972699 0.237305 0.83447599 4278190080
0.225586 0.24067999 0.83105499 4278190080
0.225586 0.237305 0.83551502 4278190080
0.231445 0.24221499 0.83105499 4278190080
0.231445 0.237305 0.83632499 4278190080
0.243164 0.24280301 0.83105499 4278190080
0.24902301 0.241596 0.83105499 4278190080
0.25488299 0.242364 0.83105499 4278190080
0.25488299 0.237305 0.83657199 4278190080
0.191579 0.24902301 0.819336 4278190080
0.196289 0.249312 0.819336 4278190080
0.196289 0.24902301 0.81959897 4278190080
0.20214801 0.250101 0.819336 4278190080
0.20214801 0.24902301 0.820342 4278190080
0.20800801 0.250653 0.819336 4278190080
0.20800801 0.24902301 0.82100898 4278190080
0.21386699 0.250718 0.819336 4278190080
0.21386699 0.24902301 0.82075697 4278190080
0.21972699 0.25091001 0.819336 4278190080
0.21972699 0.24902301 0.82067698 4278190080
0.225586 0.252491 0.819336 4278190080
0.225586 0.24902301 0.82247502 4278190080
0.231445 0.25270399 0.819336 4278190080
0.231445 0.24902301 0.82419699 4278190080
0.237305 0.25160199 0.819336 4278190080
0.237305 0.24902301 0.82322502 4278190080
0.243164 0.25161299 0.819336 4278190080
0.243164 0.24902301 0.82296699 4278190080
0.24902301 0.252244 0.819336 4278190080
0.24902301 0.24902301 0.822981 4278190080
0.25488299 0.25315401 0.819336 4278190080
0.25488299 0.24902301 0.82450902 4278190080
0.26074201 0.25351 0.819336 4278190080
0.26660201 0.253782 0.819336 4278190080
0.096679702 0.237305 0.83626598 4278190080
0.102539 0.237305 0.83470201 4278190080
0.108398 0.237305 0.83322501 4278190080
0.114258 0.23930401 0.83105499 4278190080
0.114258 0.237305 0.83202398 4278190080
0.122842 0.237305 0.83105499 4278190080
0.120117 0.237794 0.83105499 4278190080
0.120117 0.237305 0.83134502 4278190080
0.189117 0.237305 0.83105499 4278190080
0.37792999 0.237305 0.85760403 4278190080
0.108398 0.25488299 0.82488501 4278190080
0.114258 0.25488299 0.82404 4278190080
0.120117 0.260726 0.819336 4278190080
0.120117 0.25488299 0.823376 4278190080
0.12597699 0.25956199 0.819336 4278190080
0.12597699 0.25488299 0.82234198 4278190080
0.13625699 0.25488299 0.819336 4278190080
0.131836 0.25818801 0.819336 4278190080
0.131836 0.25488299 0.82063901 4278190080
0.27047899 0.25488299 0.819336 4278190080
0.272461 0.25547701 0.819336 4278190080
0.272461 0.25488299 0.81992501 4278190080
0.27832001 0.25654 0.819336 4278190080
0.27832001 0.25488299 0.82130098 4278190080
0.28417999 0.25636399 0.819336 4278190080
0.28417999 0.25488299 0.82107103 4278190080
0.290039 0.25668901 0.819336 4278190080
0.290039 0.25488299 0.82095897 4278190080
0.29589799 0.257552 0.819336 4278190080
0.29589799 0.25488299 0.821778 4278190080
0.30175799 0.25793299 0.819336 4278190080
0.30175799 0.25488299 0.82258201 4278190080
0.30761701 0.25745001 0.819336 4278190080
0.30761701 0.25488299 0.82222199 4278190080
0.31347701 0.25896901 0.819336 4278190080
0.31347701 0.25488299 0.822613 4278190080
0.319336 0.25488299 0.82429898 4278190080
0.193801 0.231445 0.836914 4278190080
0.196289 0.232049 0.836914 4278190080
0.196289 0.231445 0.83753002 4278190080
0.20214801 0.23241299 0.836914 4278190080
0.20214801 0.231445 0.83826703 4278190080
0.20800801 0.23248801 0.836914 4278190080
0.20800801 0.231445 0.838211 4278190080
0.21386699 0.233629 0.836914 4278190080
0.21386699 0.231445 0.83894402 4278190080
0.21972699 0.234883 0.836914 4278190080
0.21972699 0.231445 0.84021997 4278190080
0.225586 0.23610599 0.836914 4278190080
0.225586 0.231445 0.84182 4278190080
0.231445 0.236737 0.836914 4278190080
0.25488299 0.237004 0.836914 4278190080
0.236416 0.243164 0.83105499 4278190080
0.238938 0.243164 0.83105499 4278190080
0.237305 0.243338 0.83105499 4278190080
0.237305 0.243164 0.83125103 4278190080
0.257718 0.243164 0.83105499 4278190080
0.26074201 0.244023 0.83105499 4278190080
0.26074201 0.243164 0.831918 4278190080
0.26660201 0.24453799 0.83105499 4278190080
0.26660201 0.243164 0.83269 4278190080
0.272461 0.244102 0.83105499 4278190080
0.272461 0.243164 0.83209002 4278190080
0.27832001 0.24471401 0.83105499 4278190080
0.27832001 0.243164 0.832528 4278190080
0.28417999 0.24624699 0.83105499 4278190080
0.28417999 0.243164 0.834252 4278190080
0.290039 0.246392 0.83105499 4278190080
0.290039 0.243164 0.8351 4278190080
0.29589799 0.246279 0.83105499 4278190080
0.29589799 0.243164 0.834957 4278190080
0.30175799 0.246721 0.83105499 4278190080
0.30175799 0.243164 0.83435601 4278190080
0.30761701 0.247896 0.83105499 4278190080
0.30761701 0.243164 0.83570498 4278190080
0.31347701 0.248217 0.83105499 4278190080
0.319336 0.24803901 0.83105499 4278190080
0.32519501 0.243164 0.83687901 4278190080
0.38526401 0.225586 0.866211 4278190080
0.38964799 0.225586 0.87080699 4278190080
0.19354799 0.225586 0.84277302 4278190080
0.196289 0.226478 0.84277302 4278190080
0.196289 0.225586 0.84371001 4278190080
0.20214801 0.227855 0.84277302 4278190080
0.20214801 0.225586 0.845384 4278190080
0.20800801 0.22719701 0.84277302 4278190080
0.20800801 0.225586 0.84457397 4278190080
0.21386699 0.226675 0.84277302 4278190080
0.21386699 0.225586 0.84376001 4278190080
0.21972699 0.22863001 0.84277302 4278190080
0.21972699 0.225586 0.84541899 4278190080
0.225586 0.23052 0.84277302 4278190080
0.225586 0.225586 0.847444 4278190080
0.38541099 0.231445 0.866211 4278190080
0.38964799 0.231445 0.87156999 4278190080
0.0615234 0.231445 0.846856 4278190080
0.067382798 0.231445 0.845249 4278190080
0.073242202 0.234117 0.84277302 4278190080
0.073242202 0.231445 0.84411597 4278190080
0.081906699 0.231445 0.84277302 4278190080
0.0791016 0.23261499 0.84277302 4278190080
0.0791016 0.231445 0.843436 4278190080
0.234503 0.237305 0.836914 4278190080
0.237305 0.237849 0.836914 4278190080
0.237305 0.237305 0.837466 4278190080
0.243164 0.23872501 0.836914 4278190080
0.243164 0.237305 0.83881003 4278190080
0.25371 0.237305 0.836914 4278190080
0.24902301 0.238318 0.836914 4278190080
0.24902301 0.237305 0.83848202 4278190080
0.25824901 0.237305 0.836914 4278190080
0.26074201 0.23756801 0.836914 4278190080
0.26074201 0.237305 0.83716899 4278190080
0.26660201 0.23932301 0.836914 4278190080
0.26660201 0.237305 0.838844 4278190080
0.272461 0.23981801 0.836914 4278190080
0.272461 0.237305 0.84007198 4278190080
0.27832001 0.23946799 0.836914 4278190080
0.27832001 0.237305 0.84008098 4278190080
0.28417999 0.240431 0.836914 4278190080
0.28417999 0.237305 0.840379 4278190080
0.290039 0.24164499 0.836914 4278190080
0.290039 0.237305 0.84175801 4278190080
0.29589799 0.24166299 0.836914 4278190080
0.29589799 0.237305 0.84241498 4278190080
0.30175799 0.241053 0.836914 4278190080
0.30175799 0.237305 0.84248698 4278190080
0.30761701 0.241989 0.836914 4278190080
0.30761701 0.237305 0.84214902 4278190080
0.32519501 0.243128 0.836914 4278190080
0.25883901 0.24902301 0.82519501 4278190080
0.26074201 0.249293 0.82519501 4278190080
0.26074201 0.24902301 0.82552201 4278190080
0.26660201 0.24919701 0.82519501 4278190080
0.26660201 0.24902301 0.82544398 4278190080
0.272461 0.24949899 0.82519501 4278190080
0.272461 0.24902301 0.82573599 4278190080
0.27832001 0.25096899 0.82519501 4278190080
0.27832001 0.24902301 0.82704002 4278190080
0.28417999 0.25112 0.82519501 4278190080
0.28417999 0.24902301 0.82758301 4278190080
0.290039 0.25063699 0.82519501 4278190080
0.290039 0.24902301 0.82713902 4278190080
0.29589799 0.251259 0.82519501 4278190080
0.29589799 0.24902301 0.827609 4278190080
0.30175799 0.25251001 0.82519501 4278190080
0.30175799 0.24902301 0.828857 4278190080
0.30761701 0.25259399 0.82519501 4278190080
0.30761701 0.24902301 0.82975399 4278190080
0.31347701 0.25251701 0.82519501 4278190080
0.31347701 0.24902301 0.82996899 4278190080
0.319336 0.25384799 0.82519501 4278190080
0.319336 0.24902301 0.82991701 4278190080
0.049804699 0.225586 0.85259902 4278190080
0.0556641 0.225586 0.850559 4278190080
0.066678897 0.225586 0.84863299 4278190080
0.0615234 0.227769 0.84863299 4278190080
0.0615234 0.225586 0.84971797 4278190080
0.0849609 0.243164 0.83537602 4278190080
0.090820298 0.243164 0.83418697 4278190080
0.096679702 0.247181 0.83105499 4278190080
0.096679702 0.243164 0.83329898 4278190080
0.102539 0.245627 0.83105499 4278190080
0.102539 0.243164 0.83240598 4278190080
0.108514 0.243164 0.83105499 4278190080
0.108398 0.243241 0.83105499 4278190080
0.108398 0.243164 0.83108997 4278190080
0.0934982 0.24902301 0.83105499 4278190080
0.090820298 0.24902301 0.83186501 4278190080
0.073242202 0.237305 0.84125203 4278190080
0.0791016 0.237305 0.83990401 4278190080
0.0849609 0.24061801 0.836914 4278190080
0.0849609 0.237305 0.83895898 4278190080
0.094021097 0.237305 0.836914 4278190080
0.090820298 0.238616 0.836914 4278190080
0.090820298 0.237305 0.837699 4278190080
0.37792999 0.243164 0.85975301 4278190080
0.379379 0.237305 0.86035198 4278190080
0.383789 0.237305 0.86504501 4278190080
0.107252 0.25488299 0.82519501 4278190080
0.102539 0.25488299 0.826428 4278190080
0.32145 0.25488299 0.82519501 4278190080
0.32519501 0.25680801 0.82519501 4278190080
0.32519501 0.25488299 0.826689 4278190080
0.33105499 0.25890499 0.82519501 4278190080
0.33105499 0.25488299 0.82900298 4278190080
0.336914 0.25891799 0.82519501 4278190080
0.336914 0.25488299 0.83045101 4278190080
0.34277299 0.25858 0.82519501 4278190080
0.34277299 0.25488299 0.83021498 4278190080
0.34863299 0.25488299 0.82989001 4278190080
0.231416 0.231445 0.84277302 4278190080
0.231445 0.23145001 0.84277302 4278190080
0.231445 0.231445 0.84277803 4278190080
0.237305 0.231976 0.84277302 4278190080
0.237305 0.231445 0.84333801 4278190080
0.243164 0.233382 0.84277302 4278190080
0.243164 0.231445 0.84453499 4278190080
0.24902301 0.23363601 0.84277302 4278190080
0.24902301 0.231445 0.84520501 4278190080
0.25488299 0.23270801 0.84277302 4278190080
0.25488299 0.231445 0.84457499 4278190080
0.26074201 0.232521 0.84277302 4278190080
0.26074201 0.231445 0.84429997 4278190080
0.26660201 0.233697 0.84277302 4278190080
0.26660201 0.231445 0.84528798 4278190080
0.272461 0.234908 0.84277302 4278190080
0.272461 0.231445 0.846591 4278190080
0.27832001 0.23524401 0.84277302 4278190080
0.27832001 0.231445 0.847215 4278190080
0.28417999 0.23503099 0.84277302 4278190080
0.28417999 0.231445 0.84701198 4278190080
0.290039 0.236139 0.84277302 4278190080
0.290039 0.231445 0.84693599 4278190080
0.29589799 0.236984 0.84277302 4278190080
0.29589799 0.231445 0.84835303 4278190080
0.30175799 0.237092 0.84277302 4278190080
0.30761701 0.236726 0.84277302 4278190080
0.31347701 0.231445 0.84829497 4278190080
0.39052299 0.225586 0.87207001 4278190080
0.31297499 0.243164 0.836914 4278190080
0.31347701 0.243273 0.836914 4278190080
0.31347701 0.243164 0.83703101 4278190080
0.324332 0.243164 0.836914 4278190080
0.319336 0.243352 0.836914 4278190080
0.319336 0.243164 0.83715099 4278190080
0.32538801 0.243164 0.836914 4278190080
0.33105499 0.24434701 0.836914 4278190080
0.33105499 0.243164 0.83796901 4278190080
0.336914 0.24707299 0.836914 4278190080
0.336914 0.243164 0.83962101 4278190080
0.34277299 0.249011 0.836914 4278190080
0.34277299 0.243164 0.84169501 4278190080
0.37792999 0.24902301 0.86316299 4278190080
0.230342 0.225586 0.84863299 4278190080
0.231445 0.22587501 0.84863299 4278190080
0.231445 0.225586 0.84892398 4278190080
0.237305 0.226648 0.84863299 4278190080
0.237305 0.225586 0.849733 4278190080
0.243164 0.227662 0.84863299 4278190080
0.243164 0.225586 0.85104001 4278190080
0.24902301 0.22863901 0.84863299 4278190080
0.24902301 0.225586 0.85185802 4278190080
0.25488299 0.228707 0.84863299 4278190080
0.25488299 0.225586 0.85256302 4278190080
0.26074201 0.228723 0.84863299 4278190080
0.26074201 0.225586 0.85273802 4278190080
0.26660201 0.228284 0.84863299 4278190080
0.26660201 0.225586 0.85185301 4278190080
0.272461 0.228909 0.84863299 4278190080
0.272461 0.225586 0.85134798 4278190080
0.27832001 0.230057 0.84863299 4278190080
0.27832001 0.225586 0.852817 4278190080
0.28417999 0.230187 0.84863299 4278190080
0.28417999 0.225586 0.85369998 4278190080
0.290039 0.22993 0.84863299 4278190080
0.290039 0.225586 0.85387599 4278190080
0.29589799 0.231148 0.84863299 4278190080
0.29589799 0.225586 0.85373902 4278190080
0.31347701 0.231179 0.84863299 4278190080
0.390172 0.231445 0.87207001 4278190080
0.38964799 0.23277 0.87207001 4278190080
0.32401201 0.24902301 0.83105499 4278190080
0.32519501 0.249328 0.83105499 4278190080
0.32519501 0.24902301 0.83132398 4278190080
0.33105499 0.25208399 0.83105499 4278190080
0.33105499 0.24902301 0.83320498 4278190080
0.336914 0.25427899 0.83105499 4278190080
0.336914 0.24902301 0.83542901 4278190080
0.34277299 0.25421101 0.83105499 4278190080
0.34277299 0.24902301 0.83690202 4278190080
0.34863299 0.25384501 0.83105499 4278190080
0.31250501 0.237305 0.84277302 4278190080
0.31347701 0.237422 0.84277302 4278190080
0.31347701 0.237305 0.84288901 4278190080
0.319336 0.238115 0.84277302 4278190080
0.319336 0.237305 0.84359097 4278190080
0.32519501 0.23784199 0.84277302 4278190080
0.32519501 0.237305 0.84341198 4278190080
0.33105499 0.238204 0.84277302 4278190080
0.33105499 0.237305 0.84375399 4278190080
0.336914 0.23973501 0.84277302 4278190080
0.336914 0.237305 0.84527999 4278190080
0.34277299 0.242108 0.84277302 4278190080
0.34277299 0.237305 0.847821 4278190080
0.081142403 0.243164 0.836914 4278190080
0.0791016 0.243164 0.837699 4278190080
0.056748599 0.231445 0.84863299 4278190080
0.0556641 0.231445 0.84901899 4278190080
0.37856099 0.243164 0.86035198 4278190080
0.37792999 0.244241 0.86035198 4278190080
0.0697008 0.237305 0.84277302 4278190080
0.067382798 0.237305 0.84370601 4278190080
0.384884 0.237305 0.866211 4278190080
0.383789 0.239647 0.866211 4278190080
0.35111701 0.25488299 0.83105499 4278190080
0.35449201 0.25488299 0.83229899 4278190080
0.298002 0.231445 0.84863299 4278190080
0.30175799 0.23194499 0.84863299 4278190080
0.30175799 0.231445 0.84913599 4278190080
0.30981001 0.231445 0.84863299 4278190080
0.30761701 0.23165099 0.84863299 4278190080
0.30761701 0.231445 0.84887099 4278190080
0.31505901 0.231445 0.84863299 4278190080
0.319336 0.23239 0.84863299 4278190080
0.319336 0.231445 0.84957701 4278190080
0.32519501 0.233568 0.84863299 4278190080
0.32519501 0.231445 0.85123301 4278190080
0.33105499 0.233996 0.84863299 4278190080
0.33105499 0.231445 0.85235202 4278190080
0.336914 0.234753 0.84863299 4278190080
0.336914 0.231445 0.85351902 4278190080
0.34277299 0.236559 0.84863299 4278190080
0.37207001 0.231445 0.85380399 4278190080
0.39233601 0.225586 0.87792999 4278190080
0.39550799 0.225586 0.88245201 4278190080
0.30002999 0.225586 0.85449201 4278190080
0.30175799 0.22592101 0.85449201 4278190080
0.30175799 0.225586 0.85479802 4278190080
0.30761701 0.226979 0.85449201 4278190080
0.30761701 0.225586 0.856071 4278190080
0.31347701 0.227222 0.85449201 4278190080
0.31347701 0.225586 0.856947 4278190080
0.319336 0.22763801 0.85449201 4278190080
0.319336 0.225586 0.85742998 4278190080
0.32519501 0.228938 0.85449201 4278190080
0.32519501 0.225586 0.858917 4278190080
0.33105499 0.22990499 0.85449201 4278190080
0.33105499 0.225586 0.86001199 4278190080
0.336914 0.230691 0.85449201 4278190080
0.34863299 0.225586 0.86029899 4278190080
0.35449201 0.225586 0.85993803 4278190080
0.36035201 0.225586 0.85935801 4278190080
0.366211 0.225586 0.858585 4278190080
0.37207001 0.230579 0.85449201 4278190080
0.37207001 0.225586 0.85786498 4278190080
0.392961 0.231445 0.87792999 4278190080
0.39550799 0.231445 0.88104498 4278190080
0.34609801 0.243164 0.84277302 4278190080
0.34863299 0.244083 0.84277302 4278190080
0.34863299 0.243164 0.84366101 4278190080
0.35449201 0.245023 0.84277302 4278190080
0.35449201 0.243164 0.845034 4278190080
0.36035201 0.246246 0.84277302 4278190080
0.36035201 0.243164 0.84620202 4278190080
0.366211 0.243164 0.84755999 4278190080
0.381217 0.24902301 0.866211 4278190080
0.383789 0.24902301 0.871997 4278190080
0.343052 0.24902301 0.836914 4278190080
0.34863299 0.24922501 0.836914 4278190080
0.34863299 0.24902301 0.83716899 4278190080
0.35449201 0.24942 0.836914 4278190080
0.35449201 0.24902301 0.83742201 4278190080
0.36035201 0.24902301 0.84103298 4278190080
0.34531 0.237305 0.84863299 4278190080
0.34863299 0.238378 0.84863299 4278190080
0.34863299 0.237305 0.84974098 4278190080
0.35449201 0.23991001 0.84863299 4278190080
0.35449201 0.237305 0.851219 4278190080
0.36035201 0.24071699 0.84863299 4278190080
0.36035201 0.237305 0.85199201 4278190080
0.366211 0.241089 0.84863299 4278190080
0.366211 0.237305 0.85200799 4278190080
0.37207001 0.237305 0.85203397 4278190080
0.387871 0.237305 0.87207001 4278190080
0.38964799 0.237305 0.873932 4278190080
0.38175601 0.243164 0.866211 4278190080
0.383789 0.243164 0.86818397 4278190080
0.35605499 0.25488299 0.836914 4278190080
0.36035201 0.25488299 0.840868 4278190080
0.34119201 0.231445 0.85449201 4278190080
0.34277299 0.23171 0.85449201 4278190080
0.34277299 0.231445 0.85482901 4278190080
0.34863299 0.23256899 0.85449201 4278190080
0.34863299 0.231445 0.85564399 4278190080
0.35449201 0.233631 0.85449201 4278190080
0.35449201 0.231445 0.85650599 4278190080
0.36035201 0.23425201 0.85449201 4278190080
0.36035201 0.231445 0.85660201 4278190080
0.36949399 0.231445 0.85449201 4278190080
0.366211 0.232939 0.85449201 4278190080
0.366211 0.231445 0.85534102 4278190080
0.37458599 0.231445 0.85449201 4278190080
0.39660299 0.225586 0.883789 4278190080
0.39812401 0.231445 0.883789 4278190080
0.36682901 0.243164 0.84863299 4278190080
0.37207001 0.243164 0.85311598 4278190080
0.333969 0.225586 0.86035198 4278190080
0.336914 0.225881 0.86035198 4278190080
0.336914 0.225586 0.86070102 4278190080
0.347985 0.225586 0.86035198 4278190080
0.34277299 0.22600099 0.86035198 4278190080
0.34277299 0.225586 0.86079401 4278190080
0.38390201 0.24902301 0.87207001 4278190080
0.36119899 0.24902301 0.84277302 4278190080
0.366211 0.24902301 0.84744298 4278190080
0.38720199 0.243164 0.87207001 4278190080
0.38964799 0.243164 0.87573701 4278190080
0.373577 0.237305 0.85449201 4278190080
0.392923 0.237305 0.87792999 4278190080
0.39550799 0.237305 0.88375401 4278190080
0.361862 0.25488299 0.84277302 4278190080
0.39888299 0.225586 0.88964802 4278190080
0.372935 0.243164 0.85449201 4278190080
0.37207001 0.24699999 0.85449201 4278190080
0.40016201 0.231445 0.88964802 4278190080
0.40136701 0.231445 0.89246798 4278190080
0.367111 0.24902301 0.84863299 4278190080
0.366211 0.25234899 0.84863299 4278190080
0.39231801 0.243164 0.87792999 4278190080
0.36521801 0.25488299 0.84863299 4278190080
0.366211 0.25488299 0.84951198 4278190080
0.39555699 0.237305 0.883789 4278190080
0.39550799 0.237486 0.883789 4278190080
0.40057099 0.225586 0.89550799 4278190080
0.40136701 0.22781 0.89550799 4278190080
0.40440699 0.231445 0.89550799 4278190080
0.371234 0.24902301 0.85449201 4278190080
0.37207001 0.24902301 0.85520601 4278190080
0.36997101 0.25488299 0.85449201 4278190080
0.37207001 0.25488299 0.85718697 4278190080
0.375384 0.24902301 0.86035198 4278190080
0.40017501 0.225586 0.90136701 4278190080
0.37549999 0.25488299 0.86035198 4278190080
0.15527301 0.26074201 0.812585 4278190080
0.16113301 0.26074201 0.81120598 4278190080
0.16699199 0.26643401 0.80761701 4278190080
0.16699199 0.26074201 0.81094199 4278190080
0.17285199 0.26485699 0.80761701 4278190080
0.17285199 0.26074201 0.81039202 4278190080
0.178711 0.263778 0.80761701 4278190080
0.178711 0.26074201 0.80971098 4278190080
0.18457 0.263372 0.80761701 4278190080
0.18457 0.26074201 0.809389 4278190080
0.16699199 0.290039 0.79536599 4278190080
0.17285199 0.290039 0.793679 4278190080
0.178711 0.29568499 0.790039 4278190080
0.178711 0.290039 0.79272801 4278190080
0.18457 0.29301301 0.790039 4278190080
0.18457 0.290039 0.79214001 4278190080
0.16699199 0.26660201 0.80751801 4278190080
0.17285199 0.26660201 0.80651098 4278190080
0.178711 0.26660201 0.80568802 4278190080
0.18457 0.27175301 0.80175799 4278190080
0.18457 0.26660201 0.80533999 4278190080
0.18457 0.28417999 0.79571801 4278190080
0.18457 0.272461 0.80127603 4278190080
0.17285199 0.27832001 0.80090201 4278190080
0.178711 0.27832001 0.79944199 4278190080
0.18457 0.28373301 0.79589802 4278190080
0.18457 0.27832001 0.79805398 4278190080
0.16113301 0.272461 0.80638897 4278190080
0.16699199 0.272461 0.80450702 4278190080
0.17285199 0.27625 0.80175799 4278190080
0.17285199 0.272461 0.80328703 4278190080
0.181665 0.272461 0.80175799 4278190080
0.178711 0.273424 0.80175799 4278190080
0.178711 0.272461 0.80222499 4278190080
0.15527301 0.28417999 0.80093199 4278190080
0.16113301 0.28417999 0.79885501 4278190080
0.16699199 0.288784 0.79589802 4278190080
0.16699199 0.28417999 0.79800099 4278190080
0.17285199 0.28690699 0.79589802 4278190080
0.17285199 0.28417999 0.79775798 4278190080
0.183698 0.28417999 0.79589802 4278190080
0.178711 0.285649 0.79589802 4278190080
0.178711 0.28417999 0.79693401 4278190080
0.137695 0.26660201 0.813425 4278190080
0.143555 0.26660201 0.81267601 4278190080
0.149414 0.26660201 0.81171 4278190080
0.15527301 0.26660201 0.81028301 4278190080
0.166409 0.26660201 0.80761701 4278190080
0.16113301 0.269005 0.80761701 4278190080
0.16113301 0.26660201 0.808492 4278190080
0.120117 0.26074201 0.81932497 4278190080
0.12597699 0.26074201 0.81856298 4278190080
0.131836 0.26074201 0.81821102 4278190080
0.137695 0.26651999 0.81347698 4278190080
0.137695 0.26074201 0.81693202 4278190080
0.143555 0.264916 0.81347698 4278190080
0.143555 0.26074201 0.81531399 4278190080
0.151437 0.26074201 0.81347698 4278190080
0.149414 0.261976 0.81347698 4278190080
0.149414 0.26074201 0.81393498 4278190080
0.16586401 0.290039 0.79589802 4278190080
0.16113301 0.290039 0.79806101 4278190080
0.143555 0.27832001 0.80670297 4278190080
0.149414 0.27832001 0.80413699 4278190080
0.15527301 0.28185201 0.80175799 4278190080
0.15527301 0.27832001 0.80320102 4278190080
0.16113301 0.27986801 0.80175799 4278190080
0.16113301 0.27832001 0.802885 4278190080
0.16838799 0.27832001 0.80175799 4278190080
0.16699199 0.27871701 0.80175799 4278190080
0.16699199 0.27832001 0.80203801 4278190080
0.137695 0.272461 0.80982298 4278190080
0.143555 0.27573499 0.80761701 4278190080
0.143555 0.272461 0.80886501 4278190080
0.149414 0.27336201 0.80761701 4278190080
0.149414 0.272461 0.80829901 4278190080
0.155277 0.272461 0.80761701 4278190080
0.15527301 0.27246201 0.80761701 4278190080
0.15527301 0.272461 0.80761802 4278190080
0.153423 0.28417999 0.80175799 4278190080
0.149414 0.28417999 0.80356902 4278190080
0.12597699 0.26660201 0.81550097 4278190080
0.137251 0.26660201 0.81347698 4278190080
0.131836 0.26826701 0.81347698 4278190080
0.131836 0.26660201 0.81410301 4278190080
0.120085 0.26074201 0.819336 4278190080
0.114258 0.26074201 0.82128 4278190080
0.141683 0.27832001 0.80761701 4278190080
0.24902301 0.290039 0.78388202 4278190080
0.25488299 0.290039 0.78332102 4278190080
0.26074201 0.295582 0.77832001 4278190080
0.26074201 0.290039 0.783279 4278190080
0.26660201 0.29528001 0.77832001 4278190080
0.26660201 0.290039 0.78355199 4278190080
0.272461 0.29553699 0.77832001 4278190080
0.272461 0.290039 0.78390503 4278190080
0.27832001 0.29559699 0.77832001 4278190080
0.27832001 0.290039 0.78412801 4278190080
0.20214801 0.27832001 0.79562801 4278190080
0.20800801 0.27832001 0.79509503 4278190080
0.21386699 0.27832001 0.79439598 4278190080
0.21972699 0.27832001 0.79429698 4278190080
0.225586 0.283604 0.790039 4278190080
0.225586 0.27832001 0.79399198 4278190080
0.231445 0.28333601 0.790039 4278190080
0.231445 0.27832001 0.79386902 4278190080
0.237305 0.28312099 0.790039 4278190080
0.237305 0.27832001 0.79372299 4278190080
0.243164 0.28268301 0.790039 4278190080
0.243164 0.27832001 0.79386401 4278190080
0.24902301 0.28253001 0.790039 4278190080
0.24902301 0.27832001 0.79372197 4278190080
0.25488299 0.28281301 0.790039 4278190080
0.25488299 0.27832001 0.79432499 4278190080
0.26074201 0.28318301 0.790039 4278190080
0.26074201 0.27832001 0.79542297 4278190080
0.26660201 0.28383899 0.790039 4278190080
0.26660201 0.27832001 0.79562497 4278190080
0.27832001 0.27832001 0.79539597 4278190080
0.28417999 0.28370801 0.790039 4278190080
0.28417999 0.27832001 0.79458898 4278190080
0.290039 0.27832001 0.79497701 4278190080
0.19043 0.272461 0.800583 4278190080
0.196289 0.272461 0.80019498 4278190080
0.20214801 0.277915 0.79589802 4278190080
0.20214801 0.272461 0.79964101 4278190080
0.20800801 0.27714801 0.79589802 4278190080
0.20800801 0.272461 0.799137 4278190080
0.21386699 0.27644101 0.79589802 4278190080
0.21386699 0.272461 0.79909003 4278190080
0.21972699 0.276393 0.79589802 4278190080
0.21972699 0.272461 0.799187 4278190080
0.225586 0.27618 0.79589802 4278190080
0.225586 0.272461 0.79926503 4278190080
0.231445 0.276081 0.79589802 4278190080
0.231445 0.272461 0.79923302 4278190080
0.237305 0.27589801 0.79589802 4278190080
0.237305 0.272461 0.79921299 4278190080
0.243164 0.27635899 0.79589802 4278190080
0.243164 0.272461 0.800143 4278190080
0.24902301 0.276429 0.79589802 4278190080
0.24902301 0.272461 0.800515 4278190080
0.25488299 0.27689299 0.79589802 4278190080
0.25488299 0.272461 0.800861 4278190080
0.26074201 0.27777299 0.79589802 4278190080
0.26074201 0.272461 0.80053502 4278190080
0.26660201 0.277935 0.79589802 4278190080
0.26660201 0.272461 0.79973298 4278190080
0.272461 0.272461 0.79988599 4278190080
0.27832001 0.27782699 0.79589802 4278190080
0.27832001 0.272461 0.80144799 4278190080
0.28417999 0.277197 0.79589802 4278190080
0.28417999 0.272461 0.80158198 4278190080
0.290039 0.27726501 0.79589802 4278190080
0.290039 0.272461 0.800744 4278190080
0.225586 0.28417999 0.78960198 4278190080
0.231445 0.28417999 0.78938699 4278190080
0.237305 0.28417999 0.78918099 4278190080
0.243164 0.28417999 0.788679 4278190080
0.24902301 0.28967199 0.78417999 4278190080
0.24902301 0.28417999 0.78861201 4278190080
0.25488299 0.28906101 0.78417999 4278190080
0.25488299 0.28417999 0.78869897 4278190080
0.26074201 0.289096 0.78417999 4278190080
0.26074201 0.28417999 0.78894597 4278190080
0.26660201 0.28942099 0.78417999 4278190080
0.26660201 0.28417999 0.78966999 4278190080
0.272461 0.28977299 0.78417999 4278190080
0.27832001 0.28998801 0.78417999 4278190080
0.28417999 0.28417999 0.78969097 4278190080
0.19043 0.27088001 0.80175799 4278190080
0.19043 0.26660201 0.80498803 4278190080
0.196289 0.27031401 0.80175799 4278190080
0.196289 0.26660201 0.80462801 4278190080
0.20214801 0.26966 0.80175799 4278190080
0.20214801 0.26660201 0.80417901 4278190080
0.20800801 0.26920199 0.80175799 4278190080
0.20800801 0.26660201 0.80381298 4278190080
0.21386699 0.26940399 0.80175799 4278190080
0.21386699 0.26660201 0.804115 4278190080
0.21972699 0.269463 0.80175799 4278190080
0.21972699 0.26660201 0.80413997 4278190080
0.225586 0.26966599 0.80175799 4278190080
0.225586 0.26660201 0.80456799 4278190080
0.231445 0.269963 0.80175799 4278190080
0.231445 0.26660201 0.80529201 4278190080
0.237305 0.270271 0.80175799 4278190080
0.237305 0.26660201 0.805888 4278190080
0.243164 0.270899 0.80175799 4278190080
0.243164 0.26660201 0.80598903 4278190080
0.24902301 0.27092999 0.80175799 4278190080
0.24902301 0.26660201 0.80524403 4278190080
0.25488299 0.27127701 0.80175799 4278190080
0.25488299 0.26660201 0.80500001 4278190080
0.26074201 0.27105501 0.80175799 4278190080
0.26074201 0.26660201 0.80565399 4278190080
0.26660201 0.27046499 0.80175799 4278190080
0.26660201 0.26660201 0.80641901 4278190080
0.272461 0.27073601 0.80175799 4278190080
0.272461 0.26660201 0.80725402 4278190080
0.27832001 0.27219 0.80175799 4278190080
0.27832001 0.26660201 0.80754399 4278190080
0.28417999 0.272331 0.80175799 4278190080
0.290039 0.27174699 0.80175799 4278190080
0.19043 0.26315099 0.80761701 4278190080
0.19043 0.26074201 0.80944902 4278190080
0.196289 0.262802 0.80761701 4278190080
0.196289 0.26074201 0.80919302 4278190080
0.20214801 0.26253301 0.80761701 4278190080
0.20214801 0.26074201 0.80905497 4278190080
0.20800801 0.26265201 0.80761701 4278190080
0.20800801 0.26074201 0.80943102 4278190080
0.21386699 0.262817 0.80761701 4278190080
0.21386699 0.26074201 0.80966598 4278190080
0.21972699 0.26308 0.80761701 4278190080
0.21972699 0.26074201 0.810004 4278190080
0.225586 0.26377699 0.80761701 4278190080
0.225586 0.26074201 0.81074703 4278190080
0.231445 0.264386 0.80761701 4278190080
0.231445 0.26074201 0.811252 4278190080
0.237305 0.26465699 0.80761701 4278190080
0.237305 0.26074201 0.81099701 4278190080
0.243164 0.264512 0.80761701 4278190080
0.243164 0.26074201 0.81041902 4278190080
0.24902301 0.26368299 0.80761701 4278190080
0.24902301 0.26074201 0.80998099 4278190080
0.25488299 0.26349401 0.80761701 4278190080
0.25488299 0.26074201 0.81012499 4278190080
0.26074201 0.264698 0.80761701 4278190080
0.26074201 0.26074201 0.81122202 4278190080
0.26660201 0.26563999 0.80761701 4278190080
0.26660201 0.26074201 0.81283301 4278190080
0.272461 0.266305 0.80761701 4278190080
0.27832001 0.26651499 0.80761701 4278190080
0.27832001 0.26074201 0.81338 4278190080
0.20214801 0.290039 0.78907698 4278190080
0.20800801 0.290039 0.787745 4278190080
0.21386699 0.29481399 0.78417999 4278190080
0.21386699 0.290039 0.78665 4278190080
0.21972699 0.293125 0.78417999 4278190080
0.21972699 0.290039 0.78599602 4278190080
0.225586 0.29196501 0.78417999 4278190080
0.225586 0.290039 0.78553498 4278190080
0.231445 0.29128501 0.78417999 4278190080
0.231445 0.290039 0.78513199 4278190080
0.237305 0.29065299 0.78417999 4278190080
0.237305 0.290039 0.78464401 4278190080
0.244661 0.290039 0.78417999 4278190080
0.243164 0.290167 0.78417999 4278190080
0.243164 0.290039 0.78427899 4278190080
0.27912501 0.290039 0.78417999 4278190080
0.28417999 0.29036799 0.78417999 4278190080
0.28417999 0.290039 0.78449601 4278190080
0.290039 0.293349 0.78417999 4278190080
0.290039 0.290039 0.786237 4278190080
0.29589799 0.290039 0.78814799 4278190080
0.30175799 0.290039 0.78928101 4278190080
0.30761701 0.290039 0.78955799 4278190080
0.19043 0.28040001 0.79589802 4278190080
0.19043 0.27832001 0.79702598 4278190080
0.199733 0.27832001 0.79589802 4278190080
0.196289 0.27896699 0.79589802 4278190080
0.196289 0.27832001 0.79630101 4278190080
0.272293 0.27832001 0.79589802 4278190080
0.272558 0.27832001 0.79589802 4278190080
0.272461 0.27832901 0.79589802 4278190080
0.272461 0.27832001 0.79590601 4278190080
0.292878 0.27832001 0.79589802 4278190080
0.29589799 0.27948299 0.79589802 4278190080
0.29589799 0.27832001 0.796826 4278190080
0.30175799 0.282251 0.79589802 4278190080
0.30175799 0.27832001 0.79904801 4278190080
0.30761701 0.28380001 0.79589802 4278190080
0.30761701 0.27832001 0.80163401 4278190080
0.31347701 0.283934 0.79589802 4278190080
0.29453099 0.272461 0.80175799 4278190080
0.29589799 0.27274701 0.80175799 4278190080
0.29589799 0.272461 0.80203402 4278190080
0.30175799 0.27508101 0.80175799 4278190080
0.30175799 0.272461 0.803976 4278190080
0.30761701 0.27818099 0.80175799 4278190080
0.30761701 0.272461 0.80620003 4278190080
0.278712 0.26660201 0.80761701 4278190080
0.28417999 0.26755199 0.80761701 4278190080
0.28417999 0.26660201 0.80863601 4278190080
0.290039 0.26782101 0.80761701 4278190080
0.290039 0.26660201 0.80923498 4278190080
0.29589799 0.26768699 0.80761701 4278190080
0.29589799 0.26660201 0.80914402 4278190080
0.30175799 0.26836401 0.80761701 4278190080
0.30175799 0.26660201 0.80941701 4278190080
0.30761701 0.270639 0.80761701 4278190080
0.30761701 0.26660201 0.81077802 4278190080
0.31347701 0.26660201 0.81286597 4278190080
0.19043 0.28417999 0.79391497 4278190080
0.196289 0.28417999 0.79275 4278190080
0.20214801 0.28803501 0.790039 4278190080
0.20214801 0.28417999 0.79197598 4278190080
0.20800801 0.286194 0.790039 4278190080
0.20800801 0.28417999 0.79128498 4278190080
0.21386699 0.285009 0.790039 4278190080
0.21386699 0.28417999 0.79057199 4278190080
0.22053701 0.28417999 0.790039 4278190080
0.21972699 0.28428 0.790039 4278190080
0.21972699 0.28417999 0.79010898 4278190080
0.26981199 0.28417999 0.790039 4278190080
0.272461 0.28444901 0.790039 4278190080
0.272461 0.28417999 0.79034197 4278190080
0.27945799 0.28417999 0.790039 4278190080
0.27832001 0.28426901 0.790039 4278190080
0.27832001 0.28417999 0.79013002 4278190080
0.286443 0.28417999 0.790039 4278190080
0.290039 0.284861 0.790039 4278190080
0.290039 0.28417999 0.79055202 4278190080
0.29589799 0.287471 0.790039 4278190080
0.29589799 0.28417999 0.79231501 4278190080
0.30175799 0.28919101 0.790039 4278190080
0.30175799 0.28417999 0.794222 4278190080
0.30761701 0.289511 0.790039 4278190080
0.30761701 0.28417999 0.79546499 4278190080
0.31347701 0.28417999 0.79560602 4278190080
0.271602 0.26074201 0.81347698 4278190080
0.27576101 0.26074201 0.81347698 4278190080
0.272461 0.26085001 0.81347698 4278190080
0.272461 0.26074201 0.81358999 4278190080
0.27883199 0.26074201 0.81347698 4278190080
0.28417999 0.26162401 0.81347698 4278190080
0.28417999 0.26074201 0.81436002 4278190080
0.290039 0.26281199 0.81347698 4278190080
0.290039 0.26074201 0.81565201 4278190080
0.29589799 0.263147 0.81347698 4278190080
0.29589799 0.26074201 0.81618202 4278190080
0.30175799 0.26287499 0.81347698 4278190080
0.30175799 0.26074201 0.81608301 4278190080
0.30761701 0.26360899 0.81347698 4278190080
0.30761701 0.26074201 0.81623 4278190080
0.31347701 0.26581401 0.81347698 4278190080
0.31347701 0.26074201 0.81786799 4278190080
0.19043 0.29237199 0.790039 4278190080
0.19043 0.290039 0.79158503 4278190080
0.197808 0.290039 0.790039 4278190080
0.196289 0.29066899 0.790039 4278190080
0.196289 0.290039 0.79037499 4278190080
0.30958599 0.290039 0.790039 4278190080
0.31347701 0.29225001 0.790039 4278190080
0.31347701 0.290039 0.79088801 4278190080
0.319336 0.290039 0.79500598 4278190080
0.315065 0.26660201 0.81347698 4278190080
0.319336 0.26857001 0.81347698 4278190080
0.319336 0.26660201 0.81522101 4278190080
0.32519501 0.26900801 0.81347698 4278190080
0.32519501 0.26660201 0.81621999 4278190080
0.33105499 0.26863801 0.81347698 4278190080
0.33105499 0.26660201 0.81594402 4278190080
0.336914 0.26980501 0.81347698 4278190080
0.336914 0.26660201 0.81598699 4278190080
0.34277299 0.26660201 0.81909502 4278190080
0.308413 0.27832001 0.80175799 4278190080
0.31347701 0.279066 0.80175799 4278190080
0.31347701 0.27832001 0.80257303 4278190080
0.319336 0.27876401 0.80175799 4278190080
0.319336 0.27832001 0.80225497 4278190080
0.32519501 0.27970099 0.80175799 4278190080
0.32519501 0.27832001 0.80260903 4278190080
0.33105499 0.27832001 0.80692101 4278190080
0.31149301 0.272461 0.80761701 4278190080
0.31347701 0.273312 0.80761701 4278190080
0.31347701 0.272461 0.80835199 4278190080
0.319336 0.274032 0.80761701 4278190080
0.319336 0.272461 0.809439 4278190080
0.32519501 0.27373201 0.80761701 4278190080
0.32519501 0.272461 0.80922198 4278190080
0.33105499 0.27456501 0.80761701 4278190080
0.33105499 0.272461 0.80903202 4278190080
0.336914 0.272461 0.812895 4278190080
0.315249 0.28417999 0.79589802 4278190080
0.319336 0.28531101 0.79589802 4278190080
0.319336 0.28417999 0.79650599 4278190080
0.32519501 0.28417999 0.80084503 4278190080
0.32007501 0.290039 0.79589802 4278190080
0.319336 0.29493901 0.79589802 4278190080
0.31779599 0.26074201 0.819336 4278190080
0.319336 0.26137501 0.819336 4278190080
0.319336 0.26074201 0.81982303 4278190080
0.32519501 0.26364499 0.819336 4278190080
0.32519501 0.26074201 0.82195699 4278190080
0.33105499 0.26391199 0.819336 4278190080
0.33105499 0.26074201 0.82311797 4278190080
0.336914 0.26366299 0.819336 4278190080
0.336914 0.26074201 0.82280302 4278190080
0.34277299 0.26533499 0.819336 4278190080
0.34277299 0.26074201 0.82252198 4278190080
0.34294599 0.26660201 0.819336 4278190080
0.34277299 0.26734501 0.819336 4278190080
0.33159599 0.27832001 0.80761701 4278190080
0.33105499 0.280633 0.80761701 4278190080
0.33733001 0.272461 0.81347698 4278190080
0.336914 0.27511999 0.81347698 4278190080
0.32587299 0.28417999 0.80175799 4278190080
0.32519501 0.28790599 0.80175799 4278190080
0.324431 0.290039 0.80175799 4278190080
0.32519501 0.290039 0.80231899 4278190080
0.34825701 0.26074201 0.82519501 4278190080
0.34863299 0.26074201 0.82532799 4278190080
0.34596601 0.26660201 0.82519501 4278190080
0.34863299 0.26660201 0.82726997 4278190080
0.329559 0.28417999 0.80761701 4278190080
0.33105499 0.28417999 0.80878001 4278190080
0.33577499 0.27832001 0.81347698 4278190080
0.336914 0.27832001 0.814331 4278190080
0.34052199 0.272461 0.819336 4278190080
0.34277299 0.272461 0.82111698 4278190080
0.32896301 0.290039 0.80761701 4278190080
0.33105499 0.290039 0.80983502 4278190080
0.351367 0.26074201 0.83105499 4278190080
0.35449201 0.26074201 0.83359998 4278190080
0.35117999 0.26660201 0.83105499 4278190080
0.35449201 0.26660201 0.83492398 4278190080
0.334557 0.28417999 0.81347698 4278190080
0.336914 0.28417999 0.81611902 4278190080
0.345613 0.272461 0.82519501 4278190080
0.34863299 0.272461 0.828785 4278190080
0.34022799 0.27832001 0.819336 4278190080
0.34277299 0.27832001 0.82211298 4278190080
0.35657999 0.26074201 0.836914 4278190080
0.36035201 0.26074201 0.84166998 4278190080
0.35656399 0.26660201 0.836914 4278190080
0.35449201 0.27096701 0.836914 4278190080
0.340446 0.28417999 0.819336 4278190080
0.35106999 0.272461 0.83105499 4278190080
0.34585401 0.27832001 0.82519501 4278190080
0.361559 0.26074201 0.84277302 4278190080
0.36035201 0.26362801 0.84277302 4278190080
0.35937101 0.26660201 0.84277302 4278190080
0.36035201 0.26660201 0.84391803 4278190080
0.35388401 0.272461 0.836914 4278190080
0.364696 0.26074201 0.84863299 4278190080
0.366211 0.26074201 0.85030001 4278190080
0.18457 0.30175799 0.786744 4278190080
0.178711 0.29589799 0.78994501 4278190080
0.18457 0.29589799 0.788028 4278190080
0.178497 0.29589799 0.790039 4278190080
0.17285199 0.29589799 0.79250097 4278190080
0.26074201 0.29589799 0.77803302 4278190080
0.26660201 0.29589799 0.777713 4278190080
0.272461 0.29589799 0.77793401 4278190080
0.27832001 0.29589799 0.77802402 4278190080
0.25488299 0.31347701 0.76659298 4278190080
0.26074201 0.31347701 0.76596701 4278190080
0.26660201 0.31347701 0.76644701 4278190080
0.225586 0.30175799 0.77824801 4278190080
0.231445 0.30175799 0.77688402 4278190080
0.237305 0.30175799 0.775747 4278190080
0.243164 0.30617401 0.772461 4278190080
0.243164 0.30175799 0.77492797 4278190080
0.24902301 0.30482 0.772461 4278190080
0.24902301 0.30175799 0.77443898 4278190080
0.25488299 0.303653 0.772461 4278190080
0.25488299 0.30175799 0.77383 4278190080
0.26074201 0.30320501 0.772461 4278190080
0.26074201 0.30175799 0.773543 4278190080
0.26660201 0.302719 0.772461 4278190080
0.26660201 0.30175799 0.77318901 4278190080
0.272461 0.30258301 0.772461 4278190080
0.272461 0.30175799 0.77297598 4278190080
0.27832001 0.30175799 0.77409101 4278190080
0.28417999 0.30175799 0.777466 4278190080
0.237305 0.319336 0.766496 4278190080
0.243164 0.319336 0.76620299 4278190080
0.24902301 0.319336 0.76563299 4278190080
0.25488299 0.319336 0.76540899 4278190080
0.26074201 0.319336 0.76533997 4278190080
0.26660201 0.319336 0.76631498 4278190080
0.243164 0.30761701 0.77168 4278190080
0.24902301 0.30761701 0.770625 4278190080
0.25488299 0.31345901 0.76660198 4278190080
0.25488299 0.30761701 0.76968998 4278190080
0.26074201 0.31209901 0.76660198 4278190080
0.26074201 0.30761701 0.76912999 4278190080
0.26660201 0.31295899 0.76660198 4278190080
