# .PCD v0.7 - Point Cloud Data file format
VERSION 0.7
FIELDS x y z rgb
SIZE 4 4 4 4
TYPE F F F U
COUNT 1 1 1 1
WIDTH 1140
HEIGHT 1
VIEWPOINT 0 0 0 1 0 0 0
POINTS 1140
DATA ascii
0.28417999 0.170122 0.54394501 4278190080
0.178711 0.16699199 0.612755 4278190080
0.185359 0.16699199 0.60839802 4278190080
0.18457 0.169046 0.60839802 4278190080
0.18457 0.16699199 0.60890299 4278190080
0.14657401 0.16113301 0.631836 4278190080
0.143555 0.16113301 0.63405597 4278190080
0.149414 0.16445 0.631836 4278190080
0.26660201 0.16113301 0.548491 4278190080
0.273525 0.16113301 0.54394501 4278190080
0.272461 0.16113301 0.54461598 4278190080
0.298861 0.16113301 0.54394501 4278190080
0.30175799 0.161441 0.54394501 4278190080
0.30761701 0.16192999 0.54394501 4278190080
0.30761701 0.16113301 0.54883099 4278190080
0.31347701 0.162569 0.54394501 4278190080
0.319336 0.161887 0.54394501 4278190080
0.33105499 0.163471 0.54394501 4278190080
0.34277299 0.165076 0.54394501 4278190080
0.137695 0.15527301 0.63594198 4278190080
0.143948 0.15527301 0.631836 4278190080
0.143555 0.15527301 0.63211799 4278190080
0.37792999 0.164088 0.61425799 4278190080
0.383789 0.16395999 0.61425799 4278190080
0.38964799 0.164066 0.61425799 4278190080
0.39550799 0.164012 0.61425799 4278190080
0.40136701 0.164258 0.61425799 4278190080
0.40722701 0.165902 0.61425799 4278190080
0.413086 0.16562299 0.61425799 4278190080
0.266597 0.15527301 0.555664 4278190080
0.26074201 0.158535 0.555664 4278190080
0.26074201 0.15527301 0.55965501 4278190080
0.29408601 0.15527301 0.555664 4278190080
0.29589799 0.15857001 0.555664 4278190080
0.29589799 0.15527301 0.56146502 4278190080
0.30175799 0.16077 0.555664 4278190080
0.30761701 0.160896 0.555664 4278190080
0.27300701 0.149414 0.87792999 4278190080
0.27080399 0.16699199 0.54980499 4278190080
0.26660201 0.16699199 0.553469 4278190080
0.272461 0.16885801 0.54980499 4278190080
0.27832001 0.171039 0.54980499 4278190080
0.35515201 0.16699199 0.54980499 4278190080
0.35449201 0.16708399 0.54980499 4278190080
0.35449201 0.16699199 0.55023903 4278190080
0.28109699 0.17285199 0.54980499 4278190080
0.39332899 0.16699199 0.602539 4278190080
0.398965 0.16699199 0.602539 4278190080
0.39550799 0.168639 0.602539 4278190080
0.39550799 0.16699199 0.60425299 4278190080
0.40595299 0.16699199 0.602539 4278190080
0.40136701 0.16699199 0.60641801 4278190080
0.41032401 0.16699199 0.602539 4278190080
0.40722701 0.16726699 0.602539 4278190080
0.40722701 0.16699199 0.60402298 4278190080
0.418477 0.16699199 0.602539 4278190080
0.41894501 0.167025 0.602539 4278190080
0.42480499 0.16757201 0.602539 4278190080
0.430664 0.16793001 0.602539 4278190080
0.43652299 0.16835 0.602539 4278190080
0.17637099 0.16699199 0.61425799 4278190080
0.17285199 0.16699199 0.61676902 4278190080
0.49511701 0.17285199 0.63378799 4278190080
0.131836 0.16113301 0.64293802 4278190080
0.138025 0.16113301 0.63769501 4278190080
0.137695 0.16113301 0.63792598 4278190080
0.37792999 0.163699 0.62011701 4278190080
0.383789 0.16380399 0.62011701 4278190080
0.38964799 0.164068 0.62011701 4278190080
0.39550799 0.16470499 0.62011701 4278190080
0.40136701 0.165051 0.62011701 4278190080
0.40722701 0.16572 0.62011701 4278190080
0.413086 0.165922 0.62011701 4278190080
0.41894501 0.165564 0.62011701 4278190080
0.42480499 0.166565 0.62011701 4278190080
0.430664 0.166667 0.62011701 4278190080
0.26458001 0.16113301 0.54980499 4278190080
0.26074201 0.16113301 0.55278897 4278190080
0.26660201 0.16195001 0.54980499 4278190080
0.298722 0.16113301 0.54980499 4278190080
0.30698901 0.16113301 0.54980499 4278190080
0.30175799 0.16223601 0.54980499 4278190080
0.30175799 0.16113301 0.554362 4278190080
0.30957401 0.16113301 0.54980499 4278190080
0.31347701 0.161548 0.54980499 4278190080
0.319336 0.161483 0.54980499 4278190080
0.32519501 0.163762 0.54980499 4278190080
0.336914 0.164674 0.54980499 4278190080
0.34277299 0.16394 0.54980499 4278190080
0.36035201 0.165604 0.54980499 4278190080
0.134808 0.15527301 0.63769501 4278190080
0.131836 0.15527301 0.63975501 4278190080
0.137695 0.160322 0.63769501 4278190080
0.276822 0.149414 0.883789 4278190080
0.27832001 0.15284 0.883789 4278190080
0.27832001 0.149414 0.88570499 4278190080
0.24902301 0.15943301 0.56152302 4278190080
0.24902301 0.15527301 0.56538397 4278190080
0.25618899 0.15527301 0.56152302 4278190080
0.25488299 0.155764 0.56152302 4278190080
0.25488299 0.15527301 0.56202698 4278190080
0.29595 0.15527301 0.56152302 4278190080
0.30175799 0.15787999 0.56152302 4278190080
0.30175799 0.15527301 0.56732398 4278190080
0.30761701 0.160814 0.56152302 4278190080
0.2633 0.16699199 0.555664 4278190080
0.26074201 0.16699199 0.55771202 4278190080
0.16113301 0.16699199 0.62481099 4278190080
0.168455 0.16699199 0.62011701 4278190080
0.16699199 0.16699199 0.62112498 4278190080
0.37792999 0.163625 0.62597698 4278190080
0.383789 0.163605 0.62597698 4278190080
0.38964799 0.163755 0.62597698 4278190080
0.39550799 0.16421901 0.62597698 4278190080
0.40136701 0.164685 0.62597698 4278190080
0.40722701 0.16512799 0.62597698 4278190080
0.413086 0.16545001 0.62597698 4278190080
0.41894501 0.166749 0.62597698 4278190080
0.42480499 0.16659901 0.62597698 4278190080
0.430664 0.166761 0.62597698 4278190080
0.40061799 0.16699199 0.60839802 4278190080
0.40361699 0.16699199 0.60839802 4278190080
0.40136701 0.167689 0.60839802 4278190080
0.40136701 0.16699199 0.60913903 4278190080
0.418201 0.16699199 0.60839802 4278190080
0.41894501 0.16751499 0.60839802 4278190080
0.42480499 0.16783801 0.60839802 4278190080
0.430664 0.167327 0.60839802 4278190080
0.430664 0.16699199 0.61063898 4278190080
0.43652299 0.16708399 0.60839802 4278190080
0.43652299 0.16699199 0.60863101 4278190080
0.44238299 0.168395 0.60839802 4278190080
0.131083 0.16113301 0.64355499 4278190080
0.131836 0.162654 0.64355499 4278190080
0.24902301 0.16113301 0.56078398 4278190080
0.256771 0.16113301 0.555664 4278190080
0.25488299 0.16113301 0.55686498 4278190080
0.26074201 0.163417 0.555664 4278190080
0.30917099 0.16113301 0.555664 4278190080
0.31347701 0.162011 0.555664 4278190080
0.319336 0.161395 0.555664 4278190080
0.32519501 0.163357 0.555664 4278190080
0.33105499 0.16378701 0.555664 4278190080
0.336914 0.164103 0.555664 4278190080
0.34863299 0.16401801 0.555664 4278190080
0.35449201 0.165142 0.555664 4278190080
0.36035201 0.163885 0.555664 4278190080
0.127189 0.15527301 0.64355499 4278190080
0.12597699 0.15527301 0.64464301 4278190080
0.24902301 0.16699199 0.56619501 4278190080
0.25544 0.16699199 0.56152302 4278190080
0.25488299 0.16699199 0.561993 4278190080
0.37122801 0.16699199 0.56152302 4278190080
0.366211 0.16699199 0.56572503 4278190080
0.237305 0.15527301 0.57221901 4278190080
0.246538 0.15527301 0.56738299 4278190080
0.243164 0.158015 0.56738299 4278190080
0.243164 0.15527301 0.57010001 4278190080
0.30178201 0.15527301 0.56738299 4278190080
0.30175799 0.15527301 0.56741703 4278190080
0.28149301 0.149414 0.88964802 4278190080
0.28417999 0.149414 0.89271802 4278190080
0.37792999 0.163569 0.631836 4278190080
0.383789 0.164055 0.631836 4278190080
0.38964799 0.164377 0.631836 4278190080
0.39550799 0.164336 0.631836 4278190080
0.40136701 0.164901 0.631836 4278190080
0.40722701 0.16455901 0.631836 4278190080
0.413086 0.16526 0.631836 4278190080
0.41894501 0.165507 0.631836 4278190080
0.430664 0.166272 0.631836 4278190080
0.43652299 0.166942 0.631836 4278190080
0.127058 0.16113301 0.649414 4278190080
0.124495 0.15527301 0.649414 4278190080
0.12597699 0.159347 0.649414 4278190080
0.247233 0.16699199 0.56738299 4278190080
0.243164 0.16699199 0.56979603 4278190080
0.36330801 0.16699199 0.56738299 4278190080
0.366211 0.167826 0.56738299 4278190080
0.366211 0.16699199 0.57051998 4278190080
0.415874 0.16699199 0.61425799 4278190080
0.41894501 0.167916 0.61425799 4278190080
0.41894501 0.16699199 0.616418 4278190080
0.426835 0.16699199 0.61425799 4278190080
0.42480499 0.167422 0.61425799 4278190080
0.42480499 0.16699199 0.61682898 4278190080
0.247822 0.16113301 0.56152302 4278190080
0.243164 0.16113301 0.565418 4278190080
0.24902301 0.161847 0.56152302 4278190080
0.25488299 0.166159 0.56152302 4278190080
0.31028399 0.16113301 0.56152302 4278190080
0.30761701 0.16113301 0.56305301 4278190080
0.31347701 0.16159099 0.56152302 4278190080
0.319336 0.162798 0.56152302 4278190080
0.32519501 0.162311 0.56152302 4278190080
0.33105499 0.165153 0.56152302 4278190080
0.336914 0.165475 0.56152302 4278190080
0.34277299 0.164149 0.56152302 4278190080
0.34863299 0.163948 0.56152302 4278190080
0.35449201 0.164142 0.56152302 4278190080
0.36035201 0.164773 0.56152302 4278190080
0.28701699 0.149414 0.89550799 4278190080
0.290039 0.149414 0.89864802 4278190080
0.29589799 0.149414 0.89893699 4278190080
0.37792999 0.163579 0.63769501 4278190080
0.383789 0.163736 0.63769501 4278190080
0.38964799 0.16407999 0.63769501 4278190080
0.39550799 0.164398 0.63769501 4278190080
0.40136701 0.164272 0.63769501 4278190080
0.40722701 0.16425601 0.63769501 4278190080
0.413086 0.164856 0.63769501 4278190080
0.41894501 0.1652 0.63769501 4278190080
0.42480499 0.166278 0.63769501 4278190080
0.430664 0.16555899 0.63769501 4278190080
0.128397 0.16113301 0.65527302 4278190080
0.234799 0.15527301 0.57324201 4278190080
0.231445 0.16006 0.57324201 4278190080
0.231445 0.15527301 0.57560199 4278190080
0.30055901 0.15527301 0.57324201 4278190080
0.30175799 0.158913 0.57324201 4278190080
0.30761701 0.15951601 0.57324201 4278190080
0.31347701 0.160276 0.57324201 4278190080
0.12577599 0.15527301 0.65527302 4278190080
0.12597699 0.155866 0.65527302 4278190080
0.12597699 0.15527301 0.65555698 4278190080
0.231445 0.16699199 0.57859898 4278190080
0.238291 0.16699199 0.57324201 4278190080
0.237305 0.16699199 0.57402498 4278190080
0.37792999 0.16329101 0.64355499 4278190080
0.383789 0.163259 0.64355499 4278190080
0.38964799 0.163599 0.64355499 4278190080
0.39550799 0.163435 0.64355499 4278190080
0.40136701 0.16409799 0.64355499 4278190080
0.40722701 0.164528 0.64355499 4278190080
0.413086 0.16481601 0.64355499 4278190080
0.41894501 0.164932 0.64355499 4278190080
0.42480499 0.165392 0.64355499 4278190080
0.430664 0.16680799 0.64355499 4278190080
0.43652299 0.16692001 0.64355499 4278190080
0.231445 0.16113301 0.57305002 4278190080
0.23987401 0.16113301 0.56738299 4278190080
0.237305 0.16113301 0.56884599 4278190080
0.243164 0.16300499 0.56738299 4278190080
0.30619901 0.16113301 0.56738299 4278190080
0.30761701 0.162203 0.56738299 4278190080
0.30761701 0.16113301 0.56983 4278190080
0.31347701 0.16147099 0.56738299 4278190080
0.31347701 0.16113301 0.56877297 4278190080
0.319336 0.16191 0.56738299 4278190080
0.32519501 0.16170301 0.56738299 4278190080
0.33105499 0.16260099 0.56738299 4278190080
0.336914 0.164004 0.56738299 4278190080
0.34277299 0.16489699 0.56738299 4278190080
0.34863299 0.16287699 0.56738299 4278190080
0.35449201 0.163864 0.56738299 4278190080
0.36035201 0.16588099 0.56738299 4278190080
0.53027302 0.15527301 0.68339902 4278190080
0.131795 0.16113301 0.66113299 4278190080
0.131836 0.16113301 0.66118401 4278190080
0.29831401 0.149414 0.90136701 4278190080
0.30175799 0.153855 0.90136701 4278190080
0.30175799 0.149414 0.90452898 4278190080
0.512694 0.17285199 0.67285198 4278190080
0.506836 0.17285199 0.67798501 4278190080
0.51269501 0.17285199 0.67285198 4278190080
0.21386699 0.15527301 0.58445799 4278190080
0.21972699 0.15527301 0.58201098 4278190080
0.226612 0.15527301 0.57910198 4278190080
0.225586 0.156083 0.57910198 4278190080
0.225586 0.15527301 0.57964098 4278190080
0.30175799 0.160318 0.57910198 4278190080
0.30761701 0.15954299 0.57910198 4278190080
0.12963501 0.15527301 0.66113299 4278190080
0.131836 0.15527301 0.66537303 4278190080
0.42480499 0.16699199 0.631666 4278190080
0.21972699 0.16699199 0.58483601 4278190080
0.230601 0.16699199 0.57910198 4278190080
0.225586 0.16699199 0.58147502 4278190080
0.231445 0.169277 0.57910198 4278190080
0.37792999 0.163368 0.649414 4278190080
0.383789 0.16343801 0.649414 4278190080
0.38964799 0.163166 0.649414 4278190080
0.39550799 0.16341101 0.649414 4278190080
0.40136701 0.16310699 0.649414 4278190080
0.40722701 0.16347399 0.649414 4278190080
0.413086 0.164462 0.649414 4278190080
0.41894501 0.164326 0.649414 4278190080
0.42480499 0.164846 0.649414 4278190080
0.430664 0.165915 0.649414 4278190080
0.43652299 0.166049 0.649414 4278190080
0.44238299 0.16631299 0.649414 4278190080
0.44824201 0.165399 0.649414 4278190080
0.45410201 0.16545001 0.649414 4278190080
0.459961 0.166602 0.649414 4278190080
0.46582001 0.166769 0.649414 4278190080
0.528503 0.15527301 0.68457001 4278190080
0.524414 0.15527301 0.68779802 4278190080
0.134443 0.16113301 0.66699201 4278190080
0.137695 0.16113301 0.67152399 4278190080
0.231181 0.16113301 0.57324201 4278190080
0.225586 0.16113301 0.577384 4278190080
0.231445 0.161402 0.57324201 4278190080
0.237305 0.165775 0.57324201 4278190080
0.31619301 0.16113301 0.57324201 4278190080
0.31347701 0.16113301 0.57662898 4278190080
0.319336 0.16248 0.57324201 4278190080
0.32519501 0.163275 0.57324201 4278190080
0.33105499 0.161945 0.57324201 4278190080
0.336914 0.16321699 0.57324201 4278190080
0.34277299 0.16308901 0.57324201 4278190080
0.34863299 0.16363101 0.57324201 4278190080
0.35449201 0.164635 0.57324201 4278190080
0.36035201 0.16419899 0.57324201 4278190080
0.366211 0.165857 0.57324201 4278190080
0.133057 0.15527301 0.66699201 4278190080
0.50582999 0.17285199 0.678711 4278190080
0.506836 0.173178 0.678711 4278190080
0.51713997 0.17285199 0.678711 4278190080
0.51269501 0.17370801 0.678711 4278190080
0.51269501 0.17285199 0.68178201 4278190080
0.52276897 0.17285199 0.678711 4278190080
0.526999 0.17285199 0.678711 4278190080
0.524414 0.17285199 0.679524 4278190080
0.53608698 0.17285199 0.678711 4278190080
0.53613299 0.17285199 0.67871499 4278190080
0.213048 0.15527301 0.584961 4278190080
0.20800801 0.15527301 0.58832401 4278190080
0.30761701 0.160349 0.584961 4278190080
0.42477101 0.16699199 0.631836 4278190080
0.42486799 0.16699199 0.631836 4278190080
0.42480499 0.16700099 0.631836 4278190080
0.42480499 0.16699199 0.63191998 4278190080
0.43674099 0.16699199 0.631836 4278190080
0.43652299 0.16699199 0.632258 4278190080
0.44238299 0.16780201 0.631836 4278190080
0.47167999 0.17025299 0.631836 4278190080
0.477539 0.170462 0.631836 4278190080
0.21952701 0.16699199 0.584961 4278190080
0.21386699 0.16699199 0.58941698 4278190080
0.21972699 0.16810501 0.584961 4278190080
0.366211 0.16699199 0.58740598 4278190080
0.37792999 0.161091 0.69042999 4278190080
0.52230197 0.15527301 0.69042999 4278190080
0.51855499 0.15527301 0.69373202 4278190080
0.37792999 0.16284201 0.65527302 4278190080
0.383789 0.163288 0.65527302 4278190080
0.38964799 0.163381 0.65527302 4278190080
0.39550799 0.163372 0.65527302 4278190080
0.40136701 0.16337 0.65527302 4278190080
0.40722701 0.16310699 0.65527302 4278190080
0.413086 0.163808 0.65527302 4278190080
0.41894501 0.16409101 0.65527302 4278190080
0.42480499 0.164645 0.65527302 4278190080
0.430664 0.165093 0.65527302 4278190080
0.43652299 0.165481 0.65527302 4278190080
0.44238299 0.16544899 0.65527302 4278190080
0.44824201 0.165179 0.65527302 4278190080
0.45410201 0.165453 0.65527302 4278190080
0.459961 0.164639 0.65527302 4278190080
0.46582001 0.165343 0.65527302 4278190080
0.47167999 0.166134 0.65527302 4278190080
0.13858999 0.16113301 0.67285198 4278190080
0.21386699 0.16113301 0.58452702 4278190080
0.222504 0.16113301 0.57910198 4278190080
0.21972699 0.16113301 0.580764 4278190080
0.225586 0.163655 0.57910198 4278190080
0.31251299 0.16113301 0.57910198 4278190080
0.31347701 0.16163801 0.57910198 4278190080
0.319336 0.16159999 0.57910198 4278190080
0.32519501 0.16293199 0.57910198 4278190080
0.33105499 0.16347399 0.57910198 4278190080
0.336914 0.162646 0.57910198 4278190080
0.34277299 0.163278 0.57910198 4278190080
0.34863299 0.163514 0.57910198 4278190080
0.35449201 0.163862 0.57910198 4278190080
0.36035201 0.164423 0.57910198 4278190080
0.366211 0.166242 0.57910198 4278190080
0.136103 0.15527301 0.67285198 4278190080
0.137695 0.159275 0.67285198 4278190080
0.137695 0.15527301 0.67495298 4278190080
0.196289 0.15527301 0.59630799 4278190080
0.203923 0.15527301 0.59082001 4278190080
0.20214801 0.15527301 0.59197098 4278190080
0.30761701 0.159665 0.59082001 4278190080
0.43473899 0.16699199 0.63769501 4278190080
0.43652299 0.167622 0.63769501 4278190080
0.43652299 0.16699199 0.64314002 4278190080
0.44238299 0.168477 0.63769501 4278190080
0.44824201 0.167151 0.63769501 4278190080
0.45410201 0.167606 0.63769501 4278190080
0.459961 0.16908699 0.63769501 4278190080
0.46582001 0.17141999 0.63769501 4278190080
0.47167999 0.169287 0.63769501 4278190080
0.477539 0.169724 0.63769501 4278190080
0.48339799 0.170371 0.63769501 4278190080
0.48925799 0.172126 0.63769501 4278190080
0.49511701 0.168138 0.63769501 4278190080
0.21210501 0.16699199 0.59082001 4278190080
0.20800801 0.16699199 0.59355098 4278190080
0.36361799 0.16699199 0.59082001 4278190080
0.36035201 0.16699199 0.595505 4278190080
0.37195599 0.16699199 0.59082001 4278190080
0.366211 0.168632 0.59082001 4278190080
0.37207001 0.16699199 0.59140301 4278190080
0.37792999 0.160956 0.696289 4278190080
0.40136701 0.16104899 0.696289 4278190080
0.40722701 0.16068 0.696289 4278190080
0.506836 0.15527301 0.70134902 4278190080
0.51433802 0.15527301 0.696289 4278190080
0.51269501 0.157865 0.696289 4278190080
0.51269501 0.15527301 0.69743001 4278190080
0.37792999 0.162563 0.66113299 4278190080
0.383789 0.16275699 0.66113299 4278190080
0.38964799 0.162315 0.66113299 4278190080
0.39550799 0.162985 0.66113299 4278190080
0.40136701 0.16314299 0.66113299 4278190080
0.40722701 0.163234 0.66113299 4278190080
0.413086 0.163507 0.66113299 4278190080
0.41894501 0.163647 0.66113299 4278190080
0.42480499 0.164222 0.66113299 4278190080
0.430664 0.164537 0.66113299 4278190080
0.43652299 0.165007 0.66113299 4278190080
0.44238299 0.164753 0.66113299 4278190080
0.44824201 0.16454799 0.66113299 4278190080
0.45410201 0.163913 0.66113299 4278190080
0.459961 0.164037 0.66113299 4278190080
0.46582001 0.165171 0.66113299 4278190080
0.47167999 0.165749 0.66113299 4278190080
0.477539 0.166591 0.66113299 4278190080
0.50097698 0.16655201 0.66113299 4278190080
0.50644201 0.17285199 0.68457001 4278190080
0.50749999 0.17285199 0.68457001 4278190080
0.506836 0.17298999 0.68457001 4278190080
0.506836 0.17285199 0.68551302 4278190080
0.141546 0.16113301 0.678711 4278190080
0.143555 0.16113301 0.68110198 4278190080
0.213315 0.16113301 0.584961 4278190080
0.20800801 0.16113301 0.58955699 4278190080
0.21386699 0.161817 0.584961 4278190080
0.31133601 0.16113301 0.584961 4278190080
0.31347701 0.16204 0.584961 4278190080
0.319336 0.16196001 0.584961 4278190080
0.33105499 0.162846 0.584961 4278190080
0.336914 0.163279 0.584961 4278190080
0.34277299 0.163793 0.584961 4278190080
0.34863299 0.163248 0.584961 4278190080
0.35449201 0.165545 0.584961 4278190080
0.36035201 0.165365 0.584961 4278190080
0.366211 0.1637 0.584961 4278190080
0.141381 0.15527301 0.678711 4278190080
0.143555 0.15527301 0.681885 4278190080
0.37792999 0.16235 0.66699201 4278190080
0.383789 0.162204 0.66699201 4278190080
0.38964799 0.16241699 0.66699201 4278190080
0.39550799 0.16253699 0.66699201 4278190080
0.40136701 0.162698 0.66699201 4278190080
0.40722701 0.162881 0.66699201 4278190080
0.413086 0.163221 0.66699201 4278190080
0.41894501 0.163407 0.66699201 4278190080
0.42480499 0.163624 0.66699201 4278190080
0.430664 0.16446701 0.66699201 4278190080
0.43652299 0.164241 0.66699201 4278190080
0.44238299 0.164299 0.66699201 4278190080
0.44824201 0.16361199 0.66699201 4278190080
0.45410201 0.163096 0.66699201 4278190080
0.459961 0.163526 0.66699201 4278190080
0.46582001 0.16447 0.66699201 4278190080
0.47167999 0.165535 0.66699201 4278190080
0.477539 0.165977 0.66699201 4278190080
0.196289 0.16699199 0.60135502 4278190080
0.202747 0.16699199 0.59667999 4278190080
0.20214801 0.16699199 0.59709102 4278190080
0.30761701 0.16699199 0.59947097 4278190080
0.31347701 0.16699199 0.60249901 4278190080
0.35692501 0.16699199 0.59667999 4278190080
0.36035201 0.16753399 0.59667999 4278190080
0.36035201 0.16699199 0.60024297 4278190080
0.366211 0.168466 0.59667999 4278190080
0.366211 0.16699199 0.60125399 4278190080
0.37207001 0.16734 0.59667999 4278190080
0.48339799 0.17285199 0.69611001 4278190080
0.195812 0.15527301 0.59667999 4278190080
0.19043 0.15527301 0.60231698 4278190080
0.196289 0.156276 0.59667999 4278190080
0.37792999 0.160653 0.70214802 4278190080
0.383789 0.16067199 0.70214802 4278190080
0.38964799 0.160807 0.70214802 4278190080
0.39550799 0.16051701 0.70214802 4278190080
0.40136701 0.16046099 0.70214802 4278190080
0.40722701 0.160528 0.70214802 4278190080
0.41894501 0.16061699 0.70214802 4278190080
0.50580603 0.15527301 0.70214802 4278190080
0.50097698 0.15527301 0.705679 4278190080
0.43771201 0.16699199 0.64355499 4278190080
0.44238299 0.167172 0.64355499 4278190080
0.44238299 0.16699199 0.645154 4278190080
0.44824201 0.167797 0.64355499 4278190080
0.44824201 0.16699199 0.64556903 4278190080
0.45410201 0.16732299 0.64355499 4278190080
0.45410201 0.16699199 0.64444602 4278190080
0.459961 0.167331 0.64355499 4278190080
0.459961 0.16699199 0.646613 4278190080
0.46582001 0.168405 0.64355499 4278190080
0.46582001 0.16699199 0.64847797 4278190080
0.47167999 0.170728 0.64355499 4278190080
0.477539 0.16841599 0.64355499 4278190080
0.48339799 0.170533 0.64355499 4278190080
0.48925799 0.172066 0.64355499 4278190080
0.49511701 0.17012499 0.64355499 4278190080
0.145826 0.16113301 0.68457001 4278190080
0.149414 0.16113301 0.689349 4278190080
0.20618001 0.16113301 0.59082001 4278190080
0.20214801 0.16113301 0.59364098 4278190080
0.20800801 0.16302399 0.59082001 4278190080
0.30577099 0.16113301 0.59082001 4278190080
0.30175799 0.163816 0.59082001 4278190080
0.311225 0.16113301 0.59082001 4278190080
0.30761701 0.16113301 0.593023 4278190080
0.31347701 0.16284899 0.59082001 4278190080
0.319336 0.162338 0.59082001 4278190080
0.32519501 0.16314299 0.59082001 4278190080
0.33105499 0.16302601 0.59082001 4278190080
0.336914 0.16422699 0.59082001 4278190080
0.34277299 0.164598 0.59082001 4278190080
0.34863299 0.16588099 0.59082001 4278190080
0.35449201 0.166471 0.59082001 4278190080
0.36035201 0.164959 0.59082001 4278190080
0.37207001 0.166925 0.59082001 4278190080
0.37792999 0.162313 0.67285198 4278190080
0.383789 0.162319 0.67285198 4278190080
0.38964799 0.16251799 0.67285198 4278190080
0.39550799 0.16243599 0.67285198 4278190080
0.40136701 0.16269401 0.67285198 4278190080
0.40722701 0.162683 0.67285198 4278190080
0.413086 0.162613 0.67285198 4278190080
0.41894501 0.16288 0.67285198 4278190080
0.42480499 0.16303501 0.67285198 4278190080
0.430664 0.16367801 0.67285198 4278190080
0.43652299 0.163326 0.67285198 4278190080
0.44238299 0.163387 0.67285198 4278190080
0.44824201 0.162937 0.67285198 4278190080
0.45410201 0.163013 0.67285198 4278190080
0.459961 0.16490901 0.67285198 4278190080
0.46582001 0.16541401 0.67285198 4278190080
0.47167999 0.165537 0.67285198 4278190080
0.477539 0.16584601 0.67285198 4278190080
0.48339799 0.16622899 0.67285198 4278190080
0.14605799 0.15527301 0.68457001 4278190080
0.149414 0.15527301 0.689605 4278190080
0.194602 0.16699199 0.602539 4278190080
0.19043 0.16699199 0.60519701 4278190080
0.30761701 0.169413 0.602539 4278190080
0.31354401 0.16699199 0.602539 4278190080
0.31347701 0.167016 0.602539 4278190080
0.31347701 0.16699199 0.60272199 4278190080
0.36035201 0.16699199 0.60577297 4278190080
0.36937001 0.16699199 0.602539 4278190080
0.37424099 0.16699199 0.602539 4278190080
0.37207001 0.16789 0.602539 4278190080
0.37207001 0.16699199 0.60382599 4278190080
0.37792999 0.160115 0.70800799 4278190080
0.383789 0.159778 0.70800799 4278190080
0.38964799 0.159655 0.70800799 4278190080
0.39550799 0.159759 0.70800799 4278190080
0.40136701 0.16003899 0.70800799 4278190080
0.40722701 0.160245 0.70800799 4278190080
0.413086 0.160392 0.70800799 4278190080
0.41894501 0.16072699 0.70800799 4278190080
0.48925799 0.15527301 0.71373898 4278190080
0.49770999 0.15527301 0.70800799 4278190080
0.49511701 0.159841 0.70800799 4278190080
0.49511701 0.15527301 0.70989799 4278190080
0.48322999 0.17285199 0.696289 4278190080
0.48526099 0.17285199 0.696289 4278190080
0.48339799 0.172962 0.696289 4278190080
0.48339799 0.17285199 0.69689101 4278190080
0.468236 0.16699199 0.649414 4278190080
0.47167999 0.16750801 0.649414 4278190080
0.47167999 0.16699199 0.650823 4278190080
0.477539 0.168411 0.649414 4278190080
0.48339799 0.16916899 0.649414 4278190080
0.48925799 0.16999 0.649414 4278190080
0.49511701 0.17175899 0.649414 4278190080
0.50097698 0.16847301 0.649414 4278190080
0.15017401 0.16113301 0.69042999 4278190080
0.37792999 0.161888 0.678711 4278190080
0.383789 0.16226 0.678711 4278190080
0.38964799 0.162149 0.678711 4278190080
0.39550799 0.16221499 0.678711 4278190080
0.40136701 0.162672 0.678711 4278190080
0.40722701 0.162641 0.678711 4278190080
0.413086 0.162605 0.678711 4278190080
0.41894501 0.16234601 0.678711 4278190080
0.42480499 0.16276 0.678711 4278190080
0.430664 0.16289701 0.678711 4278190080
0.43652299 0.162174 0.678711 4278190080
0.44238299 0.16142701 0.678711 4278190080
0.44824201 0.16272099 0.678711 4278190080
0.45410201 0.163055 0.678711 4278190080
0.459961 0.164602 0.678711 4278190080
0.46582001 0.16508301 0.678711 4278190080
0.47167999 0.16563401 0.678711 4278190080
0.53027302 0.16113301 0.68383098 4278190080
0.19043 0.16113301 0.60211301 4278190080
0.19787601 0.16113301 0.59667999 4278190080
0.196289 0.16113301 0.59785199 4278190080
0.20214801 0.166389 0.59667999 4278190080
0.30761701 0.163762 0.59667999 4278190080
0.31347701 0.163426 0.59667999 4278190080
0.319336 0.16377901 0.59667999 4278190080
0.32519501 0.16337 0.59667999 4278190080
0.33105499 0.16371401 0.59667999 4278190080
0.336914 0.163883 0.59667999 4278190080
0.34277299 0.164941 0.59667999 4278190080
0.34863299 0.16490901 0.59667999 4278190080
0.35449201 0.166485 0.59667999 4278190080
0.150105 0.15527301 0.69042999 4278190080
0.189647 0.15527301 0.69042999 4278190080
0.311818 0.16699199 0.60839802 4278190080
0.358684 0.16699199 0.60839802 4278190080
0.36295 0.16699199 0.60839802 4278190080
0.36035201 0.167275 0.60839802 4278190080
0.36035201 0.16699199 0.60997999 4278190080
0.37792999 0.159364 0.71386701 4278190080
0.383789 0.159439 0.71386701 4278190080
0.38964799 0.159362 0.71386701 4278190080
0.39550799 0.15976401 0.71386701 4278190080
0.40136701 0.160061 0.71386701 4278190080
0.40722701 0.16021299 0.71386701 4278190080
0.413086 0.160188 0.71386701 4278190080
0.41894501 0.1608 0.71386701 4278190080
0.48906299 0.15527301 0.71386701 4278190080
0.48339799 0.15527301 0.71831101 4278190080
0.47622699 0.16699199 0.65527302 4278190080
0.477539 0.167281 0.65527302 4278190080
0.477539 0.16699199 0.65753001 4278190080
0.48339799 0.167319 0.65527302 4278190080
0.48925799 0.169358 0.65527302 4278190080
0.49511701 0.170938 0.65527302 4278190080
0.50097698 0.169238 0.65527302 4278190080
0.50097698 0.16699199 0.65788001 4278190080
0.37792999 0.161871 0.68457001 4278190080
0.37792999 0.16113301 0.690139 4278190080
0.383789 0.16196799 0.68457001 4278190080
0.38964799 0.162469 0.68457001 4278190080
0.39550799 0.16236 0.68457001 4278190080
0.40136701 0.16244 0.68457001 4278190080
0.40722701 0.16241001 0.68457001 4278190080
0.413086 0.16201 0.68457001 4278190080
0.41894501 0.162256 0.68457001 4278190080
0.42480499 0.16255599 0.68457001 4278190080
0.430664 0.16245399 0.68457001 4278190080
0.43652299 0.162467 0.68457001 4278190080
0.44238299 0.162595 0.68457001 4278190080
0.44824201 0.16345499 0.68457001 4278190080
0.45410201 0.16358399 0.68457001 4278190080
0.459961 0.164667 0.68457001 4278190080
0.46582001 0.164919 0.68457001 4278190080
0.47167999 0.165856 0.68457001 4278190080
0.52918398 0.16113301 0.68457001 4278190080
0.524414 0.163045 0.68457001 4278190080
0.524414 0.16113301 0.686037 4278190080
0.15349101 0.16113301 0.696289 4278190080
0.15527301 0.16113301 0.69841802 4278190080
0.19043 0.161961 0.602539 4278190080
0.319336 0.163489 0.602539 4278190080
0.32519501 0.16407301 0.602539 4278190080
0.33105499 0.164213 0.602539 4278190080
0.336914 0.16446801 0.602539 4278190080
0.34277299 0.16496 0.602539 4278190080
0.34863299 0.165519 0.602539 4278190080
0.35449201 0.165703 0.602539 4278190080
0.36035201 0.166347 0.602539 4278190080
0.366211 0.16614 0.602539 4278190080
0.15504199 0.15527301 0.696289 4278190080
0.15527301 0.15527301 0.69660401 4278190080
0.16113301 0.15527301 0.70201099 4278190080
0.185835 0.15527301 0.696289 4278190080
0.18457 0.15527301 0.69723201 4278190080
0.29614699 0.17285199 0.62597698 4278190080
0.29589799 0.17285199 0.62661099 4278190080
0.30990899 0.16699199 0.61425799 4278190080
0.30761701 0.16699199 0.61612803 4278190080
0.37792999 0.158507 0.71972698 4278190080
0.383789 0.15866999 0.71972698 4278190080
0.38964799 0.15958101 0.71972698 4278190080
0.39550799 0.159227 0.71972698 4278190080
0.40136701 0.160174 0.71972698 4278190080
0.40722701 0.160052 0.71972698 4278190080
0.47167999 0.15527301 0.72510803 4278190080
0.48137701 0.15527301 0.71972698 4278190080
0.477539 0.159137 0.71972698 4278190080
0.477539 0.15527301 0.72189599 4278190080
0.31347701 0.16505399 0.60839802 4278190080
0.319336 0.163918 0.60839802 4278190080
0.32519501 0.16321801 0.60839802 4278190080
0.33105499 0.16374201 0.60839802 4278190080
0.336914 0.16478901 0.60839802 4278190080
0.34277299 0.16523799 0.60839802 4278190080
0.34863299 0.165148 0.60839802 4278190080
0.35449201 0.165906 0.60839802 4278190080
0.366211 0.166171 0.60839802 4278190080
0.37207001 0.163891 0.60839802 4278190080
0.378398 0.16113301 0.69042999 4278190080
0.383789 0.161645 0.69042999 4278190080
0.38964799 0.16229001 0.69042999 4278190080
0.39550799 0.162145 0.69042999 4278190080
0.40136701 0.16204999 0.69042999 4278190080
0.40136701 0.16113301 0.695813 4278190080
0.40722701 0.161511 0.69042999 4278190080
0.40722701 0.16113301 0.69287902 4278190080
0.413086 0.161507 0.69042999 4278190080
0.41894501 0.161945 0.69042999 4278190080
0.42480499 0.16202401 0.69042999 4278190080
0.430664 0.1626 0.69042999 4278190080
0.43652299 0.162992 0.69042999 4278190080
0.44238299 0.163257 0.69042999 4278190080
0.44824201 0.164416 0.69042999 4278190080
0.45410201 0.16444001 0.69042999 4278190080
0.459961 0.164665 0.69042999 4278190080
0.46582001 0.165627 0.69042999 4278190080
0.51269501 0.1653 0.69042999 4278190080
0.51269501 0.16113301 0.694493 4278190080
0.51923501 0.16113301 0.69042999 4278190080
0.51855499 0.16199 0.69042999 4278190080
0.51855499 0.16113301 0.69081199 4278190080
0.48022899 0.16699199 0.66113299 4278190080
0.48339799 0.167559 0.66113299 4278190080
0.48925799 0.167629 0.66113299 4278190080
0.49710801 0.16699199 0.66113299 4278190080
0.49511701 0.167575 0.66113299 4278190080
0.50097698 0.16699199 0.66203898 4278190080
0.158226 0.16113301 0.70214802 4278190080
0.16113301 0.16113301 0.70587403 4278190080
0.161247 0.15527301 0.70214802 4278190080
0.16113301 0.15542901 0.70214802 4278190080
0.16699199 0.15527301 0.70641601 4278190080
0.18033201 0.15527301 0.70214802 4278190080
0.18457 0.155993 0.70214802 4278190080
0.21972699 0.15527301 0.63418502 4278190080
0.227364 0.15527301 0.631836 4278190080
0.225586 0.15527301 0.63488299 4278190080
0.231445 0.157785 0.631836 4278190080
0.237305 0.158296 0.631836 4278190080
0.29589799 0.16105799 0.631836 4278190080
0.30761701 0.16091999 0.631836 4278190080
0.31347701 0.16078299 0.631836 4278190080
0.37792999 0.15847 0.725586 4278190080
0.383789 0.158519 0.725586 4278190080
0.38964799 0.159215 0.725586 4278190080
0.39550799 0.159254 0.725586 4278190080
0.40136701 0.15992799 0.725586 4278190080
0.40722701 0.160045 0.725586 4278190080
0.47080299 0.15527301 0.725586 4278190080
0.46582001 0.15987501 0.725586 4278190080
0.46582001 0.15527301 0.728176 4278190080
0.279284 0.16699199 0.62597698 4278190080
0.28417999 0.16699199 0.62983203 4278190080
0.29162699 0.16699199 0.62597698 4278190080
0.290039 0.16699199 0.62712401 4278190080
0.29589799 0.171591 0.62597698 4278190080
0.29589799 0.16505601 0.61425799 4278190080
0.31347701 0.16449 0.61425799 4278190080
0.319336 0.16284101 0.61425799 4278190080
0.32519501 0.16269299 0.61425799 4278190080
0.33105499 0.162599 0.61425799 4278190080
0.336914 0.164498 0.61425799 4278190080
0.34277299 0.164506 0.61425799 4278190080
0.34863299 0.164655 0.61425799 4278190080
0.35449201 0.16504399 0.61425799 4278190080
0.36035201 0.16523699 0.61425799 4278190080
0.366211 0.164437 0.61425799 4278190080
0.37207001 0.16449 0.61425799 4278190080
0.379998 0.16113301 0.696289 4278190080
0.383789 0.16138101 0.696289 4278190080
0.383789 0.16113301 0.69880998 4278190080
0.38964799 0.16161101 0.696289 4278190080
0.38964799 0.16113301 0.70028198 4278190080
0.399555 0.16113301 0.696289 4278190080
0.39550799 0.16130801 0.696289 4278190080
0.39550799 0.16113301 0.697662 4278190080
0.41081601 0.16113301 0.696289 4278190080
0.413086 0.161421 0.696289 4278190080
0.41894501 0.16116901 0.696289 4278190080
0.41894501 0.16113301 0.69644803 4278190080
0.42480499 0.161714 0.696289 4278190080
0.430664 0.161538 0.696289 4278190080
0.43652299 0.16231 0.696289 4278190080
0.44238299 0.16417401 0.696289 4278190080
0.44824201 0.164425 0.696289 4278190080
0.45410201 0.16513599 0.696289 4278190080
0.459961 0.164634 0.696289 4278190080
0.50097698 0.16622099 0.696289 4278190080
0.509956 0.16113301 0.696289 4278190080
0.506836 0.163229 0.696289 4278190080
0.506836 0.16113301 0.69848299 4278190080
0.48179701 0.16699199 0.66699201 4278190080
0.48339799 0.167594 0.66699201 4278190080
0.48339799 0.16699199 0.66912699 4278190080
0.48925799 0.16903 0.66699201 4278190080
0.49511701 0.169034 0.66699201 4278190080
0.50097698 0.170082 0.66699201 4278190080
0.506836 0.17060301 0.66699201 4278190080
0.16298801 0.16113301 0.70800799 4278190080
0.16699199 0.16113301 0.71232599 4278190080
0.215828 0.15527301 0.63769501 4278190080
0.21972699 0.156473 0.63769501 4278190080
0.225586 0.156942 0.63769501 4278190080
0.231445 0.157437 0.63769501 4278190080
0.237305 0.159327 0.63769501 4278190080
0.29589799 0.16063701 0.63769501 4278190080
0.30175799 0.160548 0.63769501 4278190080
0.30761701 0.160815 0.63769501 4278190080
0.31347701 0.160687 0.63769501 4278190080
0.319336 0.16042501 0.63769501 4278190080
0.32519501 0.159894 0.63769501 4278190080
0.33105499 0.16055 0.63769501 4278190080
0.336914 0.16087399 0.63769501 4278190080
0.34277299 0.161007 0.63769501 4278190080
0.169094 0.15527301 0.70800799 4278190080
0.16699199 0.156993 0.70800799 4278190080
0.182382 0.15527301 0.70800799 4278190080
0.178711 0.15527301 0.71362197 4278190080
0.18457 0.1565 0.70800799 4278190080
0.37792999 0.158014 0.73144501 4278190080
0.383789 0.15885501 0.73144501 4278190080
0.38964799 0.159282 0.73144501 4278190080
0.39550799 0.159481 0.73144501 4278190080
0.40136701 0.159688 0.73144501 4278190080
0.45410201 0.15916 0.73144501 4278190080
0.45410201 0.15527301 0.734954 4278190080
0.46051499 0.15527301 0.73144501 4278190080
0.459961 0.15583 0.73144501 4278190080
0.459961 0.15527301 0.73180401 4278190080
0.29589799 0.163288 0.62011701 4278190080
0.30175799 0.163739 0.62011701 4278190080
0.30761701 0.16342101 0.62011701 4278190080
0.31347701 0.16299701 0.62011701 4278190080
0.319336 0.162991 0.62011701 4278190080
0.32519501 0.162746 0.62011701 4278190080
0.33105499 0.16300499 0.62011701 4278190080
0.336914 0.16399901 0.62011701 4278190080
0.34277299 0.163238 0.62011701 4278190080
0.34863299 0.16289601 0.62011701 4278190080
0.35449201 0.163867 0.62011701 4278190080
0.36035201 0.163572 0.62011701 4278190080
0.366211 0.16329899 0.62011701 4278190080
0.37207001 0.163762 0.62011701 4278190080
0.41252699 0.16113301 0.70214802 4278190080
0.41346601 0.16113301 0.70214802 4278190080
0.413086 0.16121399 0.70214802 4278190080
0.413086 0.16113301 0.70247102 4278190080
0.42431101 0.16113301 0.70214802 4278190080
0.42480499 0.161238 0.70214802 4278190080
0.430664 0.161467 0.70214802 4278190080
0.43652299 0.163568 0.70214802 4278190080
0.44238299 0.16432799 0.70214802 4278190080
0.44824201 0.164496 0.70214802 4278190080
0.45410201 0.165933 0.70214802 4278190080
0.49511701 0.16452201 0.70214802 4278190080
0.49511701 0.16113301 0.70730001 4278190080
0.50175798 0.16113301 0.70214802 4278190080
0.50097698 0.161584 0.70214802 4278190080
0.50097698 0.16113301 0.702627 4278190080
0.21756899 0.15527301 0.64355499 4278190080
0.21972699 0.15580399 0.64355499 4278190080
0.225586 0.156882 0.64355499 4278190080
0.231445 0.157823 0.64355499 4278190080
0.237305 0.158796 0.64355499 4278190080
0.272461 0.16101301 0.64355499 4278190080
0.28417999 0.160973 0.64355499 4278190080
0.290039 0.16044 0.64355499 4278190080
0.29589799 0.160283 0.64355499 4278190080
0.30175799 0.15975 0.64355499 4278190080
0.30761701 0.15986501 0.64355499 4278190080
0.31347701 0.160238 0.64355499 4278190080
0.319336 0.15944 0.64355499 4278190080
0.32519501 0.15973701 0.64355499 4278190080
0.33105499 0.160667 0.64355499 4278190080
0.336914 0.161103 0.64355499 4278190080
0.16839699 0.16113301 0.71386701 4278190080
0.17285199 0.16113301 0.71948999 4278190080
0.26660201 0.16699199 0.64282799 4278190080
0.27693599 0.16699199 0.63769501 4278190080
0.272461 0.16699199 0.64257699 4278190080
0.477539 0.16699199 0.67830801 4278190080
0.48528501 0.16699199 0.67285198 4278190080
0.48339799 0.16699199 0.67397702 4278190080
0.48925799 0.16888601 0.67285198 4278190080
0.49511701 0.169526 0.67285198 4278190080
0.50097698 0.170724 0.67285198 4278190080
0.506836 0.17075799 0.67285198 4278190080
0.17136601 0.15527301 0.71386701 4278190080
0.178285 0.15527301 0.71386701 4278190080
0.17285199 0.15527301 0.71628499 4278190080
0.178711 0.155377 0.71386701 4278190080
0.18457 0.15589701 0.71386701 4278190080
0.27832001 0.166603 0.62597698 4278190080
0.29589799 0.16367 0.62597698 4278190080
0.29589799 0.16113301 0.63155103 4278190080
0.30175799 0.16226199 0.62597698 4278190080
0.30761701 0.162165 0.62597698 4278190080
0.30761701 0.16113301 0.63057798 4278190080
0.31347701 0.16126899 0.62597698 4278190080
0.31347701 0.16113301 0.62730598 4278190080
0.319336 0.161429 0.62597698 4278190080
0.32519501 0.162187 0.62597698 4278190080
0.33105499 0.16240001 0.62597698 4278190080
0.336914 0.16289 0.62597698 4278190080
0.34277299 0.162991 0.62597698 4278190080
0.34863299 0.162349 0.62597698 4278190080
0.35449201 0.16300701 0.62597698 4278190080
0.36035201 0.163643 0.62597698 4278190080
0.366211 0.163683 0.62597698 4278190080
0.37207001 0.163914 0.62597698 4278190080
0.37792999 0.158531 0.73730499 4278190080
0.383789 0.158976 0.73730499 4278190080
0.38964799 0.15942401 0.73730499 4278190080
0.39550799 0.16023999 0.73730499 4278190080
0.40136701 0.160339 0.73730499 4278190080
0.44238299 0.16063499 0.73730499 4278190080
0.44238299 0.15527301 0.74192202 4278190080
0.44999099 0.15527301 0.73730499 4278190080
0.44824201 0.15667 0.73730499 4278190080
0.44824201 0.15527301 0.73833799 4278190080
0.424703 0.16113301 0.70800799 4278190080
0.42480499 0.161149 0.70800799 4278190080
0.430664 0.163674 0.70800799 4278190080
0.43652299 0.16389699 0.70800799 4278190080
0.44238299 0.164581 0.70800799 4278190080
0.44824201 0.16501001 0.70800799 4278190080
0.48339799 0.166741 0.70800799 4278190080
0.49430999 0.16113301 0.70800799 4278190080
0.48925799 0.164231 0.70800799 4278190080
0.48925799 0.16113301 0.71133602 4278190080
0.21862 0.15527301 0.649414 4278190080
0.21386699 0.15527301 0.65208101 4278190080
0.21972699 0.15538201 0.649414 4278190080
0.225586 0.156555 0.649414 4278190080
0.231445 0.15714601 0.649414 4278190080
0.237305 0.1591 0.649414 4278190080
0.26660201 0.161112 0.649414 4278190080
0.272461 0.16036201 0.649414 4278190080
0.27832001 0.160143 0.649414 4278190080
0.28417999 0.16049799 0.649414 4278190080
0.290039 0.159968 0.649414 4278190080
0.29589799 0.16003101 0.649414 4278190080
0.30175799 0.159389 0.649414 4278190080
0.30761701 0.159181 0.649414 4278190080
0.31347701 0.15934201 0.649414 4278190080
0.319336 0.15906499 0.649414 4278190080
0.32519501 0.159408 0.649414 4278190080
0.33105499 0.160304 0.649414 4278190080
0.336914 0.16101301 0.649414 4278190080
0.17313001 0.16113301 0.71972698 4278190080
0.17285199 0.162569 0.71972698 4278190080
0.47723401 0.16699199 0.678711 4278190080
0.477539 0.16712201 0.678711 4278190080
0.48339799 0.16947401 0.678711 4278190080
0.48925799 0.169424 0.678711 4278190080
0.49511701 0.170063 0.678711 4278190080
0.50097698 0.170753 0.678711 4278190080
0.51855499 0.171968 0.678711 4278190080
0.524414 0.16699199 0.68309599 4278190080
0.53027302 0.169882 0.678711 4278190080
0.53027302 0.16699199 0.67971897 4278190080
0.178711 0.155517 0.71972698 4278190080
0.18457 0.155816 0.71972698 4278190080
0.27832001 0.166511 0.631836 4278190080
0.28417999 0.165306 0.631836 4278190080
0.295358 0.16113301 0.631836 4278190080
0.290039 0.162313 0.631836 4278190080
0.29985401 0.16113301 0.631836 4278190080
0.30262199 0.16113301 0.631836 4278190080
0.30175799 0.161184 0.631836 4278190080
0.30175799 0.16113301 0.632195 4278190080
0.31872401 0.16113301 0.631836 4278190080
0.319336 0.161171 0.631836 4278190080
0.319336 0.16113301 0.63213402 4278190080
0.32519501 0.161474 0.631836 4278190080
0.32519501 0.16113301 0.63298798 4278190080
0.33105499 0.161539 0.631836 4278190080
0.33105499 0.16113301 0.63383001 4278190080
0.336914 0.16147301 0.631836 4278190080
0.336914 0.16113301 0.634624 4278190080
0.34277299 0.161534 0.631836 4278190080
0.34277299 0.16113301 0.63576901 4278190080
0.34863299 0.16182201 0.631836 4278190080
0.35449201 0.16244499 0.631836 4278190080
0.36035201 0.162641 0.631836 4278190080
0.366211 0.163074 0.631836 4278190080
0.37207001 0.163459 0.631836 4278190080
0.37792999 0.15871599 0.743164 4278190080
0.383789 0.15899301 0.743164 4278190080
0.38964799 0.159124 0.743164 4278190080
0.39550799 0.16057201 0.743164 4278190080
0.440566 0.15527301 0.743164 4278190080
0.43652299 0.158536 0.743164 4278190080
0.43652299 0.15527301 0.74609101 4278190080
0.210545 0.15527301 0.65527302 4278190080
0.21386699 0.155708 0.65527302 4278190080
0.21386699 0.15527301 0.66059297 4278190080
0.21972699 0.155664 0.65527302 4278190080
0.225586 0.156119 0.65527302 4278190080
0.231445 0.156893 0.65527302 4278190080
0.237305 0.15854301 0.65527302 4278190080
0.243164 0.159842 0.65527302 4278190080
0.24902301 0.16049799 0.65527302 4278190080
0.25488299 0.160171 0.65527302 4278190080
0.26074201 0.160155 0.65527302 4278190080
0.26660201 0.160272 0.65527302 4278190080
0.272461 0.160108 0.65527302 4278190080
0.27832001 0.158966 0.65527302 4278190080
0.28417999 0.159483 0.65527302 4278190080
0.290039 0.159549 0.65527302 4278190080
0.29589799 0.15926901 0.65527302 4278190080
0.30175799 0.15941501 0.65527302 4278190080
0.30761701 0.159077 0.65527302 4278190080
0.31347701 0.158831 0.65527302 4278190080
0.319336 0.158944 0.65527302 4278190080
0.32519501 0.15898 0.65527302 4278190080
0.33105499 0.159962 0.65527302 4278190080
0.336914 0.16051701 0.65527302 4278190080
0.413086 0.16113301 0.71934098 4278190080
0.419884 0.16113301 0.71386701 4278190080
0.41894501 0.16113301 0.714692 4278190080
0.42480499 0.16308901 0.71386701 4278190080
0.430664 0.163904 0.71386701 4278190080
0.43652299 0.164116 0.71386701 4278190080
0.44238299 0.16441999 0.71386701 4278190080
0.47167999 0.16611899 0.71386701 4278190080
0.477539 0.164231 0.71386701 4278190080
0.477539 0.16113301 0.718279 4278190080
0.48396999 0.16113301 0.71386701 4278190080
0.48339799 0.16142701 0.71386701 4278190080
0.48339799 0.16113301 0.714203 4278190080
0.178711 0.157812 0.725586 4278190080
0.18457 0.15577701 0.725586 4278190080
0.47441801 0.16699199 0.68457001 4278190080
0.47167999 0.16699199 0.687249 4278190080
0.477539 0.16815799 0.68457001 4278190080
0.48339799 0.168483 0.68457001 4278190080
0.48925799 0.16932701 0.68457001 4278190080
0.49511701 0.16976801 0.68457001 4278190080
0.50097698 0.169585 0.68457001 4278190080
0.51269501 0.169736 0.68457001 4278190080
0.51269501 0.16699199 0.68915701 4278190080
0.52264202 0.16699199 0.68457001 4278190080
0.51855499 0.172682 0.68457001 4278190080
0.51855499 0.16699199 0.68852198 4278190080
0.17693999 0.16113301 0.725586 4278190080
0.178711 0.16113301 0.728064 4278190080
0.272461 0.16113301 0.643291 4278190080
0.27832001 0.162826 0.63769501 4278190080
0.28417999 0.16216899 0.63769501 4278190080
0.28417999 0.16113301 0.641473 4278190080
0.29222599 0.16113301 0.63769501 4278190080
0.290039 0.161534 0.63769501 4278190080
0.290039 0.16113301 0.63953298 4278190080
0.34343401 0.16113301 0.63769501 4278190080
0.34277299 0.16113301 0.64108902 4278190080
0.34863299 0.16225301 0.63769501 4278190080
0.35449201 0.162597 0.63769501 4278190080
0.36035201 0.162513 0.63769501 4278190080
0.366211 0.16282301 0.63769501 4278190080
0.37207001 0.16329899 0.63769501 4278190080
0.37792999 0.159067 0.74902302 4278190080
0.383789 0.15931401 0.74902302 4278190080
0.38964799 0.160484 0.74902302 4278190080
0.42480499 0.1592 0.74902302 4278190080
0.42480499 0.15527301 0.75316399 4278190080
0.43182299 0.15527301 0.74902302 4278190080
0.430664 0.156009 0.74902302 4278190080
0.430664 0.15527301 0.74970001 4278190080
0.214242 0.15527301 0.66113299 4278190080
0.21386699 0.15527301 0.66131902 4278190080
0.21972699 0.155918 0.66113299 4278190080
0.225586 0.156728 0.66113299 4278190080
0.231445 0.157766 0.66113299 4278190080
0.237305 0.158455 0.66113299 4278190080
0.243164 0.15878201 0.66113299 4278190080
0.24902301 0.160863 0.66113299 4278190080
0.25488299 0.160237 0.66113299 4278190080
0.26074201 0.15984499 0.66113299 4278190080
0.26660201 0.15928701 0.66113299 4278190080
0.272461 0.159197 0.66113299 4278190080
0.27832001 0.158764 0.66113299 4278190080
0.28417999 0.158462 0.66113299 4278190080
0.290039 0.15860599 0.66113299 4278190080
0.29589799 0.158897 0.66113299 4278190080
0.30175799 0.158957 0.66113299 4278190080
0.30761701 0.15846699 0.66113299 4278190080
0.31347701 0.15887401 0.66113299 4278190080
0.319336 0.15931401 0.66113299 4278190080
0.32519501 0.159609 0.66113299 4278190080
0.33105499 0.159666 0.66113299 4278190080
0.336914 0.16005 0.66113299 4278190080
0.34277299 0.160429 0.66113299 4278190080
0.186041 0.15527301 0.73144501 4278190080
0.18457 0.15606099 0.73144501 4278190080
0.41273299 0.16113301 0.71972698 4278190080
0.413086 0.16125301 0.71972698 4278190080
0.41894501 0.16316301 0.71972698 4278190080
0.42480499 0.163323 0.71972698 4278190080
0.430664 0.163661 0.71972698 4278190080
0.43652299 0.16446701 0.71972698 4278190080
0.44238299 0.165289 0.71972698 4278190080
0.459961 0.166714 0.71972698 4278190080
0.46582001 0.16447601 0.71972698 4278190080
0.46582001 0.16113301 0.72457498 4278190080
0.47515699 0.16113301 0.71972698 4278190080
0.47167999 0.162626 0.71972698 4278190080
0.47167999 0.16113301 0.72171003 4278190080
0.46879199 0.16699199 0.69042999 4278190080
0.46582001 0.16699199 0.693367 4278190080
0.47167999 0.168202 0.69042999 4278190080
0.477539 0.16917901 0.69042999 4278190080
0.48339799 0.16931599 0.69042999 4278190080
0.48925799 0.17038 0.69042999 4278190080
0.49511701 0.17214499 0.69042999 4278190080
0.50097698 0.17039999 0.69042999 4278190080
0.50097698 0.16699199 0.69553697 4278190080
0.50955999 0.16699199 0.69042999 4278190080
0.506836 0.16840699 0.69042999 4278190080
0.506836 0.16699199 0.692074 4278190080
0.18141 0.16113301 0.73144501 4278190080
0.18457 0.16113301 0.73594099 4278190080
0.242346 0.16113301 0.64355499 4278190080
0.243164 0.161431 0.64355499 4278190080
0.24902301 0.162802 0.64355499 4278190080
0.271752 0.16113301 0.64355499 4278190080
0.26660201 0.163054 0.64355499 4278190080
0.26660201 0.16113301 0.64930302 4278190080
0.277601 0.16113301 0.64355499 4278190080
0.27888799 0.16113301 0.64355499 4278190080
0.27832001 0.161167 0.64355499 4278190080
0.27832001 0.16113301 0.64365602 4278190080
0.338231 0.16113301 0.64355499 4278190080
0.34277299 0.161245 0.64355499 4278190080
0.34863299 0.161496 0.64355499 4278190080
