# .PCD v0.7 - Point Cloud Data file format
VERSION 0.7
FIELDS x y z rgb
SIZE 4 4 4 4
TYPE F F F U
COUNT 1 1 1 1
WIDTH 1201
HEIGHT 1
VIEWPOINT 0 0 0 1 0 0 0
POINTS 1201
DATA ascii
0.0791016 0.208296 1.15918 4278190080
0.0791016 0.20800801 1.15947 4278190080
0.112264 0.19043 1.14746 4278190080
0.108398 0.193518 1.14746 4278190080
0.114258 0.19043 1.15117 4278190080
0.070236601 0.21386699 1.15918 4278190080
0.106469 0.196289 1.14746 4278190080
0.102539 0.19941001 1.14746 4278190080
0.108398 0.196289 1.15071 4278190080
0.090820298 0.20644701 1.15332 4278190080
0.096679702 0.204642 1.15332 4278190080
0.102955 0.20214801 1.15332 4278190080
0.102539 0.20250601 1.15332 4278190080
0.115364 0.19043 1.15332 4278190080
0.114258 0.191055 1.15332 4278190080
0.109706 0.196289 1.15332 4278190080
0.108398 0.19736101 1.15332 4278190080
0.0849609 0.20331199 1.15918 4278190080
0.0849609 0.20214801 1.16013 4278190080
0.090820298 0.205082 1.15918 4278190080
0.090820298 0.20214801 1.16189 4278190080
0.096679702 0.205117 1.15918 4278190080
0.096679702 0.20214801 1.16467 4278190080
0.10543 0.20214801 1.15918 4278190080
0.102539 0.20372 1.15918 4278190080
0.118762 0.19043 1.15918 4278190080
0.114258 0.19441301 1.15918 4278190080
0.120117 0.19043 1.1611 4278190080
0.112468 0.196289 1.15918 4278190080
0.108398 0.20006201 1.15918 4278190080
0.114258 0.196289 1.1623 4278190080
0.097840801 0.20214801 1.16504 4278190080
0.105877 0.20214801 1.16504 4278190080
0.102539 0.203023 1.16504 4278190080
0.102539 0.20214801 1.16643 4278190080
0.123072 0.19043 1.16504 4278190080
0.120117 0.19263799 1.16504 4278190080
0.12597699 0.19043 1.17054 4278190080
0.090820298 0.199558 1.16504 4278190080
0.096679702 0.201838 1.16504 4278190080
0.108398 0.201373 1.16504 4278190080
0.115953 0.196289 1.16504 4278190080
0.114258 0.19791301 1.16504 4278190080
0.120117 0.195806 1.1709 4278190080
0.126148 0.19043 1.1709 4278190080
0.12597699 0.19058301 1.1709 4278190080
0.092823997 0.196289 1.1709 4278190080
0.096679702 0.19795001 1.1709 4278190080
0.096679702 0.196289 1.17275 4278190080
0.102539 0.19933701 1.1709 4278190080
0.102539 0.196289 1.17541 4278190080
0.108398 0.199976 1.1709 4278190080
0.119224 0.196289 1.1709 4278190080
0.114258 0.19868501 1.1709 4278190080
0.102539 0.194949 1.17676 4278190080
0.120117 0.196169 1.17676 4278190080
0.127661 0.19043 1.17676 4278190080
0.12597699 0.192247 1.17676 4278190080
0.10567 0.196289 1.17676 4278190080
0.108398 0.197221 1.17676 4278190080
0.108398 0.196289 1.17801 4278190080
0.119849 0.196289 1.17676 4278190080
0.114258 0.198164 1.17676 4278190080
0.114258 0.196289 1.1795599 4278190080
0.108398 0.193211 1.18262 4278190080
0.108398 0.19043 1.18611 4278190080
0.114258 0.19434699 1.18262 4278190080
0.120117 0.194066 1.18262 4278190080
0.128089 0.19043 1.18262 4278190080
0.12597699 0.192002 1.18262 4278190080
0.113628 0.19043 1.18848 4278190080
0.114258 0.19076499 1.18848 4278190080
0.114258 0.19043 1.1888 4278190080
0.120117 0.19219901 1.18848 4278190080
0.120117 0.19043 1.1909 4278190080
0.127773 0.19043 1.18848 4278190080
0.12597699 0.191149 1.18848 4278190080
0.12597699 0.19043 1.18972 4278190080
-0.067382798 0.225586 0.96551502 4278190080
-0.0791016 0.231445 0.97035801 4278190080
-0.073242202 0.231445 0.96883702 4278190080
-0.067382798 0.231445 0.96897101 4278190080
-0.0615234 0.231445 0.97096199 4278190080
-0.0849609 0.225586 0.97023302 4278190080
-0.0791016 0.225586 0.96777302 4278190080
-0.069989398 0.225586 0.96582001 4278190080
-0.073242202 0.225586 0.96618599 4278190080
-0.066207297 0.225586 0.96582001 4278190080
-0.067382798 0.226126 0.96582001 4278190080
-0.0615234 0.225586 0.96757102 4278190080
-0.0556641 0.225586 0.97149903 4278190080
-0.090820298 0.231445 0.975954 4278190080
-0.082617998 0.231445 0.97167999 4278190080
-0.0849609 0.231445 0.97254097 4278190080
-0.0791016 0.234493 0.97167999 4278190080
-0.073242202 0.23693199 0.97167999 4278190080
-0.067382798 0.236302 0.97167999 4278190080
-0.060504999 0.231445 0.97167999 4278190080
-0.0615234 0.232604 0.97167999 4278190080
-0.0556641 0.231445 0.97490001 4278190080
-0.0849609 0.24902301 0.98242801 4278190080
-0.087408498 0.225586 0.97167999 4278190080
-0.090820298 0.225586 0.97346997 4278190080
-0.0849609 0.229499 0.97167999 4278190080
-0.055421401 0.225586 0.97167999 4278190080
-0.0556641 0.225843 0.97167999 4278190080
-0.049804699 0.225586 0.97473001 4278190080
-0.087777302 0.24902301 0.98339802 4278190080
-0.090820298 0.24902301 0.98576897 4278190080
-0.082700297 0.24902301 0.98339802 4278190080
-0.0849609 0.249439 0.98339802 4278190080
-0.0791016 0.24902301 0.98504198 4278190080
-0.073242202 0.24902301 0.98595297 4278190080
-0.067382798 0.24902301 0.98776197 4278190080
-0.0615234 0.24902301 0.98812598 4278190080
-0.0556641 0.24902301 0.98870701 4278190080
-0.073242202 0.25488299 0.99785298 4278190080
-0.067382798 0.25488299 0.997352 4278190080
-0.0615234 0.25488299 0.99833101 4278190080
-0.092795096 0.231445 0.977539 4278190080
-0.096679702 0.231445 0.98063898 4278190080
-0.090820298 0.23630799 0.977539 4278190080
-0.0508934 0.231445 0.977539 4278190080
-0.0556641 0.235309 0.977539 4278190080
-0.049804699 0.231445 0.97805101 4278190080
-0.043945301 0.231445 0.98159802 4278190080
-0.095559999 0.225586 0.977539 4278190080
-0.096679702 0.225586 0.97851098 4278190080
-0.044408999 0.225586 0.977539 4278190080
-0.049804699 0.23050401 0.977539 4278190080
-0.043945301 0.225586 0.97778797 4278190080
-0.0380859 0.225586 0.98206198 4278190080
-0.090820298 0.25488299 1.00352 4278190080
-0.0849609 0.25488299 1.00173 4278190080
-0.079007298 0.25488299 1.00098 4278190080
-0.0791016 0.25488299 1.00102 4278190080
-0.073242202 0.256392 1.00098 4278190080
-0.067382798 0.25652799 1.00098 4278190080
-0.057396799 0.25488299 1.00098 4278190080
-0.0615234 0.25586599 1.00098 4278190080
-0.0556641 0.25488299 1.00293 4278190080
-0.092524901 0.24902301 0.98925799 4278190080
-0.096679702 0.24902301 0.99452603 4278190080
-0.090820298 0.24973699 0.98925799 4278190080
-0.0849609 0.25072801 0.98925799 4278190080
-0.0791016 0.25090799 0.98925799 4278190080
-0.073242202 0.250393 0.98925799 4278190080
-0.067382798 0.25014099 0.98925799 4278190080
-0.0615234 0.249742 0.98925799 4278190080
-0.054245599 0.24902301 0.98925799 4278190080
-0.0556641 0.24934401 0.98925799 4278190080
-0.049804699 0.24902301 0.99314898 4278190080
-0.0849609 0.237305 0.97511703 4278190080
-0.0791016 0.237305 0.97303998 4278190080
-0.073242202 0.237305 0.97188503 4278190080
-0.067382798 0.237305 0.97226298 4278190080
-0.0615234 0.237305 0.97439498 4278190080
-0.0791016 0.243164 0.97589701 4278190080
-0.073242202 0.243164 0.97500902 4278190080
-0.067382798 0.243164 0.97573602 4278190080
-0.098215804 0.231445 0.98339802 4278190080
-0.0417163 0.231445 0.98339802 4278190080
-0.043945301 0.233602 0.98339802 4278190080
-0.0380859 0.231445 0.98642302 4278190080
-0.036750901 0.225586 0.98339802 4278190080
-0.0380859 0.22748899 0.98339802 4278190080
-0.0322266 0.225586 0.98777199 4278190080
-0.0791016 0.257761 1.00684 4278190080
-0.073242202 0.25771701 1.00684 4278190080
-0.067382798 0.25734499 1.00684 4278190080
-0.0615234 0.25666401 1.00684 4278190080
-0.0538061 0.25488299 1.00684 4278190080
-0.0556641 0.25568399 1.00684 4278190080
-0.097237296 0.24902301 0.99511701 4278190080
-0.096679702 0.24939001 0.99511701 4278190080
-0.090820298 0.25122699 0.99511701 4278190080
-0.0849609 0.251724 0.99511701 4278190080
-0.0791016 0.252424 0.99511701 4278190080
-0.073242202 0.25293201 0.99511701 4278190080
-0.067382798 0.25304401 0.99511701 4278190080
-0.0615234 0.252563 0.99511701 4278190080
-0.0556641 0.251169 0.99511701 4278190080
-0.047353499 0.24902301 0.99511701 4278190080
-0.049804699 0.249543 0.99511701 4278190080
-0.043945301 0.24902301 0.99822998 4278190080
-0.090820298 0.243164 0.98183799 4278190080
-0.083635204 0.243164 0.977539 4278190080
-0.0849609 0.243164 0.97798699 4278190080
-0.0791016 0.244155 0.977539 4278190080
-0.073242202 0.244165 0.977539 4278190080
-0.063682899 0.243164 0.977539 4278190080
-0.067382798 0.243688 0.977539 4278190080
-0.0615234 0.243164 0.97876602 4278190080
-0.0556641 0.243164 0.982647 4278190080
-0.096679702 0.237305 0.98237902 4278190080
-0.089826003 0.237305 0.977539 4278190080
-0.090820298 0.237305 0.97797 4278190080
-0.0849609 0.242321 0.977539 4278190080
-0.057420701 0.237305 0.977539 4278190080
-0.0615234 0.241578 0.977539 4278190080
-0.0556641 0.237305 0.978737 4278190080
-0.049804699 0.237305 0.98204702 4278190080
-0.035742201 0.231445 0.98925799 4278190080
-0.0380859 0.234556 0.98925799 4278190080
-0.0322266 0.231445 0.99279898 4278190080
-0.031002499 0.225586 0.98925799 4278190080
-0.0322266 0.22724199 0.98925799 4278190080
-0.026367201 0.225586 0.99419498 4278190080
-0.0849609 0.25447899 1.00098 4278190080
-0.0791016 0.25484601 1.00098 4278190080
-0.0556641 0.25384101 1.00098 4278190080
-0.049804699 0.251196 1.00098 4278190080
-0.042510901 0.24902301 1.00098 4278190080
-0.043945301 0.24947999 1.00098 4278190080
-0.0791016 0.26030001 1.0127 4278190080
-0.073242202 0.25962299 1.0127 4278190080
-0.067382798 0.25823799 1.0127 4278190080
-0.0615234 0.25713101 1.0127 4278190080
-0.051153298 0.25488299 1.0127 4278190080
-0.0556641 0.25608599 1.0127 4278190080
-0.049804699 0.25488299 1.01652 4278190080
-0.0304549 0.231445 0.99511701 4278190080
-0.0322266 0.233615 0.99511701 4278190080
-0.026367201 0.231445 1.00035 4278190080
-0.092600301 0.243164 0.98339802 4278190080
-0.096679702 0.243164 0.98687601 4278190080
-0.090820298 0.246704 0.98339802 4278190080
-0.0791016 0.24726801 0.98339802 4278190080
-0.073242202 0.24703901 0.98339802 4278190080
-0.067382798 0.24547701 0.98339802 4278190080
-0.0615234 0.244765 0.98339802 4278190080
-0.054334801 0.243164 0.98339802 4278190080
-0.0556641 0.24360099 0.98339802 4278190080
-0.049804699 0.243164 0.986395 4278190080
-0.097375996 0.237305 0.98339802 4278190080
-0.096679702 0.23877899 0.98339802 4278190080
-0.048036698 0.237305 0.98339802 4278190080
-0.049804699 0.239124 0.98339802 4278190080
-0.043945301 0.237305 0.98649299 4278190080
-0.0256187 0.225586 0.99511701 4278190080
-0.026367201 0.22649901 0.99511701 4278190080
-0.049804699 0.25210401 1.00684 4278190080
-0.038321901 0.24902301 1.00684 4278190080
-0.043945301 0.25008801 1.00684 4278190080
-0.0380859 0.24902301 1.00718 4278190080
-0.067382798 0.25909999 1.01855 4278190080
-0.0615234 0.25754699 1.01855 4278190080
-0.0556641 0.25667301 1.01855 4278190080
-0.0493914 0.25488299 1.01855 4278190080
-0.049804699 0.25509301 1.01855 4278190080
-0.049804699 0.25488299 1.02083 4278190080
-0.0259581 0.231445 1.00098 4278190080
-0.026367201 0.23201799 1.00098 4278190080
-0.098678403 0.243164 0.98925799 4278190080
-0.096679702 0.245509 0.98925799 4278190080
-0.046471398 0.243164 0.98925799 4278190080
-0.049804699 0.24577899 0.98925799 4278190080
-0.043945301 0.243164 0.99158502 4278190080
-0.0206881 0.225586 1.00098 4278190080
-0.020507799 0.225586 1.0012 4278190080
-0.0408285 0.237305 0.98925799 4278190080
-0.043945301 0.240602 0.98925799 4278190080
-0.0380859 0.237305 0.99183601 4278190080
-0.049804699 0.25411299 1.0127 4278190080
-0.043945301 0.25097299 1.0127 4278190080
-0.036694799 0.24902301 1.0127 4278190080
-0.0380859 0.249635 1.0127 4278190080
-0.067382798 0.25882301 1.02441 4278190080
-0.0615234 0.257184 1.02441 4278190080
-0.050698299 0.25488299 1.02441 4278190080
-0.0556641 0.256473 1.02441 4278190080
-0.021981999 0.231445 1.00684 4278190080
-0.026367201 0.237103 1.00684 4278190080
-0.020507799 0.231445 1.0088 4278190080
-0.0166078 0.225586 1.00684 4278190080
-0.020507799 0.22981501 1.00684 4278190080
-0.0146484 0.225586 1.00921 4278190080
-0.0408484 0.243164 0.99511701 4278190080
-0.043945301 0.24649601 0.99511701 4278190080
-0.0380859 0.243164 0.99820399 4278190080
-0.035727099 0.237305 0.99511701 4278190080
-0.0380859 0.240326 0.99511701 4278190080
-0.0322266 0.237305 0.99898702 4278190080
-0.0615234 0.25673801 1.03027 4278190080
-0.049809601 0.25488299 1.03027 4278190080
-0.0556641 0.25613701 1.03027 4278190080
-0.043945301 0.251589 1.01855 4278190080
-0.034906302 0.24902301 1.01855 4278190080
-0.0380859 0.25043601 1.01855 4278190080
-0.017922601 0.231445 1.0127 4278190080
-0.020507799 0.234339 1.0127 4278190080
-0.0146484 0.231445 1.01693 4278190080
-0.0123287 0.225586 1.0127 4278190080
-0.0146484 0.22812399 1.0127 4278190080
-0.0087890597 0.225586 1.01792 4278190080
-0.036503699 0.243164 1.00098 4278190080
-0.0380859 0.244802 1.00098 4278190080
0.18457 0.237305 1.02999 4278190080
0.18457 0.243164 1.0301501 4278190080
-0.030724799 0.237305 1.00098 4278190080
-0.0322266 0.238774 1.00098 4278190080
-0.049804699 0.25439301 1.02441 4278190080
-0.043945301 0.251901 1.02441 4278190080
-0.0322906 0.24902301 1.02441 4278190080
-0.0380859 0.25068101 1.02441 4278190080
-0.0322266 0.24902301 1.0247 4278190080
-0.05094 0.25488299 1.03613 4278190080
-0.0556641 0.256174 1.03613 4278190080
-0.0135142 0.231445 1.01855 4278190080
-0.0146484 0.232557 1.01855 4278190080
-0.0083910199 0.225586 1.01855 4278190080
-0.0087890597 0.226062 1.01855 4278190080
0.183934 0.237305 1.03027 4278190080
0.178711 0.237305 1.03269 4278190080
0.18554001 0.237305 1.03027 4278190080
0.184285 0.243164 1.03027 4278190080
0.178711 0.243164 1.03343 4278190080
0.185316 0.243164 1.03027 4278190080
-0.0323315 0.243164 1.00684 4278190080
-0.0380859 0.24882799 1.00684 4278190080
-0.0322266 0.243164 1.0069799 4278190080
-0.049804699 0.25488001 1.03027 4278190080
-0.043945301 0.25227201 1.03027 4278190080
-0.0380859 0.25065199 1.03027 4278190080
-0.031364799 0.24902301 1.03027 4278190080
-0.0322266 0.249412 1.03027 4278190080
-0.0265464 0.237305 1.00684 4278190080
-0.0322266 0.243065 1.00684 4278190080
-0.026367201 0.237305 1.00709 4278190080
-0.0099816304 0.231445 1.02441 4278190080
-0.0146484 0.23623399 1.02441 4278190080
-0.0087890597 0.231445 1.02631 4278190080
-0.0049561299 0.225586 1.02441 4278190080
-0.0087890597 0.23011801 1.02441 4278190080
-0.0029296901 0.225586 1.02745 4278190080
0.175274 0.237305 1.03613 4278190080
0.17285199 0.237305 1.03979 4278190080
0.19043 0.225586 1.03395 4278190080
0.17587601 0.243164 1.03613 4278190080
0.17285199 0.243164 1.0394 4278190080
-0.0290624 0.243164 1.0127 4278190080
-0.0322266 0.24487101 1.0127 4278190080
-0.026367201 0.243164 1.01693 4278190080
0.19043 0.237305 1.03272 4278190080
0.178711 0.225586 1.02986 4278190080
0.18457 0.225586 1.0296201 4278190080
0.19043 0.243164 1.03171 4278190080
0.19043 0.231445 1.03334 4278190080
0.18457 0.24902301 1.03005 4278190080
-0.049804699 0.25422001 1.03613 4278190080
-0.043945301 0.25153899 1.03613 4278190080
-0.0380859 0.250379 1.03613 4278190080
-0.0310684 0.24902301 1.03613 4278190080
-0.0322266 0.249501 1.03613 4278190080
-0.0232269 0.237305 1.0127 4278190080
-0.026367201 0.240494 1.0127 4278190080
-0.020507799 0.237305 1.01649 4278190080
-0.0064278799 0.231445 1.03027 4278190080
-0.0087890597 0.23374601 1.03027 4278190080
-0.0029296901 0.231445 1.0348099 4278190080
0.18457 0.231445 1.03026 4278190080
0.17142101 0.237305 1.04199 4278190080
0.16699199 0.237305 1.04721 4278190080
0.19043 0.24902301 1.03079 4278190080
0.196289 0.24902301 1.0353301 4278190080
-0.00118721 0.225586 1.03027 4278190080
-0.0029296901 0.227653 1.03027 4278190080
0.19302601 0.225586 1.03613 4278190080
0.196289 0.225586 1.03913 4278190080
0.17135499 0.243164 1.04199 4278190080
0.19043 0.25488299 1.03144 4278190080
0.196289 0.25488299 1.03461 4278190080
0.18457 0.25488299 1.03281 4278190080
0.19520999 0.237305 1.03613 4278190080
0.196289 0.237305 1.03701 4278190080
0.20214801 0.237305 1.0417399 4278190080
0.196257 0.243164 1.03613 4278190080
0.196289 0.24335399 1.03613 4278190080
0.196289 0.243164 1.03616 4278190080
0.20214801 0.243164 1.04082 4278190080
-0.0322266 0.24666201 1.01855 4278190080
-0.0255158 0.243164 1.01855 4278190080
-0.026367201 0.243489 1.01855 4278190080
0.0029296901 0.225586 1.03593 4278190080
0.17811801 0.225586 1.03027 4278190080
0.17285199 0.225586 1.0348901 4278190080
0.178711 0.22739001 1.03027 4278190080
0.18566699 0.225586 1.03027 4278190080
-0.049804699 0.25437099 1.04199 4278190080
-0.043945301 0.251259 1.04199 4278190080
-0.0380859 0.250303 1.04199 4278190080
-0.0307204 0.24902301 1.04199 4278190080
-0.0322266 0.249615 1.04199 4278190080
0.193977 0.231445 1.03613 4278190080
0.196289 0.231445 1.0380501 4278190080
0.166605 0.237305 1.04785 4278190080
0.16699199 0.238591 1.04785 4278190080
-0.00209963 0.231445 1.03613 4278190080
-0.0029296901 0.23220199 1.03613 4278190080
0.183827 0.24902301 1.03027 4278190080
0.178711 0.24902301 1.03299 4278190080
0.187223 0.24902301 1.03027 4278190080
0.18457 0.24941 1.03027 4278190080
-0.0192692 0.237305 1.01855 4278190080
-0.020507799 0.238474 1.01855 4278190080
0.184504 0.231445 1.03027 4278190080
0.178711 0.231445 1.03136 4278190080
0.184609 0.231445 1.03027 4278190080
0.168165 0.243164 1.04785 4278190080
0.16699199 0.243164 1.05006 4278190080
0.197349 0.24902301 1.03613 4278190080
0.20214801 0.24902301 1.03984 4278190080
0.199751 0.225586 1.04199 4278190080
0.20214801 0.225586 1.04404 4278190080
0.2024 0.237305 1.04199 4278190080
0.20800801 0.237305 1.04766 4278190080
0.198322 0.25488299 1.03613 4278190080
0.20214801 0.25488299 1.03912 4278190080
0.16391 0.237305 1.05371 4278190080
0.203346 0.243164 1.04199 4278190080
0.20800801 0.243164 1.04668 4278190080
0.180002 0.25488299 1.03613 4278190080
0.178711 0.25488299 1.0371701 4278190080
-0.0322266 0.24896599 1.02441 4278190080
-0.021867 0.243164 1.02441 4278190080
-0.026367201 0.244486 1.02441 4278190080
-0.020507799 0.243164 1.02759 4278190080
0.201234 0.231445 1.04199 4278190080
0.20214801 0.23582099 1.04199 4278190080
0.20214801 0.231445 1.0427901 4278190080
-0.043945301 0.25156099 1.04785 4278190080
-0.0380859 0.25016201 1.04785 4278190080
-0.030965099 0.24902301 1.04785 4278190080
-0.0322266 0.249413 1.04785 4278190080
0.00306714 0.225586 1.03613 4278190080
0.0029296901 0.22573701 1.03613 4278190080
0.171731 0.225586 1.03613 4278190080
0.17285199 0.230112 1.03613 4278190080
0.00121534 0.231445 1.04199 4278190080
-0.0029296901 0.23503201 1.04199 4278190080
0.165317 0.243164 1.05371 4278190080
0.176212 0.24902301 1.03613 4278190080
0.17285199 0.24902301 1.0415699 4278190080
0.178711 0.252565 1.03613 4278190080
-0.0157077 0.237305 1.02441 4278190080
-0.020507799 0.241942 1.02441 4278190080
-0.0146484 0.237305 1.02593 4278190080
0.20446999 0.24902301 1.04199 4278190080
0.20800801 0.24902301 1.04583 4278190080
0.20606899 0.225586 1.04785 4278190080
0.20800801 0.225586 1.0497 4278190080
0.17324001 0.231445 1.03613 4278190080
0.17285199 0.231445 1.03641 4278190080
0.208203 0.237305 1.04785 4278190080
0.21386699 0.237305 1.05328 4278190080
0.0029296901 0.237305 1.06309 4278190080
0.161281 0.237305 1.05957 4278190080
0.205376 0.25488299 1.04199 4278190080
0.20800801 0.25488299 1.04452 4278190080
0.20921101 0.243164 1.04785 4278190080
0.21386699 0.243164 1.05238 4278190080
0.174253 0.25488299 1.04199 4278190080
0.17285199 0.25488299 1.04377 4278190080
0.163877 0.243164 1.05957 4278190080
-0.026367201 0.24557 1.03027 4278190080
-0.019793199 0.243164 1.03027 4278190080
-0.020507799 0.243443 1.03027 4278190080
0.206975 0.231445 1.04785 4278190080
0.20800801 0.23637 1.04785 4278190080
0.20800801 0.231445 1.04883 4278190080
-0.0380859 0.250534 1.05371 4278190080
-0.030780399 0.24902301 1.05371 4278190080
-0.0322266 0.24958999 1.05371 4278190080
0.17264199 0.24902301 1.04199 4278190080
0.17285199 0.24960101 1.04199 4278190080
0.00735664 0.225586 1.04199 4278190080
0.0029296901 0.229545 1.04199 4278190080
0.0087890597 0.225586 1.0435801 4278190080
0.167371 0.225586 1.04199 4278190080
0.16699199 0.225586 1.04249 4278190080
0.212321 0.225586 1.05371 4278190080
0.21386699 0.225586 1.05505 4278190080
0.209923 0.24902301 1.04785 4278190080
0.21386699 0.24902301 1.0513099 4278190080
-0.0120809 0.237305 1.03027 4278190080
-0.0146484 0.23897099 1.03027 4278190080
-0.0087890597 0.237305 1.0356899 4278190080
0.0036367199 0.237305 1.06543 4278190080
0.0029296901 0.237694 1.06543 4278190080
0.165361 0.237305 1.06543 4278190080
0.16699199 0.237305 1.06666 4278190080
0.214351 0.237305 1.05371 4278190080
0.21972699 0.237305 1.05837 4278190080
0.0029296901 0.231445 1.0443799 4278190080
0.168502 0.231445 1.04199 4278190080
0.16699199 0.231445 1.04374 4278190080
0.211071 0.25488299 1.04785 4278190080
0.21386699 0.25488299 1.0505199 4278190080
0.21532001 0.243164 1.05371 4278190080
0.21972699 0.243164 1.05773 4278190080
0.16587301 0.243164 1.06543 4278190080
0.16699199 0.24821401 1.06543 4278190080
0.168827 0.24902301 1.04785 4278190080
0.16699199 0.24902301 1.05348 4278190080
-0.026367201 0.246286 1.03613 4278190080
-0.017483801 0.243164 1.03613 4278190080
-0.020507799 0.24428301 1.03613 4278190080
-0.030465201 0.24902301 1.05957 4278190080
-0.0322266 0.24999 1.05957 4278190080
0.213525 0.231445 1.05371 4278190080
0.21386699 0.233867 1.05371 4278190080
0.21386699 0.231445 1.0540299 4278190080
0.21972699 0.231445 1.05918 4278190080
0.169705 0.25488299 1.04785 4278190080
0.17285199 0.259372 1.04785 4278190080
0.0113702 0.225586 1.04785 4278190080
0.0087890597 0.22821701 1.04785 4278190080
0.0146484 0.225586 1.0521899 4278190080
0.16362 0.225586 1.04785 4278190080
0.219308 0.225586 1.05957 4278190080
0.21972699 0.228302 1.05957 4278190080
0.21972699 0.225586 1.05993 4278190080
0.225586 0.225586 1.06517 4278190080
0.221056 0.237305 1.05957 4278190080
0.225586 0.237305 1.0636801 4278190080
0.21643101 0.24902301 1.05371 4278190080
0.21972699 0.24902301 1.05679 4278190080
0.0030893099 0.237305 1.07129 4278190080
0.0029296901 0.2374 1.07129 4278190080
0.17227601 0.237305 1.07129 4278190080
0.178711 0.237305 1.07591 4278190080
-0.0146484 0.240743 1.03613 4278190080
-0.0085457601 0.237305 1.03613 4278190080
-0.0087890597 0.237418 1.03613 4278190080
0.21737599 0.25488299 1.05371 4278190080
0.21972699 0.25488299 1.05586 4278190080
0.17285199 0.24380501 1.07129 4278190080
0.178711 0.243164 1.0734299 4278190080
0.221802 0.243164 1.05957 4278190080
0.225586 0.243164 1.06282 4278190080
0.0052452101 0.231445 1.04785 4278190080
0.0029296901 0.232724 1.04785 4278190080
0.0087890597 0.231445 1.05361 4278190080
0.164341 0.231445 1.04785 4278190080
0.166913 0.24902301 1.05371 4278190080
0.16699199 0.24929599 1.05371 4278190080
0.220181 0.231445 1.05957 4278190080
0.225586 0.231445 1.06438 4278190080
-0.026367201 0.246684 1.04199 4278190080
-0.014707 0.243164 1.04199 4278190080
-0.020507799 0.244931 1.04199 4278190080
-0.0146484 0.243164 1.04229 4278190080
0.168198 0.25488299 1.05371 4278190080
0.16699199 0.25488299 1.05592 4278190080
0.0157886 0.225586 1.05371 4278190080
0.0146484 0.226372 1.05371 4278190080
0.16144399 0.225586 1.05371 4278190080
0.16113301 0.225586 1.05427 4278190080
0.0032748 0.237305 1.07715 4278190080
0.0029296901 0.237482 1.07715 4278190080
0.0029296901 0.237305 1.0777299 4278190080
0.17982 0.237305 1.07715 4278190080
0.18457 0.237305 1.07999 4278190080
0.227478 0.237305 1.06543 4278190080
0.231445 0.237305 1.06923 4278190080
0.225849 0.225586 1.06543 4278190080
0.231445 0.225586 1.0707901 4278190080
0.222854 0.24902301 1.05957 4278190080
0.225586 0.24902301 1.06196 4278190080
0.18227801 0.243164 1.07715 4278190080
0.18457 0.243164 1.07877 4278190080
-0.0146484 0.243111 1.04199 4278190080
-0.0052519999 0.237305 1.04199 4278190080
-0.0087890597 0.238584 1.04199 4278190080
-0.0029296901 0.237305 1.04626 4278190080
0.22840001 0.243164 1.06543 4278190080
0.231445 0.243164 1.06831 4278190080
0.224023 0.25488299 1.05957 4278190080
0.225586 0.25488299 1.06094 4278190080
0.164582 0.24902301 1.05957 4278190080
0.16699199 0.24902301 1.0648299 4278190080
0.0029296901 0.234525 1.05371 4278190080
0.00883222 0.231445 1.05371 4278190080
0.0087890597 0.23146699 1.05371 4278190080
0.16258401 0.231445 1.05371 4278190080
0.16113301 0.231445 1.05718 4278190080
-0.026367201 0.24695501 1.04785 4278190080
-0.020507799 0.244965 1.04785 4278190080
-0.0141208 0.243164 1.04785 4278190080
-0.0146484 0.243504 1.04785 4278190080
0.226658 0.231445 1.06543 4278190080
0.231445 0.231445 1.0700999 4278190080
0.18800201 0.237305 1.08301 4278190080
0.0191873 0.225586 1.05957 4278190080
0.0146484 0.228653 1.05957 4278190080
0.020507799 0.225586 1.06136 4278190080
0.159174 0.225586 1.05957 4278190080
0.16113301 0.225586 1.0622801 4278190080
0.23197199 0.225586 1.07129 4278190080
0.237305 0.225586 1.07626 4278190080
0.233749 0.237305 1.07129 4278190080
0.237305 0.237305 1.0744801 4278190080
0.18907499 0.243164 1.08301 4278190080
0.165518 0.25488299 1.05957 4278190080
0.16699199 0.25488299 1.06163 4278190080
0.22934499 0.24902301 1.06543 4278190080
0.231445 0.24902301 1.06751 4278190080
0.234539 0.243164 1.07129 4278190080
0.237305 0.243164 1.07373 4278190080
0.23046 0.25488299 1.06543 4278190080
0.231445 0.25488299 1.0664099 4278190080
-0.0087890597 0.239272 1.04785 4278190080
-0.0023489001 0.237305 1.04785 4278190080
-0.0029296901 0.23757599 1.04785 4278190080
0.167509 0.24902301 1.06543 4278190080
0.17285199 0.24902301 1.06828 4278190080
0.232751 0.231445 1.07129 4278190080
0.237305 0.231445 1.07546 4278190080
0.0029296901 0.23617899 1.05957 4278190080
0.0120649 0.231445 1.05957 4278190080
0.0087890597 0.232972 1.05957 4278190080
0.16041 0.231445 1.05957 4278190080
0.16113301 0.236753 1.05957 4278190080
0.16113301 0.231445 1.06038 4278190080
-0.026367201 0.246379 1.05371 4278190080
-0.020507799 0.244883 1.05371 4278190080
-0.0143905 0.243164 1.05371 4278190080
-0.0146484 0.243324 1.05371 4278190080
0.0146484 0.230345 1.06543 4278190080
0.021988999 0.225586 1.06543 4278190080
0.020507799 0.226611 1.06543 4278190080
0.163771 0.225586 1.06543 4278190080
0.16699199 0.225586 1.06747 4278190080
0.240183 0.237305 1.07715 4278190080
0.243164 0.237305 1.0798 4278190080
0.170076 0.25488299 1.06543 4278190080
0.17285199 0.25488299 1.06715 4278190080
0.238276 0.225586 1.07715 4278190080
0.243164 0.225586 1.08173 4278190080
0.235526 0.24902301 1.07129 4278190080
0.237305 0.24902301 1.0728101 4278190080
0.241184 0.243164 1.07715 4278190080
0.243164 0.243164 1.07895 4278190080
0.23634 0.25488299 1.07129 4278190080
0.237305 0.25488299 1.07219 4278190080
0.17591 0.24902301 1.07129 4278190080
0.178711 0.24902301 1.07283 4278190080
-0.0087890597 0.239724 1.05371 4278190080
-0.000680923 0.237305 1.05371 4278190080
-0.0029296901 0.23818401 1.05371 4278190080
0.23925801 0.231445 1.07715 4278190080
0.243164 0.231445 1.08066 4278190080
0.013628 0.231445 1.06543 4278190080
0.0087890597 0.233758 1.06543 4278190080
0.0146484 0.231445 1.06906 4278190080
0.164891 0.231445 1.06543 4278190080
0.16699199 0.231445 1.06718 4278190080
0.19043 0.237305 1.08464 4278190080
0.246842 0.237305 1.08301 4278190080
0.24902301 0.237305 1.08503 4278190080
0.24457601 0.225586 1.08301 4278190080
0.24902301 0.225586 1.087 4278190080
0.17724501 0.25488299 1.07129 4278190080
0.178711 0.25488299 1.0724601 4278190080
0.024245599 0.225586 1.07129 4278190080
0.020507799 0.227452 1.07129 4278190080
0.026367201 0.225586 1.07478 4278190080
0.17088801 0.225586 1.07129 4278190080
0.17285199 0.225586 1.07285 4278190080
0.24193799 0.24902301 1.07715 4278190080
0.243164 0.24902301 1.07828 4278190080
0.19043 0.243164 1.08429 4278190080
0.247436 0.243164 1.08301 4278190080
0.24902301 0.243164 1.08448 4278190080
-0.0029296901 0.235369 1.08301 4278190080
-0.026367201 0.245965 1.05957 4278190080
-0.020507799 0.24461 1.05957 4278190080
-0.0142949 0.243164 1.05957 4278190080
-0.0146484 0.24335 1.05957 4278190080
0.24251001 0.25488299 1.07715 4278190080
0.243164 0.25488299 1.07776 4278190080
0.183025 0.24902301 1.07715 4278190080
0.19043 0.231445 1.08698 4278190080
0.245698 0.231445 1.08301 4278190080
0.24902301 0.231445 1.0860699 4278190080
-0.0087890597 0.240284 1.05957 4278190080
0.00162745 0.237305 1.05957 4278190080
-0.0029296901 0.23896199 1.05957 4278190080
0.0087890597 0.234053 1.07129 4278190080
0.0151403 0.231445 1.07129 4278190080
0.0146484 0.231718 1.07129 4278190080
0.171424 0.231445 1.07129 4278190080
0.17285199 0.231445 1.0724 4278190080
0.19456799 0.237305 1.08887 4278190080
0.196289 0.237305 1.09035 4278190080
0.25336 0.237305 1.08887 4278190080
0.25488299 0.237305 1.09022 4278190080
0.19043 0.22718599 1.08887 4278190080
0.196289 0.225586 1.09356 4278190080
0.25115499 0.225586 1.08887 4278190080
0.25488299 0.225586 1.09197 4278190080
0.18359999 0.25488299 1.07715 4278190080
0.18457 0.25987199 1.07715 4278190080
0.18457 0.25488299 1.07807 4278190080
0.020507799 0.228303 1.07715 4278190080
0.027616501 0.225586 1.07715 4278190080
0.026367201 0.226171 1.07715 4278190080
0.177296 0.225586 1.07715 4278190080
0.178711 0.225586 1.07836 4278190080
0.195173 0.243164 1.08887 4278190080
0.254035 0.243164 1.08887 4278190080
0.25488299 0.243164 1.08961 4278190080
0.26074201 0.243164 1.0943201 4278190080
0.19043 0.24902301 1.0843 4278190080
0.248068 0.24902301 1.08301 4278190080
0.24902301 0.24902301 1.0839 4278190080
-0.020507799 0.244517 1.06543 4278190080
-0.0146279 0.243164 1.06543 4278190080
-0.0146484 0.243174 1.06543 4278190080
-0.0146484 0.243164 1.0658 4278190080
0.19043 0.257357 1.08301 4278190080
0.19043 0.25488299 1.0836999 4278190080
0.248721 0.25488299 1.08301 4278190080
0.24902301 0.25488299 1.08329 4278190080
0.25488299 0.25488299 1.08857 4278190080
0.19248299 0.231445 1.08887 4278190080
0.196289 0.231445 1.09113 4278190080
0.25231799 0.231445 1.08887 4278190080
0.25488299 0.231445 1.0909801 4278190080
0.201006 0.237305 1.09473 4278190080
0.260355 0.237305 1.09473 4278190080
0.26074201 0.239788 1.09473 4278190080
0.26074201 0.237305 1.09505 4278190080
-0.0087890597 0.240031 1.06543 4278190080
-0.0029296901 0.239251 1.06543 4278190080
0.197495 0.225586 1.09473 4278190080
0.20214801 0.225586 1.09751 4278190080
0.25810999 0.225586 1.09473 4278190080
0.26074201 0.225586 1.09745 4278190080
0.0087890597 0.23448899 1.07715 4278190080
0.0161475 0.231445 1.07715 4278190080
0.0146484 0.232205 1.07715 4278190080
0.177764 0.231445 1.07715 4278190080
0.178711 0.235413 1.07715 4278190080
0.18457 0.231445 1.08284 4278190080
0.189743 0.25488299 1.08301 4278190080
0.020507799 0.228653 1.08301 4278190080
0.030754801 0.225586 1.08301 4278190080
0.026367201 0.227046 1.08301 4278190080
0.0322266 0.225586 1.0861 4278190080
0.183575 0.225586 1.08301 4278190080
0.18457 0.231117 1.08301 4278190080
0.18457 0.225586 1.08398 4278190080
0.20214801 0.247669 1.09473 4278190080
0.20214801 0.243164 1.09544 4278190080
0.261208 0.243164 1.09473 4278190080
0.26660201 0.243164 1.1001199 4278190080
0.195612 0.24902301 1.08887 4278190080
0.20214801 0.24902301 1.09428 4278190080
0.25487399 0.24902301 1.08887 4278190080
0.25488299 0.249154 1.08887 4278190080
0.25488299 0.24902301 1.08887 4278190080
0.26074201 0.24902301 1.0936199 4278190080
-0.0151407 0.243164 1.07129 4278190080
-0.020507799 0.244394 1.07129 4278190080
0.20010599 0.231445 1.09473 4278190080
0.20214801 0.231445 1.09636 4278190080
0.259426 0.231445 1.09473 4278190080
0.26074201 0.231445 1.09585 4278190080
0.196263 0.25488299 1.08887 4278190080
0.196289 0.25494 1.08887 4278190080
0.196289 0.25488299 1.08889 4278190080
0.20214801 0.25488299 1.09249 4278190080
0.255243 0.25488299 1.08887 4278190080
0.25488299 0.25930601 1.08887 4278190080
0.26074201 0.25488299 1.09382 4278190080
0.20575 0.225586 1.10059 4278190080
0.20800801 0.225586 1.10303 4278190080
0.261801 0.225586 1.10059 4278190080
0.20800801 0.237305 1.1014301 4278190080
0.26559001 0.237305 1.10059 4278190080
0.26660201 0.24156301 1.10059 4278190080
0.26660201 0.237305 1.10232 4278190080
-0.0146484 0.24282099 1.07129 4278190080
-0.0087890597 0.239209 1.07129 4278190080
-0.0029296901 0.238966 1.07129 4278190080
0.0029296901 0.23376501 1.08301 4278190080
0.0087890597 0.233813 1.08301 4278190080
0.0157145 0.231445 1.08301 4278190080
0.0146484 0.23196401 1.08301 4278190080
0.18473101 0.231445 1.08301 4278190080
0.020507799 0.229229 1.08887 4278190080
0.026367201 0.22749899 1.08887 4278190080
0.033283401 0.225586 1.08887 4278190080
0.0322266 0.226014 1.08887 4278190080
0.190026 0.225586 1.08887 4278190080
0.207839 0.243164 1.10059 4278190080
0.20800801 0.244471 1.10059 4278190080
0.26675099 0.243164 1.10059 4278190080
0.202618 0.24902301 1.09473 4278190080
0.20800801 0.24902301 1.09954 4278190080
0.261994 0.24902301 1.09473 4278190080
0.26660201 0.24902301 1.09866 4278190080
0.20646 0.231445 1.10059 4278190080
0.20800801 0.231445 1.10207 4278190080
0.26317599 0.231445 1.10059 4278190080
0.204558 0.25488299 1.09473 4278190080
0.20800801 0.25488299 1.09785 4278190080
0.26163501 0.25488299 1.09473 4278190080
0.26660201 0.25488299 1.09945 4278190080
0.211326 0.225586 1.10645 4278190080
0.21386699 0.225586 1.10849 4278190080
0.263239 0.225586 1.10645 4278190080
0.0029296901 0.232959 1.08887 4278190080
0.0087890597 0.23265301 1.08887 4278190080
0.016135899 0.231445 1.08887 4278190080
0.0146484 0.232051 1.08887 4278190080
-0.0087890597 0.23780701 1.07715 4278190080
-0.0029296901 0.237909 1.07715 4278190080
-0.0029296901 0.237305 1.07974 4278190080
0.213173 0.237305 1.10645 4278190080
0.21386699 0.237305 1.10712 4278190080
0.26740599 0.237305 1.10645 4278190080
0.21386699 0.243617 1.10645 4278190080
0.21972699 0.243164 1.11173 4278190080
0.26835501 0.243164 1.10645 4278190080
0.20927501 0.24902301 1.10059 4278190080
0.21386699 0.24902301 1.10448 4278190080
0.267387 0.24902301 1.10059 4278190080
0.020507799 0.229938 1.09473 4278190080
0.026367201 0.227594 1.09473 4278190080
0.035019301 0.225586 1.09473 4278190080
0.0322266 0.226721 1.09473 4278190080
0.212585 0.231445 1.10645 4278190080
0.21386699 0.231445 1.1075799 4278190080
0.26497501 0.231445 1.10645 4278190080
0.26660201 0.23493101 1.10645 4278190080
0.211004 0.25488299 1.10059 4278190080
0.21386699 0.25488299 1.10287 4278190080
0.26716599 0.25488299 1.10059 4278190080
0.217776 0.225586 1.1123 4278190080
0.21972699 0.225586 1.11421 4278190080
0.264148 0.225586 1.1123 4278190080
0.218917 0.237305 1.1123 4278190080
0.21972699 0.241697 1.1123 4278190080
0.21972699 0.237305 1.11309 4278190080
0.26815501 0.237305 1.1123 4278190080
0.0087890597 0.232783 1.09473 4278190080
0.016894899 0.231445 1.09473 4278190080
0.0146484 0.23203 1.09473 4278190080
0.220364 0.243164 1.1123 4278190080
0.225586 0.243164 1.11607 4278190080
0.26945201 0.243164 1.1123 4278190080
0.21576799 0.24902301 1.10645 4278190080
0.21972699 0.24902301 1.1094 4278190080
0.26926199 0.24902301 1.10645 4278190080
0.020507799 0.229918 1.10059 4278190080
0.026367201 0.227641 1.10059 4278190080
0.034745499 0.225586 1.10059 4278190080
0.0322266 0.226532 1.10059 4278190080
0.218622 0.231445 1.1123 4278190080
0.21972699 0.231445 1.11349 4278190080
0.266267 0.231445 1.1123 4278190080
0.26660201 0.23237699 1.1123 4278190080
0.217608 0.25488299 1.10645 4278190080
0.21972699 0.25488299 1.10803 4278190080
0.26982701 0.25488299 1.10645 4278190080
0.223722 0.225586 1.11816 4278190080
0.225586 0.225586 1.11963 4278190080
0.26477 0.225586 1.11816 4278190080
0.22499099 0.237305 1.11816 4278190080
0.225586 0.239197 1.11816 4278190080
0.26860899 0.237305 1.11816 4278190080
0.227798 0.243164 1.11816 4278190080
0.231445 0.243164 1.12114 4278190080
0.27051201 0.243164 1.11816 4278190080
0.018235801 0.231445 1.10059 4278190080
0.0146484 0.232502 1.10059 4278190080
0.222708 0.24902301 1.1123 4278190080
0.225586 0.24902301 1.11489 4278190080
0.270592 0.24902301 1.1123 4278190080
0.020507799 0.22999001 1.10645 4278190080
0.026367201 0.22723299 1.10645 4278190080
0.035330299 0.225586 1.10645 4278190080
0.0322266 0.226356 1.10645 4278190080
0.224378 0.231445 1.11816 4278190080
0.266269 0.231445 1.11816 4278190080
0.26660201 0.23230401 1.11816 4278190080
0.22403499 0.25488299 1.1123 4278190080
0.225586 0.25488299 1.11397 4278190080
0.27191699 0.25488299 1.1123 4278190080
0.272461 0.25488299 1.11633 4278190080
0.230014 0.225586 1.12402 4278190080
0.262712 0.225586 1.12402 4278190080
0.231445 0.23791701 1.12402 4278190080
0.237305 0.237305 1.12725 4278190080
0.26722601 0.237305 1.12402 4278190080
0.26660201 0.237305 1.12571 4278190080
0.23438799 0.243164 1.12402 4278190080
0.237305 0.243164 1.1260999 4278190080
0.27002099 0.243164 1.12402 4278190080
0.22905201 0.24902301 1.11816 4278190080
0.231445 0.24902301 1.11983 4278190080
0.27166501 0.24902301 1.11816 4278190080
0.272461 0.253405 1.11816 4278190080
0.0182034 0.231445 1.10645 4278190080
0.26555401 0.231445 1.12402 4278190080
0.26660201 0.23536099 1.12402 4278190080
0.020507799 0.22975899 1.1123 4278190080
0.026367201 0.22708701 1.1123 4278190080
0.0344541 0.225586 1.1123 4278190080
0.0322266 0.226456 1.1123 4278190080
0.26091301 0.225586 1.12988 4278190080
0.22979601 0.25488299 1.11816 4278190080
0.231445 0.25488299 1.11968 4278190080
0.27271301 0.25488299 1.11816 4278190080
0.24142499 0.243164 1.12988 4278190080
0.243164 0.243164 1.13126 4278190080
0.26790601 0.243164 1.12988 4278190080
0.240018 0.237305 1.12988 4278190080
0.243164 0.237305 1.13192 4278190080
0.265591 0.237305 1.12988 4278190080
0.26660201 0.24012201 1.12988 4278190080
0.235664 0.24902301 1.12402 4278190080
0.27118301 0.24902301 1.12402 4278190080
0.272461 0.25360999 1.12402 4278190080
0.237305 0.23224699 1.12988 4278190080
0.243164 0.231445 1.13449 4278190080
0.263118 0.231445 1.12988 4278190080
0.033500299 0.225586 1.11816 4278190080
0.0322266 0.22608 1.11816 4278190080
0.243164 0.228442 1.13574 4278190080
0.24902301 0.225586 1.13809 4278190080
0.25488299 0.225586 1.13991 4278190080
0.26118201 0.225586 1.13574 4278190080
0.26074201 0.225586 1.13673 4278190080
0.23578499 0.25488299 1.12402 4278190080
0.237305 0.25488299 1.12528 4278190080
0.272769 0.25488299 1.12402 4278190080
0.272461 0.25825 1.12402 4278190080
0.272461 0.25488299 1.12484 4278190080
0.24782 0.243164 1.13574 4278190080
0.24902301 0.243164 1.13695 4278190080
0.25488299 0.243164 1.1411901 4278190080
0.267046 0.243164 1.13574 4278190080
0.26660201 0.243164 1.13674 4278190080
0.26954001 0.24902301 1.12988 4278190080
0.24725901 0.237305 1.13574 4278190080
0.24902301 0.237305 1.13731 4278190080
0.25488299 0.237305 1.14065 4278190080
0.26444599 0.237305 1.13574 4278190080
0.26074201 0.237305 1.141 4278190080
0.26660201 0.242296 1.13574 4278190080
0.24464799 0.231445 1.13574 4278190080
0.24902301 0.231445 1.13797 4278190080
0.25488299 0.231445 1.14062 4278190080
0.263244 0.231445 1.13574 4278190080
0.26074201 0.231445 1.14112 4278190080
0.0322266 0.225586 1.1259201 4278190080
0.24902301 0.249663 1.13574 4278190080
0.24902301 0.24902301 1.13597 4278190080
0.25488299 0.24902301 1.13924 4278190080
0.26884401 0.24902301 1.13574 4278190080
0.26074201 0.242149 1.1416 4278190080
0.24274001 0.25488299 1.12988 4278190080
0.243164 0.25621599 1.12988 4278190080
0.243164 0.25488299 1.13032 4278190080
0.24902301 0.25488299 1.13327 4278190080
0.27042899 0.25488299 1.12988 4278190080
0.26020101 0.243164 1.1416 4278190080
0.26101199 0.243164 1.1416 4278190080
0.26074201 0.243164 1.14166 4278190080
0.26660201 0.247815 1.1416 4278190080
0.259123 0.24902301 1.1416 4278190080
0.26074201 0.24902301 1.14267 4278190080
0.267225 0.24902301 1.1416 4278190080
0.26660201 0.24902301 1.14217 4278190080
0.251706 0.25488299 1.13574 4278190080
0.25488299 0.25488299 1.1382999 4278190080
0.269907 0.25488299 1.13574 4278190080
0.25927401 0.25488299 1.1416 4278190080
0.26074201 0.25488299 1.1428 4278190080
0.26890099 0.25488299 1.1416 4278190080
0.26660201 0.25488299 1.14378 4278190080
0.19043 0.27832001 1.03389 4278190080
0.196289 0.27832001 1.03297 4278190080
0.19043 0.272461 1.03304 4278190080
0.196289 0.272461 1.0326 4278190080
-0.0791016 0.26074201 1.01345 4278190080
-0.073242202 0.26074201 1.01679 4278190080
0.18457 0.26074201 1.03536 4278190080
0.201138 0.27832001 1.03613 4278190080
0.20214801 0.27832001 1.03702 4278190080
0.18583401 0.26660201 1.03613 4278190080
0.18457 0.26660201 1.0369101 4278190080
0.20096999 0.272461 1.03613 4278190080
0.20214801 0.272461 1.03712 4278190080
0.19043 0.26074201 1.03212 4278190080
0.196289 0.26074201 1.03352 4278190080
0.19043 0.26660201 1.03285 4278190080
0.196289 0.26660201 1.033 4278190080
0.19043 0.28417999 1.03409 4278190080
0.196289 0.28417999 1.03295 4278190080
-0.072025701 0.26074201 1.01855 4278190080
-0.073242202 0.26108801 1.01855 4278190080
0.19043 0.290039 1.03344 4278190080
0.196289 0.290039 1.03417 4278190080
0.207407 0.27832001 1.04199 4278190080
0.20800801 0.27832001 1.04258 4278190080
0.18782 0.27832001 1.03613 4278190080
0.18457 0.27832001 1.03903 4278190080
0.183322 0.26074201 1.03613 4278190080
0.178711 0.26074201 1.03924 4278190080
0.18457 0.26295701 1.03613 4278190080
0.20775899 0.272461 1.04199 4278190080
0.20800801 0.272461 1.04223 4278190080
0.17940199 0.26660201 1.04199 4278190080
0.178711 0.26660201 1.04278 4278190080
0.19974101 0.26074201 1.03613 4278190080
0.20214801 0.26074201 1.0381401 4278190080
0.200895 0.26660201 1.03613 4278190080
0.20214801 0.26660201 1.03716 4278190080
0.18631101 0.272461 1.03613 4278190080
0.18457 0.272461 1.03747 4278190080
0.20039199 0.28417999 1.03613 4278190080
0.20214801 0.28417999 1.03786 4278190080
-0.071471497 0.26074201 1.02441 4278190080
0.188417 0.28417999 1.03613 4278190080
0.18457 0.28417999 1.04015 4278190080
0.212283 0.27832001 1.04785 4278190080
0.21386699 0.27832001 1.04962 4278190080
0.18767101 0.290039 1.03613 4278190080
0.18457 0.290039 1.0398099 4278190080
0.198468 0.290039 1.03613 4278190080
0.196289 0.29347 1.03613 4278190080
0.20214801 0.290039 1.0398099 4278190080
0.182469 0.27832001 1.04199 4278190080
0.178711 0.27832001 1.04655 4278190080
0.212851 0.272461 1.04785 4278190080
0.21386699 0.272461 1.04895 4278190080
0.20677599 0.26074201 1.04199 4278190080
0.20800801 0.26074201 1.0431499 4278190080
0.17693 0.26074201 1.04199 4278190080
0.178711 0.26482499 1.04199 4278190080
0.207489 0.26660201 1.04199 4278190080
0.20800801 0.26660201 1.04246 4278190080
0.17460001 0.26660201 1.04785 4278190080
0.17285199 0.26660201 1.05137 4278190080
0.206067 0.28417999 1.04199 4278190080
0.20800801 0.28417999 1.0440201 4278190080
0.1814 0.272461 1.04199 4278190080
0.178711 0.272461 1.04533 4278190080
0.21777201 0.27832001 1.05371 4278190080
0.21972699 0.27832001 1.05566 4278190080
0.18339001 0.28417999 1.04199 4278190080
0.203898 0.290039 1.04199 4278190080
0.20214801 0.29195499 1.04199 4278190080
0.20800801 0.290039 1.04697 4278190080
0.183245 0.290039 1.04199 4278190080
0.218565 0.272461 1.05371 4278190080
0.21972699 0.272461 1.0548 4278190080
0.177793 0.27832001 1.04785 4278190080
0.178711 0.28153101 1.04785 4278190080
0.21198 0.26074201 1.04785 4278190080
0.21386699 0.26074201 1.04979 4278190080
0.21256299 0.26660201 1.04785 4278190080
0.21386699 0.26660201 1.04921 4278190080
0.223509 0.27832001 1.05957 4278190080
0.225586 0.27832001 1.06181 4278190080
0.211165 0.28417999 1.04785 4278190080
0.21386699 0.28417999 1.05153 4278190080
0.173694 0.26074201 1.04785 4278190080
0.17285199 0.26074201 1.04873 4278190080
0.171711 0.26660201 1.05371 4278190080
0.17285199 0.26965699 1.05371 4278190080
0.17685799 0.272461 1.04785 4278190080
0.179455 0.28417999 1.04785 4278190080
0.178711 0.28417999 1.04913 4278190080
0.224576 0.272461 1.05957 4278190080
0.225586 0.272461 1.06059 4278190080
0.208563 0.290039 1.04785 4278190080
0.20800801 0.290553 1.04785 4278190080
0.17998099 0.290039 1.04785 4278190080
0.178711 0.293547 1.04785 4278190080
0.178711 0.290039 1.04984 4278190080
0.218291 0.26074201 1.05371 4278190080
0.21972699 0.26074201 1.0549999 4278190080
0.218933 0.26660201 1.05371 4278190080
0.21972699 0.26660201 1.05443 4278190080
0.17448699 0.27832001 1.05371 4278190080
0.17285199 0.27832001 1.05673 4278190080
0.2288 0.27832001 1.06543 4278190080
0.225586 0.28354901 1.06543 4278190080
0.231445 0.27832001 1.06848 4278190080
0.215442 0.28417999 1.05371 4278190080
0.21386699 0.286461 1.05371 4278190080
0.21972699 0.28417999 1.0581501 4278190080
0.16958 0.26074201 1.05371 4278190080
0.16699199 0.26074201 1.05904 4278190080
0.168841 0.26660201 1.05957 4278190080
0.230279 0.272461 1.06543 4278190080
0.231445 0.272461 1.06675 4278190080
0.173715 0.272461 1.05371 4278190080
0.17285199 0.272461 1.0551701 4278190080
0.176129 0.28417999 1.05371 4278190080
0.211963 0.290039 1.05371 4278190080
0.20800801 0.29393199 1.05371 4278190080
0.21386699 0.290039 1.05619 4278190080
0.225254 0.26660201 1.05957 4278190080
0.225586 0.26660201 1.05989 4278190080
0.224979 0.26074201 1.05957 4278190080
0.225586 0.26074201 1.06011 4278190080
0.176247 0.290039 1.05371 4278190080
0.17285199 0.290039 1.05927 4278190080
0.23360001 0.27832001 1.07129 4278190080
0.231445 0.28263399 1.07129 4278190080
0.237305 0.27832001 1.07542 4278190080
0.220869 0.28417999 1.05957 4278190080
0.21972699 0.285198 1.05957 4278190080
0.171776 0.27832001 1.05957 4278190080
0.17285199 0.28310901 1.05957 4278190080
0.17285199 0.27832001 1.06117 4278190080
0.235374 0.272461 1.07129 4278190080
0.237305 0.272461 1.07335 4278190080
0.166752 0.26074201 1.05957 4278190080
0.16699199 0.261581 1.05957 4278190080
0.16699199 0.26074201 1.05985 4278190080
0.215867 0.290039 1.05957 4278190080
0.21386699 0.291951 1.05957 4278190080
0.21972699 0.290039 1.0648299 4278190080
0.171654 0.26660201 1.06543 4278190080
0.17285199 0.26660201 1.06638 4278190080
0.178711 0.26660201 1.07111 4278190080
0.170727 0.272461 1.05957 4278190080
0.173233 0.28417999 1.05957 4278190080
0.17285199 0.28797099 1.05957 4278190080
0.231014 0.26074201 1.06543 4278190080
0.231445 0.26074201 1.06584 4278190080
0.231213 0.26660201 1.06543 4278190080
0.231445 0.26660201 1.06565 4278190080
0.19043 0.27832001 1.0788 4278190080
0.23859 0.27832001 1.07715 4278190080
0.237305 0.2798 1.07715 4278190080
0.243164 0.27832001 1.08249 4278190080
0.225272 0.28417999 1.06543 4278190080
0.225586 0.28417999 1.0658 4278190080
0.1727 0.290039 1.05957 4278190080
0.17285199 0.290039 1.05976 4278190080
0.19043 0.272461 1.07881 4278190080
0.24055301 0.272461 1.07715 4278190080
0.243164 0.272461 1.08003 4278190080
0.17570899 0.27832001 1.06543 4278190080
0.178711 0.27832001 1.06715 4278190080
0.21386699 0.29471901 1.06543 4278190080
0.220108 0.290039 1.06543 4278190080
0.21972699 0.29050401 1.06543 4278190080
0.17249499 0.272461 1.06543 4278190080
0.17285199 0.273413 1.06543 4278190080
0.17285199 0.272461 1.06575 4278190080
0.178711 0.272461 1.06802 4278190080
0.17099001 0.26074201 1.06543 4278190080
0.17285199 0.26074201 1.06664 4278190080
0.178863 0.26660201 1.07129 4278190080
0.18457 0.26660201 1.07464 4278190080
0.23699801 0.26074201 1.07129 4278190080
0.237305 0.26074201 1.0716 4278190080
0.23643 0.26660201 1.07129 4278190080
0.237305 0.26660201 1.0721999 4278190080
0.1759 0.28417999 1.06543 4278190080
0.178711 0.28417999 1.06727 4278190080
0.23066901 0.28417999 1.07129 4278190080
0.225586 0.28771701 1.07129 4278190080
0.231445 0.28417999 1.07223 4278190080
0.19468001 0.27832001 1.08301 4278190080
0.196289 0.27832001 1.0846601 4278190080
0.24352901 0.27832001 1.08301 4278190080
0.243164 0.27864301 1.08301 4278190080
0.194865 0.272461 1.08301 4278190080
0.196289 0.272461 1.0844899 4278190080
0.24589799 0.272461 1.08301 4278190080
0.24902301 0.272461 1.08634 4278190080
0.175916 0.290039 1.06543 4278190080
0.178711 0.290039 1.06795 4278190080
0.18288399 0.27832001 1.07129 4278190080
0.18457 0.27832001 1.0728101 4278190080
0.187093 0.26660201 1.07715 4278190080
0.223434 0.290039 1.07129 4278190080
0.21972699 0.29341599 1.07129 4278190080
0.225586 0.290039 1.07421 4278190080
0.19043 0.26074201 1.08121 4278190080
0.242801 0.26074201 1.07715 4278190080
0.243164 0.26074201 1.07751 4278190080
0.18203101 0.272461 1.07129 4278190080
0.18457 0.272461 1.07305 4278190080
0.17783999 0.26074201 1.07129 4278190080
0.178711 0.26628399 1.07129 4278190080
0.178711 0.26074201 1.07214 4278190080
0.18457 0.26074201 1.0766701 4278190080
0.19043 0.26660201 1.0797499 4278190080
0.242103 0.26660201 1.07715 4278190080
0.243164 0.26660201 1.07827 4278190080
