# .PCD v0.7 - Point Cloud Data file format
VERSION 0.7
FIELDS x y z rgb
SIZE 4 4 4 4
TYPE F F F U
COUNT 1 1 1 1
WIDTH 1112
HEIGHT 1
VIEWPOINT 0 0 0 1 0 0 0
POINTS 1112
DATA ascii
-0.0012359601 0.043945301 1.10645 4278190080
-0.00148439 0.026367201 1.10645 4278190080
-0.00198162 0.020507799 1.10645 4278190080
-0.0025833801 0.0146484 1.10645 4278190080
0.00240684 0.0322266 1.1123 4278190080
-0.00071120303 0.0380859 1.10645 4278190080
0.00132871 0.043945301 1.1123 4278190080
0.00155532 0.026367201 1.1123 4278190080
0.00072920299 0.020507799 1.1123 4278190080
0.000202775 0.0146484 1.1123 4278190080
-0.21972699 0.0556641 0.82890999 4278190080
-0.21386699 0.0556641 0.82742602 4278190080
-0.20800801 0.0556641 0.83081597 4278190080
-0.225586 0.049804699 0.83079302 4278190080
-0.21972699 0.049804699 0.82775199 4278190080
-0.21386699 0.049804699 0.826608 4278190080
-0.20800801 0.049804699 0.829027 4278190080
0.0022018 0.0380859 1.1123 4278190080
-0.225586 0.0791016 0.83610201 4278190080
-0.21972699 0.0791016 0.83440399 4278190080
-0.21386699 0.0791016 0.83586597 4278190080
-0.21972699 0.0615234 0.830652 4278190080
-0.21386699 0.0615234 0.82899803 4278190080
-0.224764 0.0556641 0.83105499 4278190080
-0.225586 0.0556641 0.83139801 4278190080
-0.207691 0.0556641 0.83105499 4278190080
-0.20800801 0.056157101 0.83105499 4278190080
-0.20214801 0.0556641 0.83617097 4278190080
-0.225586 0.052770302 0.83105499 4278190080
-0.205744 0.049804699 0.83105499 4278190080
-0.20214801 0.049804699 0.83461499 4278190080
-0.220751 0.0615234 0.83105499 4278190080
-0.225586 0.0615234 0.83302999 4278190080
-0.21972699 0.063167103 0.83105499 4278190080
-0.211303 0.0615234 0.83105499 4278190080
-0.20800801 0.0615234 0.83386201 4278190080
-0.22785001 0.0791016 0.836914 4278190080
-0.231445 0.0791016 0.83807802 4278190080
-0.225586 0.082025297 0.836914 4278190080
-0.212961 0.0791016 0.836914 4278190080
-0.21386699 0.080978803 0.836914 4278190080
-0.20800801 0.0791016 0.84185898 4278190080
-0.226851 0.049804699 0.836914 4278190080
-0.231445 0.049804699 0.84173501 4278190080
-0.20057499 0.049804699 0.836914 4278190080
-0.196289 0.049804699 0.84252203 4278190080
-0.201717 0.0556641 0.836914 4278190080
-0.20214801 0.056584802 0.836914 4278190080
-0.20733701 0.0791016 0.84277302 4278190080
-0.20800801 0.081016399 0.84277302 4278190080
-0.230716 0.0615234 0.836914 4278190080
-0.231445 0.0615234 0.83750999 4278190080
-0.205286 0.0615234 0.836914 4278190080
-0.20214801 0.0615234 0.84105998 4278190080
-0.0087890597 0.0494707 1.1416 4278190080
-0.0029296901 0.0322266 1.15131 4278190080
-0.225586 0.073242202 0.83449602 4278190080
-0.21972699 0.073242202 0.832919 4278190080
-0.21386699 0.073242202 0.83349001 4278190080
-0.195483 0.049804699 0.84277302 4278190080
-0.196289 0.0501826 0.84277302 4278190080
-0.19043 0.049804699 0.84406501 4278190080
-0.19880401 0.0556641 0.84277302 4278190080
-0.196289 0.0556641 0.846084 4278190080
-0.19043 0.0556641 0.84540999 4278190080
-0.20086201 0.0615234 0.84277302 4278190080
-0.20214801 0.064585999 0.84277302 4278190080
-0.196289 0.0615234 0.84774601 4278190080
-0.19043 0.0615234 0.846762 4278190080
-0.234089 0.0791016 0.84863299 4278190080
-0.203402 0.0791016 0.84863299 4278190080
-0.20214801 0.0791016 0.85043198 4278190080
-0.196289 0.0791016 0.85163403 4278190080
-0.19043 0.0791016 0.85076201 4278190080
-0.00072372 0.0322266 1.15332 4278190080
-0.226428 0.073242202 0.836914 4278190080
-0.231445 0.073242202 0.84080303 4278190080
-0.21036901 0.073242202 0.836914 4278190080
-0.20800801 0.073242202 0.83895302 4278190080
-0.0029296901 0.030704999 1.15332 4278190080
-0.196289 0.0668253 0.84863299 4278190080
-0.236899 0.0791016 0.85449201 4278190080
-0.237305 0.080290101 0.85449201 4278190080
-0.237305 0.0791016 0.85523701 4278190080
-0.205157 0.073242202 0.84277302 4278190080
-0.20214801 0.073242202 0.84766299 4278190080
-0.21386699 0.067382798 0.83093101 4278190080
-0.200101 0.073242202 0.84863299 4278190080
-0.20214801 0.0753043 0.84863299 4278190080
-0.196289 0.073242202 0.85008597 4278190080
-0.19043 0.073242202 0.849419 4278190080
-0.225586 0.067382798 0.83459198 4278190080
-0.214435 0.067382798 0.83105499 4278190080
-0.21972699 0.067382798 0.83212799 4278190080
-0.213728 0.067382798 0.83105499 4278190080
-0.21386699 0.067714103 0.83105499 4278190080
-0.20800801 0.067382798 0.83627898 4278190080
-0.241585 0.0791016 0.87207001 4278190080
-0.243164 0.081773899 0.87207001 4278190080
-0.237305 0.077800401 0.85449201 4278190080
-0.22910701 0.067382798 0.836914 4278190080
-0.231445 0.067382798 0.838148 4278190080
-0.207394 0.067382798 0.836914 4278190080
-0.20800801 0.068790101 0.836914 4278190080
-0.18457 0.0556641 0.844657 4278190080
-0.178711 0.0556641 0.84516603 4278190080
-0.17285199 0.0556641 0.84834599 4278190080
-0.18457 0.073242202 0.84922898 4278190080
-0.178711 0.073242202 0.85111898 4278190080
-0.18457 0.049804699 0.843252 4278190080
-0.178711 0.049804699 0.84343201 4278190080
-0.17285199 0.049804699 0.84595901 4278190080
-0.20300899 0.067382798 0.84277302 4278190080
-0.20214801 0.067382798 0.84474403 4278190080
-0.19043 0.067382798 0.84809297 4278190080
-0.18457 0.0791016 0.85087597 4278190080
-0.178711 0.0791016 0.85335797 4278190080
-0.18457 0.0615234 0.84606802 4278190080
-0.178711 0.0615234 0.84725702 4278190080
-0.18457 0.067382798 0.84799498 4278190080
-0.172518 0.0556641 0.84863299 4278190080
-0.17285199 0.056379799 0.84863299 4278190080
-0.16699199 0.0556641 0.85345 4278190080
-0.17375299 0.073242202 0.85449201 4278190080
-0.17285199 0.073242202 0.855106 4278190080
-0.16699199 0.073242202 0.86010599 4278190080
-0.169514 0.049804699 0.84863299 4278190080
-0.16699199 0.049804699 0.85073501 4278190080
-0.177094 0.0791016 0.85449201 4278190080
-0.178711 0.082356498 0.85449201 4278190080
-0.17285199 0.0791016 0.85764998 4278190080
-0.17622 0.0615234 0.84863299 4278190080
-0.178711 0.066177703 0.84863299 4278190080
-0.17285199 0.0615234 0.85061699 4278190080
-0.19649801 0.067382798 0.84863299 4278190080
-0.19550399 0.067382798 0.84863299 4278190080
-0.196289 0.067382798 0.84872299 4278190080
-0.19043 0.069762602 0.84863299 4278190080
-0.18082 0.067382798 0.84863299 4278190080
-0.18457 0.0704142 0.84863299 4278190080
-0.178711 0.067382798 0.849006 4278190080
-0.17285199 0.067382798 0.85270399 4278190080
-0.165645 0.0556641 0.85449201 4278190080
-0.16699199 0.058149599 0.85449201 4278190080
-0.16113301 0.0556641 0.858042 4278190080
-0.166692 0.073242202 0.86035198 4278190080
-0.16699199 0.073791698 0.86035198 4278190080
-0.16113301 0.073242202 0.86480802 4278190080
-0.162138 0.049804699 0.85449201 4278190080
-0.16113301 0.049804699 0.855268 4278190080
-0.15527301 0.049804699 0.85982102 4278190080
-0.16971999 0.0791016 0.86035198 4278190080
-0.16699199 0.0791016 0.86267298 4278190080
-0.168501 0.0615234 0.85449201 4278190080
-0.16699199 0.0615234 0.85588002 4278190080
-0.170671 0.067382798 0.85449201 4278190080
-0.17285199 0.071701899 0.85449201 4278190080
-0.16699199 0.067382798 0.85747498 4278190080
-0.157902 0.0556641 0.86035198 4278190080
-0.16113301 0.060711998 0.86035198 4278190080
-0.15527301 0.0556641 0.86222601 4278190080
-0.15463699 0.049804699 0.86035198 4278190080
-0.15527301 0.051107202 0.86035198 4278190080
-0.149414 0.049804699 0.86470401 4278190080
-0.15956999 0.073242202 0.866211 4278190080
-0.16113301 0.076325499 0.866211 4278190080
-0.15527301 0.073242202 0.86985999 4278190080
-0.16267499 0.0791016 0.866211 4278190080
-0.16113301 0.0791016 0.867468 4278190080
-0.161568 0.0615234 0.86035198 4278190080
-0.16113301 0.0615234 0.860699 4278190080
-0.15527301 0.0615234 0.86520398 4278190080
-0.163849 0.067382798 0.86035198 4278190080
-0.16113301 0.067382798 0.86260301 4278190080
-0.15061399 0.0556641 0.866211 4278190080
-0.149414 0.0556641 0.86715299 4278190080
-0.143555 0.0556641 0.87143099 4278190080
-0.152652 0.073242202 0.87207001 4278190080
-0.15527301 0.077969603 0.87207001 4278190080
-0.149414 0.073242202 0.87482601 4278190080
-0.15590601 0.0791016 0.87207001 4278190080
-0.15527301 0.0791016 0.87265199 4278190080
-0.149414 0.0791016 0.87743902 4278190080
-0.147577 0.049804699 0.866211 4278190080
-0.149414 0.0533043 0.866211 4278190080
-0.143555 0.049804699 0.86948001 4278190080
-0.154084 0.0615234 0.866211 4278190080
-0.15527301 0.0635892 0.866211 4278190080
-0.149414 0.0615234 0.87016499 4278190080
-0.157152 0.067382798 0.866211 4278190080
-0.15527301 0.067382798 0.86804402 4278190080
-0.142793 0.0556641 0.87207001 4278190080
-0.143555 0.057123099 0.87207001 4278190080
-0.137695 0.0556641 0.87656999 4278190080
-0.14866801 0.0791016 0.87792999 4278190080
-0.149414 0.080375098 0.87792999 4278190080
-0.143555 0.0791016 0.88134003 4278190080
-0.144967 0.073242202 0.87792999 4278190080
-0.143555 0.073242202 0.87892598 4278190080
-0.137695 0.073242202 0.88348901 4278190080
-0.14106999 0.049804699 0.87207001 4278190080
-0.137695 0.049804699 0.87584901 4278190080
-0.146501 0.0615234 0.87207001 4278190080
-0.149414 0.066178001 0.87207001 4278190080
-0.143555 0.0615234 0.873981 4278190080
-0.150049 0.067382798 0.87207001 4278190080
-0.149414 0.067382798 0.87257999 4278190080
-0.143555 0.067382798 0.876791 4278190080
-0.13735899 0.073242202 0.883789 4278190080
-0.137695 0.074154504 0.883789 4278190080
-0.131836 0.073242202 0.88858098 4278190080
-0.136573 0.0556641 0.87792999 4278190080
-0.137695 0.059277199 0.87792999 4278190080
-0.14004301 0.0791016 0.883789 4278190080
-0.143555 0.0841626 0.883789 4278190080
-0.137695 0.0791016 0.88550299 4278190080
-0.136142 0.049804699 0.87792999 4278190080
-0.131836 0.049804699 0.883636 4278190080
-0.138679 0.0615234 0.87792999 4278190080
-0.137695 0.0615234 0.87873 4278190080
-0.142102 0.067382798 0.87792999 4278190080
-0.143555 0.070551902 0.87792999 4278190080
-0.137695 0.067382798 0.88133597 4278190080
-0.131907 0.0556641 0.883789 4278190080
-0.131836 0.0556641 0.88388199 4278190080
-0.130605 0.073242202 0.88964802 4278190080
-0.131836 0.076002799 0.88964802 4278190080
-0.12597699 0.073242202 0.89373702 4278190080
-0.13323399 0.0791016 0.88964802 4278190080
-0.131836 0.0791016 0.89083701 4278190080
-0.131745 0.049804699 0.883789 4278190080
-0.131836 0.053461399 0.883789 4278190080
-0.132742 0.0615234 0.883789 4278190080
-0.131836 0.0615234 0.88474798 4278190080
0.0029296901 0.049804699 1.12166 4278190080
-0.128144 0.0556641 0.88964802 4278190080
-0.12597699 0.0556641 0.89330602 4278190080
-0.134773 0.067382798 0.883789 4278190080
-0.131836 0.067382798 0.88638198 4278190080
-0.124472 0.073242202 0.89550799 4278190080
-0.12597699 0.078456901 0.89550799 4278190080
-0.120117 0.073242202 0.90103698 4278190080
-0.126232 0.0791016 0.89550799 4278190080
-0.12597699 0.0791016 0.89573002 4278190080
-0.128481 0.049804699 0.88964802 4278190080
-0.12597699 0.049804699 0.894122 4278190080
0.0029296901 0.0556641 1.13008 4278190080
-0.128157 0.0615234 0.88964802 4278190080
-0.12597699 0.0615234 0.89260697 4278190080
0.0033072201 0.049804699 1.12402 4278190080
0.0029296901 0.051119801 1.12402 4278190080
-0.124599 0.0556641 0.89550799 4278190080
-0.1288 0.067382798 0.88964802 4278190080
-0.12597699 0.067382798 0.89270997 4278190080
-0.120909 0.0791016 0.90136701 4278190080
-0.120117 0.0791016 0.90227902 4278190080
-0.12513401 0.049804699 0.89550799 4278190080
-0.11989 0.073242202 0.90136701 4278190080
-0.120117 0.074770696 0.90136701 4278190080
0.0038294799 0.0556641 1.13574 4278190080
0.0029296901 0.057244301 1.13574 4278190080
-0.123909 0.0615234 0.89550799 4278190080
0.00440061 0.049804699 1.12988 4278190080
0.0029296901 0.055526 1.12988 4278190080
-0.12064 0.0556641 0.90136701 4278190080
-0.120117 0.0556641 0.90214199 4278190080
-0.116535 0.0791016 0.90722698 4278190080
-0.114258 0.0791016 0.91057497 4278190080
-0.123844 0.067382798 0.89550799 4278190080
-0.120117 0.067382798 0.90075701 4278190080
-0.121237 0.049804699 0.90136701 4278190080
-0.120117 0.049804699 0.90308201 4278190080
-0.116067 0.073242202 0.90722698 4278190080
-0.114258 0.073242202 0.91004598 4278190080
0.0044734501 0.0556641 1.1416 4278190080
0.0029296901 0.0586542 1.1416 4278190080
-0.120222 0.0615234 0.90136701 4278190080
-0.120117 0.062751099 0.90136701 4278190080
-0.120117 0.0615234 0.90152001 4278190080
-0.116959 0.0556641 0.90722698 4278190080
-0.114258 0.0556641 0.91179597 4278190080
0.0051385202 0.049804699 1.13574 4278190080
-0.112879 0.0791016 0.913086 4278190080
-0.119738 0.067382798 0.90136701 4278190080
-0.117594 0.049804699 0.90722698 4278190080
-0.114258 0.049804699 0.91263199 4278190080
-0.112537 0.073242202 0.913086 4278190080
0.0038894401 0.0556641 1.14746 4278190080
0.0029296901 0.057840001 1.14746 4278190080
0.0029296901 0.0556641 1.14973 4278190080
-0.113545 0.0556641 0.913086 4278190080
-0.1164 0.0615234 0.90722698 4278190080
-0.114258 0.0615234 0.91074997 4278190080
-0.109605 0.0791016 0.91894501 4278190080
-0.108398 0.0791016 0.92098898 4278190080
0.0056691198 0.049804699 1.1416 4278190080
-0.116081 0.067382798 0.90722698 4278190080
-0.114258 0.067382798 0.91016901 4278190080
-0.114006 0.049804699 0.913086 4278190080
-0.109229 0.073242202 0.91894501 4278190080
-0.108398 0.073242202 0.92033601 4278190080
-0.112963 0.0615234 0.913086 4278190080
-0.110199 0.0556641 0.91894501 4278190080
-0.108398 0.0556641 0.92199302 4278190080
-0.106261 0.0791016 0.92480499 4278190080
-0.110716 0.049804699 0.91894501 4278190080
-0.108398 0.049804699 0.923159 4278190080
0.0056933202 0.049804699 1.14746 4278190080
0.0029296901 0.049804699 1.15273 4278190080
-0.11259 0.067382798 0.913086 4278190080
-0.105814 0.073242202 0.92480499 4278190080
-0.109549 0.0615234 0.91894501 4278190080
-0.108398 0.0615234 0.92088002 4278190080
-0.106664 0.0556641 0.92480499 4278190080
-0.107432 0.049804699 0.92480499 4278190080
-0.102613 0.073242202 0.930664 4278190080
-0.102539 0.073242202 0.930794 4278190080
-0.103194 0.0791016 0.930664 4278190080
-0.102539 0.0791016 0.93192399 4278190080
-0.109352 0.067382798 0.91894501 4278190080
-0.108398 0.067382798 0.92061001 4278190080
-0.106042 0.0615234 0.92480499 4278190080
-0.102539 0.0615234 0.93048501 4278190080
-0.103235 0.0556641 0.930664 4278190080
-0.102539 0.060727499 0.930664 4278190080
-0.102539 0.0556641 0.93181199 4278190080
-0.103982 0.049804699 0.930664 4278190080
-0.102539 0.049804699 0.93312103 4278190080
-0.099344701 0.073242202 0.93652302 4278190080
-0.096679702 0.073242202 0.94093001 4278190080
-0.100058 0.0791016 0.93652302 4278190080
-0.105831 0.067382798 0.92480499 4278190080
-0.102539 0.067382798 0.93007499 4278190080
-0.102436 0.0615234 0.930664 4278190080
-0.099570297 0.0556641 0.93652302 4278190080
-0.096679702 0.0556641 0.94103998 4278190080
-0.100436 0.049804699 0.93652302 4278190080
-0.095883697 0.073242202 0.94238299 4278190080
-0.096679702 0.077956297 0.94238299 4278190080
-0.102219 0.067382798 0.930664 4278190080
-0.102539 0.072180599 0.930664 4278190080
-0.096890002 0.0791016 0.94238299 4278190080
-0.096679702 0.0791016 0.94276398 4278190080
-0.099153303 0.0615234 0.93652302 4278190080
-0.096679702 0.0615234 0.94106901 4278190080
-0.095962003 0.0556641 0.94238299 4278190080
-0.096790202 0.049804699 0.94238299 4278190080
-0.096679702 0.0504652 0.94238299 4278190080
-0.096679702 0.049804699 0.942563 4278190080
-0.099049799 0.067382798 0.93652302 4278190080
-0.096679702 0.067382798 0.94080502 4278190080
-0.092900299 0.073242202 0.94824201 4278190080
-0.090820298 0.073242202 0.95201498 4278190080
-0.093851402 0.0791016 0.94824201 4278190080
-0.090820298 0.0791016 0.95376903 4278190080
-0.095981702 0.0615234 0.94238299 4278190080
-0.092961401 0.0556641 0.94824201 4278190080
-0.090820298 0.0556641 0.95212197 4278190080
-0.095776603 0.067382798 0.94238299 4278190080
-0.093620397 0.049804699 0.94824201 4278190080
-0.090820298 0.049804699 0.95335197 4278190080
-0.089652702 0.073242202 0.95410198 4278190080
-0.090632297 0.0791016 0.95410198 4278190080
-0.090820298 0.079817198 0.95410198 4278190080
-0.0925477 0.0615234 0.94824201 4278190080
-0.090820298 0.0615234 0.951298 4278190080
-0.089639902 0.0556641 0.95410198 4278190080
-0.092364401 0.067382798 0.94824201 4278190080
-0.090820298 0.067382798 0.950818 4278190080
-0.090382203 0.049804699 0.95410198 4278190080
-0.086299501 0.073242202 0.959961 4278190080
-0.0849609 0.073242202 0.96242702 4278190080
-0.0873404 0.0791016 0.959961 4278190080
-0.0849609 0.0791016 0.96411997 4278190080
-0.089247704 0.0615234 0.95410198 4278190080
-0.086276099 0.0556641 0.959961 4278190080
-0.0849609 0.0556641 0.96221697 4278190080
-0.088995099 0.067382798 0.95410198 4278190080
-0.086854897 0.049804699 0.959961 4278190080
-0.0849609 0.049804699 0.96302402 4278190080
-0.083143197 0.073242202 0.96582001 4278190080
-0.084077097 0.0791016 0.96582001 4278190080
-0.0849609 0.082228102 0.96582001 4278190080
-0.085956499 0.0615234 0.959961 4278190080
-0.0849609 0.0615234 0.961649 4278190080
-0.082814597 0.0556641 0.96582001 4278190080
-0.083336703 0.049804699 0.96582001 4278190080
-0.080995202 0.0791016 0.97167999 4278190080
-0.0791016 0.0791016 0.97488499 4278190080
-0.079691797 0.073242202 0.97167999 4278190080
-0.0791016 0.073242202 0.97269303 4278190080
-0.085767403 0.067382798 0.959961 4278190080
-0.0849609 0.067382798 0.96139002 4278190080
-0.082454301 0.0615234 0.96582001 4278190080
-0.0791016 0.0615234 0.97144598 4278190080
-0.079344898 0.0556641 0.97167999 4278190080
-0.0791016 0.059388801 0.97167999 4278190080
-0.0791016 0.0556641 0.97210503 4278190080
-0.077644303 0.0791016 0.977539 4278190080
-0.0791016 0.0840986 0.977539 4278190080
-0.079847001 0.049804699 0.97167999 4278190080
-0.0791016 0.049804699 0.97296798 4278190080
-0.0764236 0.073242202 0.977539 4278190080
-0.073242202 0.073242202 0.983248 4278190080
-0.082426503 0.067382798 0.96582001 4278190080
-0.078968301 0.0615234 0.97167999 4278190080
-0.0791016 0.064557597 0.97167999 4278190080
-0.075900003 0.0556641 0.977539 4278190080
-0.073242202 0.0556641 0.98202902 4278190080
-0.074437499 0.0791016 0.98339802 4278190080
-0.073242202 0.0791016 0.98559999 4278190080
-0.079222798 0.067382798 0.97167999 4278190080
-0.0791016 0.067382798 0.97189701 4278190080
-0.076413803 0.049804699 0.977539 4278190080
-0.073242202 0.049804699 0.98273897 4278190080
-0.073163703 0.073242202 0.98339802 4278190080
-0.073242202 0.073617503 0.98339802 4278190080
-0.075657099 0.0615234 0.977539 4278190080
-0.073242202 0.0615234 0.98163801 4278190080
-0.072458297 0.0556641 0.98339802 4278190080
-0.071370199 0.0791016 0.98925799 4278190080
-0.072239198 0.0615234 0.98339802 4278190080
-0.072849303 0.049804699 0.98339802 4278190080
-0.070105098 0.073242202 0.98925799 4278190080
-0.067382798 0.073242202 0.99447101 4278190080
-0.075945899 0.067382798 0.977539 4278190080
-0.073242202 0.067382798 0.98221999 4278190080
-0.068895303 0.0556641 0.98925799 4278190080
-0.067382798 0.0556641 0.991844 4278190080
-0.068391398 0.0791016 0.99511701 4278190080
-0.067382798 0.0791016 0.99718601 4278190080
-0.072573401 0.067382798 0.98339802 4278190080
-0.068898797 0.0615234 0.98925799 4278190080
-0.067382798 0.0615234 0.99180299 4278190080
-0.069192402 0.049804699 0.98925799 4278190080
-0.067382798 0.049804699 0.99219102 4278190080
-0.067043103 0.073242202 0.99511701 4278190080
-0.067382798 0.074688204 0.99511701 4278190080
-0.065504998 0.0556641 0.99511701 4278190080
-0.065448299 0.0791016 1.00098 4278190080
-0.065699302 0.049804699 0.99511701 4278190080
-0.069332004 0.067382798 0.98925799 4278190080
-0.067382798 0.067382798 0.99272102 4278190080
-0.065533899 0.0615234 0.99511701 4278190080
-0.063973203 0.073242202 1.00098 4278190080
-0.0615234 0.073242202 1.00556 4278190080
-0.062015899 0.0556641 1.00098 4278190080
-0.0615234 0.0556641 1.0017999 4278190080
-0.062216301 0.0791016 1.00684 4278190080
-0.0615234 0.0791016 1.00807 4278190080
-0.066097103 0.067382798 0.99511701 4278190080
-0.062220201 0.049804699 1.00098 4278190080
-0.0615234 0.049804699 1.00214 4278190080
-0.060839299 0.073242202 1.00684 4278190080
-0.0615234 0.076191798 1.00684 4278190080
-0.062278502 0.0615234 1.00098 4278190080
-0.0615234 0.0615234 1.00231 4278190080
-0.0585724 0.0556641 1.00684 4278190080
-0.0556641 0.0556641 1.01188 4278190080
-0.059138499 0.0791016 1.0127 4278190080
-0.062901899 0.067382798 1.00098 4278190080
-0.0615234 0.067382798 1.0035 4278190080
-0.0588415 0.049804699 1.00684 4278190080
-0.0556641 0.049804699 1.01256 4278190080
-0.057594098 0.073242202 1.0127 4278190080
-0.0556641 0.073242202 1.01631 4278190080
-0.058946598 0.0615234 1.00684 4278190080
-0.055231702 0.0556641 1.0127 4278190080
-0.0556641 0.060497001 1.0127 4278190080
-0.056048598 0.0791016 1.01855 4278190080
-0.0556641 0.0791016 1.01928 4278190080
-0.0596973 0.067382798 1.00684 4278190080
-0.055586599 0.049804699 1.0127 4278190080
-0.0544293 0.073242202 1.01855 4278190080
-0.0556641 0.077681497 1.01855 4278190080
-0.055759002 0.0615234 1.0127 4278190080
-0.0556641 0.0615234 1.0128599 4278190080
-0.052180901 0.0556641 1.01855 4278190080
-0.049804699 0.0556641 1.0229501 4278190080
-0.0529387 0.0791016 1.02441 4278190080
-0.056508798 0.067382798 1.0127 4278190080
-0.0556641 0.067382798 1.01424 4278190080
-0.052193299 0.049804699 1.01855 4278190080
-0.049804699 0.049804699 1.02266 4278190080
-0.0512047 0.073242202 1.02441 4278190080
-0.049804699 0.073242202 1.02694 4278190080
-0.052426498 0.0615234 1.01855 4278190080
-0.049804699 0.0615234 1.02294 4278190080
-0.048940301 0.0556641 1.02441 4278190080
-0.050037701 0.0791016 1.03027 4278190080
-0.049804699 0.0791016 1.03071 4278190080
-0.053207401 0.067382798 1.01855 4278190080
-0.048792802 0.049804699 1.02441 4278190080
-0.048047401 0.073242202 1.03027 4278190080
-0.049804699 0.078403898 1.03027 4278190080
-0.048970599 0.0615234 1.02441 4278190080
-0.049804699 0.066846803 1.02441 4278190080
-0.045480099 0.0556641 1.03027 4278190080
-0.043945301 0.0556641 1.03282 4278190080
-0.046860602 0.0791016 1.03613 4278190080
-0.043945301 0.0791016 1.0415 4278190080
-0.049889401 0.067382798 1.02441 4278190080
-0.049804699 0.067382798 1.02457 4278190080
-0.045272 0.049804699 1.03027 4278190080
-0.043945301 0.049804699 1.03251 4278190080
-0.045065802 0.073242202 1.03613 4278190080
-0.043945301 0.073242202 1.0382299 4278190080
-0.045643698 0.0615234 1.03027 4278190080
-0.043945301 0.0615234 1.03327 4278190080
-0.041954 0.0556641 1.03613 4278190080
-0.043692701 0.0791016 1.04199 4278190080
-0.043945301 0.079973496 1.04199 4278190080
-0.0418295 0.049804699 1.03613 4278190080
-0.046738598 0.067382798 1.03027 4278190080
-0.043945301 0.067382798 1.03519 4278190080
-0.042055499 0.073242202 1.04199 4278190080
-0.042403098 0.0615234 1.03613 4278190080
-0.0383812 0.0556641 1.04199 4278190080
-0.0380859 0.0556641 1.04248 4278190080
-0.0406879 0.0791016 1.04785 4278190080
-0.0380859 0.0791016 1.05314 4278190080
-0.038100202 0.049804699 1.04199 4278190080
-0.0380859 0.049804699 1.04202 4278190080
-0.043468099 0.067382798 1.03613 4278190080
-0.043945301 0.0691799 1.03613 4278190080
-0.039041899 0.073242202 1.04785 4278190080
-0.0380859 0.073242202 1.04978 4278190080
-0.039213799 0.0615234 1.04199 4278190080
-0.0380859 0.0615234 1.0441099 4278190080
-0.035274699 0.0556641 1.04785 4278190080
-0.0322266 0.0556641 1.05356 4278190080
-0.037771702 0.0791016 1.05371 4278190080
-0.0380859 0.080242999 1.05371 4278190080
-0.035124999 0.049804699 1.04785 4278190080
-0.0322266 0.049804699 1.05357 4278190080
-0.0358315 0.073242202 1.05371 4278190080
-0.036095999 0.0615234 1.04785 4278190080
-0.0405498 0.067382798 1.04199 4278190080
-0.0380859 0.067382798 1.04687 4278190080
-0.032147299 0.0556641 1.05371 4278190080
-0.0322266 0.056315999 1.05371 4278190080
-0.0345378 0.0791016 1.05957 4278190080
-0.0322266 0.0791016 1.06341 4278190080
-0.032147001 0.049804699 1.05371 4278190080
-0.032506201 0.073242202 1.05957 4278190080
-0.0322266 0.073242202 1.06006 4278190080
-0.037517499 0.067382798 1.04785 4278190080
-0.0380859 0.069369398 1.04785 4278190080
-0.032856502 0.0615234 1.05371 4278190080
-0.0322266 0.0615234 1.05487 4278190080
-0.028999301 0.0556641 1.05957 4278190080
-0.026367201 0.0556641 1.06428 4278190080
-0.0309554 0.0791016 1.06543 4278190080
-0.0322266 0.083495498 1.06543 4278190080
-0.028659699 0.049804699 1.05957 4278190080
-0.026367201 0.049804699 1.0635099 4278190080
-0.029296899 0.073242202 1.06543 4278190080
-0.026367201 0.073242202 1.07031 4278190080
-0.025614699 0.0556641 1.06543 4278190080
-0.0295393 0.0615234 1.05957 4278190080
-0.026367201 0.0615234 1.0649 4278190080
-0.034077398 0.067382798 1.05371 4278190080
-0.0322266 0.067382798 1.0569201 4278190080
-0.0274314 0.0791016 1.07129 4278190080
-0.026367201 0.0791016 1.07315 4278190080
-0.025173901 0.049804699 1.06543 4278190080
-0.0258098 0.073242202 1.07129 4278190080
-0.026367201 0.075345598 1.07129 4278190080
-0.021890201 0.0556641 1.07129 4278190080
-0.020507799 0.0556641 1.07353 4278190080
-0.0260559 0.0615234 1.06543 4278190080
-0.026367201 0.062812597 1.06543 4278190080
-0.0308166 0.067382798 1.05957 4278190080
-0.0322266 0.072319001 1.05957 4278190080
-0.024246501 0.0791016 1.07715 4278190080
-0.0214596 0.049804699 1.07129 4278190080
-0.020507799 0.049804699 1.07278 4278190080
-0.022704501 0.073242202 1.07715 4278190080
-0.020507799 0.073242202 1.08105 4278190080
-0.018442599 0.0556641 1.07715 4278190080
-0.0226858 0.0615234 1.07129 4278190080
-0.020507799 0.0615234 1.07496 4278190080
-0.0274792 0.067382798 1.06543 4278190080
-0.026367201 0.067382798 1.0673701 4278190080
-0.0210042 0.0791016 1.08301 4278190080
-0.020507799 0.0791016 1.08386 4278190080
-0.017794499 0.049804699 1.07715 4278190080
-0.0146484 0.049804699 1.08217 4278190080
-0.0192487 0.073242202 1.08301 4278190080
-0.020507799 0.077285901 1.08301 4278190080
-0.0149871 0.0556641 1.08301 4278190080
-0.0146484 0.0556641 1.08358 4278190080
-0.019261099 0.0615234 1.07715 4278190080
-0.020507799 0.066024303 1.07715 4278190080
-0.0241789 0.067382798 1.07129 4278190080
-0.01753 0.0791016 1.08887 4278190080
-0.0146484 0.0791016 1.09394 4278190080
-0.0142326 0.049804699 1.08301 4278190080
-0.0146484 0.053339101 1.08301 4278190080
-0.0154045 0.073242202 1.08887 4278190080
-0.0146484 0.073242202 1.09015 4278190080
-0.0122734 0.0556641 1.08887 4278190080
-0.0160369 0.0615234 1.08301 4278190080
-0.0146484 0.0615234 1.08544 4278190080
-0.0208856 0.067382798 1.07715 4278190080
-0.020507799 0.067382798 1.0778 4278190080
-0.0142545 0.0791016 1.09473 4278190080
-0.0146484 0.080255501 1.09473 4278190080
-0.011421 0.049804699 1.08887 4278190080
-0.0087890597 0.049804699 1.09418 4278190080
-0.0127907 0.073242202 1.09473 4278190080
-0.00979173 0.0556641 1.09473 4278190080
-0.0087890597 0.0556641 1.0969501 4278190080
-0.0133151 0.0615234 1.08887 4278190080
-0.017471701 0.067382798 1.08301 4278190080
-0.0146484 0.067382798 1.0880001 4278190080
-0.0114778 0.0791016 1.10059 4278190080
-0.0087890597 0.0791016 1.1052999 4278190080
-0.0085229902 0.049804699 1.09473 4278190080
-0.0087890597 0.050947301 1.09473 4278190080
-0.0106076 0.073242202 1.10059 4278190080
-0.0087890597 0.073242202 1.10596 4278190080
-0.0071958299 0.0556641 1.10059 4278190080
-0.0087890597 0.059752699 1.10059 4278190080
-0.0112096 0.0615234 1.09473 4278190080
-0.0143306 0.067382798 1.08887 4278190080
-0.0146484 0.069760598 1.08887 4278190080
-0.0084136697 0.0791016 1.10645 4278190080
-0.0087890597 0.080007799 1.10645 4278190080
-0.0055496702 0.049804699 1.10059 4278190080
-0.0029296901 0.049804699 1.10616 4278190080
-0.00864363 0.073242202 1.10645 4278190080
-0.0048494302 0.0556641 1.10645 4278190080
-0.0029296901 0.0556641 1.11104 4278190080
-0.0093452903 0.0615234 1.10059 4278190080
-0.0087890597 0.0615234 1.10232 4278190080
-0.0123233 0.067382798 1.09473 4278190080
-0.0068780198 0.0791016 1.1123 4278190080
-0.0087890597 0.083561398 1.1123 4278190080
-0.0028033301 0.049804699 1.10645 4278190080
-0.0029296901 0.050140299 1.10645 4278190080
-0.0068870801 0.073242202 1.1123 4278190080
-0.0103302 0.067382798 1.10059 4278190080
-0.0087890597 0.067382798 1.10525 4278190080
-0.0024287701 0.0556641 1.1123 4278190080
-0.0029296901 0.0568459 1.1123 4278190080
-0.0072364798 0.0615234 1.10645 4278190080
-0.00562918 0.0791016 1.11816 4278190080
-0.000125408 0.049804699 1.1123 4278190080
-0.0056802002 0.073242202 1.11816 4278190080
-0.0083688498 0.067382798 1.10645 4278190080
-0.225586 0.108398 0.842435 4278190080
-0.231445 0.096679702 0.84007001 4278190080
-0.225586 0.096679702 0.84011799 4278190080
-0.21972699 0.096679702 0.83894497 4278190080
-0.21972699 0.0849609 0.83535302 4278190080
-0.231445 0.102539 0.841977 4278190080
-0.225586 0.102539 0.84126902 4278190080
-0.21972699 0.102539 0.84114498 4278190080
-0.00059795397 0.0556641 1.11816 4278190080
-0.0029296901 0.061207201 1.11816 4278190080
-0.0050476799 0.0615234 1.1123 4278190080
-0.231445 0.090820298 0.84007299 4278190080
-0.225586 0.090820298 0.83903199 4278190080
-0.21972699 0.090820298 0.83715802 4278190080
-0.21386699 0.090820298 0.84238601 4278190080
-0.231445 0.114258 0.845294 4278190080
-0.225586 0.114258 0.84328997 4278190080
-0.21972699 0.114258 0.846376 4278190080
0.00195217 0.049804699 1.11816 4278190080
-0.0043349299 0.0791016 1.12402 4278190080
-0.18457 0.090820298 0.85439402 4278190080
-0.0042142901 0.073242202 1.12402 4278190080
-0.237305 0.108398 0.84631997 4278190080
-0.22829901 0.108398 0.84277302 4278190080
-0.231445 0.108398 0.84316498 4278190080
-0.223029 0.108398 0.84277302 4278190080
-0.225586 0.110887 0.84277302 4278190080
-0.21972699 0.108398 0.84348297 4278190080
-0.00680053 0.067382798 1.1123 4278190080
-0.18457 0.0849609 0.85275602 4278190080
-0.231941 0.096679702 0.84277302 4278190080
-0.237305 0.096679702 0.84808803 4278190080
-0.214781 0.096679702 0.84277302 4278190080
-0.21386699 0.096679702 0.84373599 4278190080
-0.231445 0.0849609 0.84161502 4278190080
-0.223673 0.0849609 0.836914 4278190080
-0.225586 0.0849609 0.83780599 4278190080
-0.21683399 0.0849609 0.836914 4278190080
-0.21972699 0.0901253 0.836914 4278190080
-0.21386699 0.0849609 0.838916 4278190080
-0.18457 0.108398 0.86029702 4278190080
-0.231693 0.102539 0.84277302 4278190080
-0.237305 0.102539 0.84740698 4278190080
-0.231445 0.106491 0.84277302 4278190080
-0.218198 0.102539 0.84277302 4278190080
-0.21972699 0.106912 0.84277302 4278190080
-0.21386699 0.102539 0.84721601 4278190080
0.00113022 0.0556641 1.12402 4278190080
-0.213394 0.090820298 0.84277302 4278190080
-0.21386699 0.092909098 0.84277302 4278190080
-0.0030708299 0.0615234 1.11816 4278190080
-0.0029296901 0.0615234 1.11862 4278190080
-0.18457 0.114258 0.86276102 4278190080
-0.23669299 0.114258 0.84863299 4278190080
-0.237305 0.118033 0.84863299 4278190080
-0.237305 0.114258 0.84895098 4278190080
-0.217797 0.114258 0.84863299 4278190080
-0.21386699 0.114258 0.852992 4278190080
-0.18457 0.096679702 0.85619998 4278190080
-0.178711 0.096679702 0.860286 4278190080
-0.184379 0.090820298 0.85449201 4278190080
-0.18457 0.091141202 0.85449201 4278190080
-0.178711 0.090820298 0.85752702 4278190080
-0.0033128301 0.0791016 1.12988 4278190080
-0.0029296901 0.0791016 1.1312701 4278190080
-0.18457 0.102539 0.85847598 4278190080
-0.0053176899 0.067382798 1.11816 4278190080
-0.180599 0.0849609 0.85449201 4278190080
-0.178711 0.0849609 0.85537899 4278190080
-0.17285199 0.0849609 0.85988402 4278190080
-0.21060801 0.096679702 0.84863299 4278190080
-0.20800801 0.096679702 0.85158199 4278190080
-0.0030640401 0.073242202 1.12988 4278190080
-0.0029296901 0.073242202 1.13036 4278190080
-0.237305 0.113326 0.84863299 4278190080
-0.214442 0.108398 0.84863299 4278190080
-0.21386699 0.108398 0.849105 4278190080
-0.23186401 0.0849609 0.84277302 4278190080
-0.209987 0.0849609 0.84277302 4278190080
-0.20800801 0.0849609 0.84516102 4278190080
-0.184494 0.108398 0.86035198 4278190080
-0.18457 0.10853 0.86035198 4278190080
-0.178711 0.108398 0.86494899 4278190080
-0.21243 0.102539 0.84863299 4278190080
-0.21386699 0.107057 0.84863299 4278190080
-0.20824 0.090820298 0.84863299 4278190080
-0.20800801 0.090820298 0.84889603 4278190080
-0.196289 0.090820298 0.854406 4278190080
-0.19043 0.090820298 0.85364401 4278190080
0.0028736601 0.0556641 1.12988 4278190080
-0.179913 0.114258 0.866211 4278190080
-0.178711 0.114258 0.867136 4278190080
-0.17285199 0.114258 0.87181199 4278190080
-0.00187016 0.0615234 1.12402 4278190080
-0.0029296901 0.0644425 1.12402 4278190080
-0.23847 0.114258 0.85449201 4278190080
-0.21240599 0.114258 0.85449201 4278190080
-0.21386699 0.117015 0.85449201 4278190080
-0.20800801 0.114258 0.86006701 4278190080
-0.196289 0.114258 0.86001801 4278190080
-0.19043 0.114258 0.86022699 4278190080
-0.178627 0.096679702 0.86035198 4278190080
-0.178711 0.096857697 0.86035198 4278190080
-0.17285199 0.096679702 0.86474198 4278190080
-0.17515901 0.090820298 0.86035198 4278190080
-0.17285199 0.090820298 0.86229903 4278190080
-0.181685 0.102539 0.86035198 4278190080
-0.178711 0.102539 0.86242098 4278190080
-0.204879 0.096679702 0.85449201 4278190080
-0.20800801 0.100774 0.85449201 4278190080
-0.20214801 0.096679702 0.856695 4278190080
-0.196289 0.096679702 0.85558701 4278190080
-0.19043 0.096679702 0.855317 4278190080
-0.21024001 0.108398 0.85449201 4278190080
-0.20800801 0.108398 0.858446 4278190080
-0.20214801 0.108398 0.85946703 4278190080
-0.196289 0.108398 0.85860997 4278190080
-0.19043 0.108398 0.85841697 4278190080
-0.0041336999 0.067382798 1.12402 4278190080
-0.0029296901 0.067382798 1.12921 4278190080
-0.17230199 0.0849609 0.86035198 4278190080
-0.17285199 0.0861478 0.86035198 4278190080
-0.16699199 0.0849609 0.86483598 4278190080
-0.202729 0.090820298 0.85449201 4278190080
-0.197217 0.090820298 0.85449201 4278190080
-0.20214801 0.090820298 0.85500503 4278190080
-0.196289 0.091266297 0.85449201 4278190080
-0.19043 0.093830697 0.85449201 4278190080
-0.235309 0.0849609 0.84863299 4278190080
-0.237305 0.089075401 0.84863299 4278190080
-0.237305 0.0849609 0.85164899 4278190080
-0.205432 0.0849609 0.84863299 4278190080
-0.20800801 0.090388499 0.84863299 4278190080
-0.20214801 0.0849609 0.85299802 4278190080
-0.196289 0.0849609 0.85308802 4278190080
-0.19043 0.0849609 0.852265 4278190080
-0.0087890597 0.049804699 1.1414599 4278190080
-0.208832 0.102539 0.85449201 4278190080
-0.20800801 0.102539 0.85585397 4278190080
-0.20214801 0.102539 0.85820502 4278190080
-0.196289 0.102539 0.85726899 4278190080
-0.19043 0.102539 0.85683203 4278190080
-0.0018338 0.0791016 1.13574 4278190080
-0.0029296901 0.083043799 1.13574 4278190080
-0.177183 0.108398 0.866211 4278190080
-0.178711 0.111714 0.866211 4278190080
-0.17285199 0.108398 0.86972898 4278190080
-0.00167406 0.073242202 1.13574 4278190080
-0.17253099 0.114258 0.87207001 4278190080
-0.17285199 0.114854 0.87207001 4278190080
-0.16699199 0.114258 0.87645102 4278190080
-0.0087890597 0.0556641 1.1402299 4278190080
-0.00084257103 0.0615234 1.12988 4278190080
-0.240207 0.114258 0.86035198 4278190080
-0.243164 0.114258 0.86298603 4278190080
-0.2062 0.114258 0.86035198 4278190080
-0.20800801 0.114807 0.86035198 4278190080
-0.198698 0.114258 0.86035198 4278190080
-0.20214801 0.114258 0.86080801 4278190080
-0.196289 0.115788 0.86035198 4278190080
-0.190119 0.114258 0.86035198 4278190080
-0.19043 0.114687 0.86035198 4278190080
-0.16844 0.090820298 0.866211 4278190080
-0.16699199 0.090820298 0.86743802 4278190080
-0.171086 0.096679702 0.866211 4278190080
-0.17285199 0.099758103 0.866211 4278190080
-0.16699199 0.096679702 0.869726 4278190080
-0.174393 0.102539 0.866211 4278190080
-0.17285199 0.102539 0.86751199 4278190080
-0.16699199 0.102539 0.87180197 4278190080
-0.242191 0.108398 0.86035198 4278190080
-0.243164 0.108398 0.86453402 4278190080
-0.20214801 0.112301 0.86035198 4278190080
-0.0027775799 0.067382798 1.12988 4278190080
-0.0029296901 0.070490502 1.12988 4278190080
-0.20214801 0.089066602 0.85449201 4278190080
-0.165425 0.0849609 0.866211 4278190080
-0.16699199 0.088084698 0.866211 4278190080
-0.16113301 0.0849609 0.86995602 4278190080
-0.0086471997 0.049804699 1.1416 4278190080
-0.169817 0.108398 0.87207001 4278190080
-0.16699199 0.108398 0.87414497 4278190080
-0.0146484 0.073242202 1.1432199 4278190080
-0.0087890597 0.073242202 1.14635 4278190080
-0.001387 0.073242202 1.1416 4278190080
-0.00101459 0.0791016 1.1416 4278190080
-0.16553 0.114258 0.87792999 4278190080
-0.16699199 0.117438 0.87792999 4278190080
-0.16113301 0.114258 0.88262099 4278190080
-0.243164 0.099954203 0.866211 4278190080
-0.242195 0.090820298 0.866211 4278190080
-0.243164 0.092423201 0.866211 4278190080
-0.0073984899 0.0556641 1.1416 4278190080
-0.241347 0.102539 0.866211 4278190080
-0.243164 0.107755 0.866211 4278190080
-0.243164 0.102539 0.86920202 4278190080
-0.161247 0.090820298 0.87207001 4278190080
-0.16113301 0.090820298 0.872159 4278190080
-0.15527301 0.090820298 0.87676102 4278190080
-0.166674 0.102539 0.87207001 4278190080
-0.16699199 0.103216 0.87207001 4278190080
-0.16113301 0.102539 0.87714398 4278190080
-0.0146484 0.0615234 1.13753 4278190080
-0.0087890597 0.0615234 1.1407599 4278190080
-5.4955501e-05 0.0615234 1.13574 4278190080
-0.16413701 0.096679702 0.87207001 4278190080
-0.16113301 0.096679702 0.87440199 4278190080
-0.00170898 0.067382798 1.13574 4278190080
-0.24577799 0.114258 0.87207001 4278190080
-0.15877301 0.0849609 0.87207001 4278190080
-0.16113301 0.090581797 0.87207001 4278190080
-0.15527301 0.0849609 0.87547499 4278190080
-0.162862 0.108398 0.87792999 4278190080
-0.16113301 0.108398 0.879601 4278190080
-0.0146484 0.074842699 1.14746 4278190080
-0.0051149102 0.073242202 1.14746 4278190080
-0.0087890597 0.0739033 1.14746 4278190080
-0.0023604601 0.073242202 1.14746 4278190080
-0.0029296901 0.073242202 1.14867 4278190080
-0.159695 0.114258 0.883789 4278190080
-0.16113301 0.117717 0.883789 4278190080
-0.15527301 0.114258 0.88724202 4278190080
-0.242534 0.090820298 0.87207001 4278190080
-0.243164 0.091742203 0.87207001 4278190080
-0.243164 0.090820298 0.87329602 4278190080
-0.24065199 0.0849609 0.866211 4278190080
-0.243164 0.0849609 0.869286 4278190080
-0.0087890597 0.0791016 1.15134 4278190080
-0.00097584701 0.0791016 1.14746 4278190080
-0.0029296901 0.0791016 1.15228 4278190080
-0.153965 0.090820298 0.87792999 4278190080
-0.15527301 0.093055502 0.87792999 4278190080
-0.149414 0.090820298 0.88190103 4278190080
-0.160228 0.102539 0.87792999 4278190080
-0.16113301 0.104391 0.87792999 4278190080
-0.15527301 0.102539 0.882038 4278190080
-0.157299 0.096679702 0.87792999 4278190080
-0.15527301 0.096679702 0.87975597 4278190080
-0.24693801 0.108398 0.87792999 4278190080
-0.24696399 0.114258 0.87792999 4278190080
-0.0076639699 0.0615234 1.1416 4278190080
-0.0087890597 0.063251503 1.1416 4278190080
0.00054466701 0.0615234 1.1416 4278190080
-0.0087890597 0.067382798 1.1436 4278190080
-0.00170684 0.067382798 1.1416 4278190080
-0.15636601 0.108398 0.883789 4278190080
-0.15527301 0.108398 0.88469899 4278190080
-0.149414 0.108398 0.88881898 4278190080
-0.151976 0.0849609 0.87792999 4278190080
-0.149414 0.0849609 0.87977898 4278190080
-0.243164 0.089617699 0.87207001 4278190080
-0.152018 0.114258 0.88964802 4278190080
-0.149414 0.114258 0.89155298 4278190080
-0.15003 0.096679702 0.883789 4278190080
-0.149414 0.096679702 0.88426697 4278190080
-0.143555 0.096679702 0.88846999 4278190080
-0.14700601 0.090820298 0.883789 4278190080
-0.149414 0.095491298 0.883789 4278190080
-0.143555 0.090820298 0.88641 4278190080
-0.152759 0.102539 0.883789 4278190080
-0.15527301 0.106362 0.883789 4278190080
-0.149414 0.102539 0.88615102 4278190080
-0.24851499 0.114258 0.883789 4278190080
-0.24902301 0.115322 0.883789 4278190080
-0.24902301 0.114258 0.88429898 4278190080
-0.0087890597 0.082877003 1.15332 4278190080
-0.00373375 0.067382798 1.14746 4278190080
-0.0024129199 0.067382798 1.14746 4278190080
-0.0029296901 0.067382798 1.1482 4278190080
-0.144085 0.0849609 0.883789 4278190080
-0.143555 0.0849609 0.88417602 4278190080
-0.137695 0.0849609 0.888632 4278190080
-0.148342 0.108398 0.88964802 4278190080
-0.149414 0.110168 0.88964802 4278190080
-0.143555 0.108398 0.89335501 4278190080
-0.00080311298 0.0615234 1.14746 4278190080
-0.0029296901 0.0615234 1.14833 4278190080
-0.14359801 0.114258 0.89550799 4278190080
-0.143555 0.114258 0.89553797 4278190080
-0.137695 0.114258 0.90070701 4278190080
-0.142235 0.096679702 0.88964802 4278190080
-0.143555 0.099637598 0.88964802 4278190080
-0.137695 0.096679702 0.89370501 4278190080
-0.139568 0.090820298 0.88964802 4278190080
-0.137695 0.090820298 0.89124799 4278190080
-0.14504001 0.102539 0.88964802 4278190080
-0.143555 0.102539 0.89083397 4278190080
-0.13647 0.0849609 0.88964802 4278190080
-0.137695 0.087225199 0.88964802 4278190080
-0.131836 0.0849609 0.89329499 4278190080
-0.141138 0.108398 0.89550799 4278190080
-0.143555 0.114177 0.89550799 4278190080
-0.137695 0.108398 0.89859301 4278190080
-0.13693701 0.114258 0.90136701 4278190080
-0.137695 0.116006 0.90136701 4278190080
-0.131836 0.114258 0.905514 4278190080
-0.13558 0.096679702 0.89550799 4278190080
-0.137695 0.101112 0.89550799 4278190080
-0.131836 0.096679702 0.89875197 4278190080
-0.132475 0.090820298 0.89550799 4278190080
-0.131836 0.090820298 0.89602101 4278190080
-0.12597699 0.090820298 0.901012 4278190080
-0.138357 0.102539 0.89550799 4278190080
-0.137695 0.102539 0.89609897 4278190080
-0.131836 0.102539 0.90104198 4278190080
-0.12906601 0.0849609 0.89550799 4278190080
-0.131836 0.089742802 0.89550799 4278190080
-0.12597699 0.0849609 0.89812303 4278190080
-0.13411 0.108398 0.90136701 4278190080
-0.131836 0.108398 0.90312999 4278190080
-0.12983499 0.114258 0.90722698 4278190080
-0.131836 0.118719 0.90722698 4278190080
-0.12597699 0.114258 0.91070998 4278190080
-0.12557399 0.090820298 0.90136701 4278190080
-0.12597699 0.091678001 0.90136701 4278190080
-0.120117 0.090820298 0.90638399 4278190080
-0.128612 0.096679702 0.90136701 4278190080
-0.12597699 0.096679702 0.903368 4278190080
-0.131421 0.102539 0.90136701 4278190080
-0.131836 0.103447 0.90136701 4278190080
-0.12597699 0.102539 0.90573502 4278190080
-0.122633 0.0849609 0.90136701 4278190080
-0.120117 0.0849609 0.90386701 4278190080
-0.126967 0.108398 0.90722698 4278190080
-0.12597699 0.108398 0.90807801 4278190080
-0.123735 0.114258 0.913086 4278190080
-0.120117 0.114258 0.9174 4278190080
-0.121883 0.096679702 0.90722698 4278190080
-0.120117 0.096679702 0.90900099 4278190080
-0.119489 0.090820298 0.90722698 4278190080
-0.120117 0.092692502 0.90722698 4278190080
-0.124586 0.102539 0.90722698 4278190080
-0.12597699 0.106258 0.90722698 4278190080
-0.120117 0.102539 0.91215098 4278190080
-0.117709 0.0849609 0.90722698 4278190080
-0.114258 0.0849609 0.91202497 4278190080
-0.121565 0.108398 0.913086 4278190080
-0.120117 0.108398 0.914702 4278190080
-0.119242 0.114258 0.91894501 4278190080
-0.120117 0.116776 0.91894501 4278190080
-0.117143 0.096679702 0.913086 4278190080
-0.114258 0.096679702 0.91706598 4278190080
-0.115079 0.090820298 0.913086 4278190080
-0.114258 0.090820298 0.914213 4278190080
-0.119504 0.102539 0.913086 4278190080
-0.120117 0.104616 0.913086 4278190080
-0.113648 0.0849609 0.913086 4278190080
-0.114258 0.087820403 0.913086 4278190080
-0.117479 0.108398 0.91894501 4278190080
-0.114258 0.108398 0.923994 4278190080
-0.115637 0.114258 0.92480499 4278190080
-0.114258 0.114258 0.927176 4278190080
-0.113291 0.096679702 0.91894501 4278190080
-0.114258 0.099472001 0.91894501 4278190080
-0.111813 0.090820298 0.91894501 4278190080
-0.115613 0.102539 0.91894501 4278190080
-0.114258 0.102539 0.92105401 4278190080
-0.113837 0.108398 0.92480499 4278190080
-0.114258 0.109995 0.92480499 4278190080
-0.110508 0.0849609 0.91894501 4278190080
-0.108398 0.0849609 0.92284203 4278190080
-0.112631 0.114258 0.930664 4278190080
-0.114258 0.119121 0.930664 4278190080
-0.110508 0.096679702 0.92480499 4278190080
-0.108398 0.096679702 0.92903 4278190080
-0.108881 0.090820298 0.92480499 4278190080
-0.108398 0.090820298 0.925704 4278190080
-0.112337 0.102539 0.92480499 4278190080
-0.111068 0.108398 0.930664 4278190080
-0.108398 0.108398 0.93629003 4278190080
-0.107363 0.0849609 0.92480499 4278190080
-0.108398 0.088863499 0.92480499 4278190080
-0.107585 0.096679702 0.930664 4278190080
-0.108398 0.099470504 0.930664 4278190080
-0.109976 0.114258 0.93652302 4278190080
-0.108398 0.114258 0.93971801 4278190080
-0.10574 0.090820298 0.930664 4278190080
-0.109289 0.102539 0.930664 4278190080
-0.108398 0.102539 0.93248898 4278190080
-0.108278 0.108398 0.93652302 4278190080
-0.108398 0.108783 0.93652302 4278190080
-0.10425 0.0849609 0.930664 4278190080
-0.102539 0.0849609 0.93393999 4278190080
-0.104723 0.096679702 0.93652302 4278190080
-0.102539 0.096679702 0.94050902 4278190080
-0.106992 0.114258 0.94238299 4278190080
-0.108398 0.11991 0.94238299 4278190080
-0.102755 0.090820298 0.93652302 4278190080
-0.102539 0.090820298 0.936948 4278190080
-0.106369 0.102539 0.93652302 4278190080
-0.105236 0.108398 0.94238299 4278190080
-0.102539 0.108398 0.94725502 4278190080
-0.101225 0.0849609 0.93652302 4278190080
-0.102539 0.089984402 0.93652302 4278190080
-0.101537 0.096679702 0.94238299 4278190080
-0.102539 0.10005 0.94238299 4278190080
-0.104015 0.114258 0.94824201 4278190080
-0.102539 0.114258 0.95098501 4278190080
-0.099705704 0.090820298 0.94238299 4278190080
-0.096679702 0.090820298 0.94801098 4278190080
-0.103302 0.102539 0.94238299 4278190080
-0.102539 0.102539 0.94384497 4278190080
-0.102039 0.108398 0.94824201 4278190080
-0.102539 0.109958 0.94824201 4278190080
-0.098674998 0.096679702 0.94824201 4278190080
-0.096679702 0.096679702 0.952079 4278190080
-0.098045103 0.0849609 0.94238299 4278190080
-0.096679702 0.0849609 0.944888 4278190080
-0.10078 0.114258 0.95410198 4278190080
-0.100341 0.102539 0.94824201 4278190080
-0.096563101 0.090820298 0.94824201 4278190080
-0.096679702 0.091140702 0.94824201 4278190080
-0.095605299 0.096679702 0.95410198 4278190080
-0.096679702 0.100111 0.95410198 4278190080
-0.0989962 0.108398 0.95410198 4278190080
-0.096679702 0.108398 0.95852202 4278190080
-0.095028803 0.0849609 0.94824201 4278190080
-0.097412899 0.102539 0.95410198 4278190080
-0.096679702 0.102539 0.95560801 4278190080
-0.097540602 0.114258 0.959961 4278190080
-0.096679702 0.114258 0.96147102 4278190080
-0.093629502 0.090820298 0.95410198 4278190080
-0.090820298 0.090820298 0.95952803 4278190080
-0.092580602 0.096679702 0.959961 4278190080
-0.090820298 0.096679702 0.96330899 4278190080
-0.095911898 0.108398 0.959961 4278190080
-0.096679702 0.111285 0.959961 4278190080
-0.0920626 0.0849609 0.95410198 4278190080
-0.090820298 0.0849609 0.95654303 4278190080
-0.094361402 0.102539 0.959961 4278190080
-0.094348803 0.114258 0.96582001 4278190080
-0.090607204 0.090820298 0.959961 4278190080
-0.090820298 0.091493398 0.959961 4278190080
-0.089532301 0.096679702 0.96582001 4278190080
-0.090820298 0.101394 0.96582001 4278190080
-0.0928884 0.108398 0.96582001 4278190080
-0.090820298 0.108398 0.96950501 4278190080
-0.088970102 0.0849609 0.959961 4278190080
-0.0911415 0.102539 0.96582001 4278190080
-0.090820298 0.102539 0.96644402 4278190080
-0.0911007 0.114258 0.97167999 4278190080
-0.090820298 0.114258 0.97218001 4278190080
-0.087641202 0.090820298 0.96582001 4278190080
-0.0849609 0.090820298 0.971331 4278190080
-0.086562201 0.096679702 0.97167999 4278190080
-0.0849609 0.096679702 0.97461301 4278190080
-0.089623697 0.108398 0.97167999 4278190080
-0.090820298 0.113167 0.97167999 4278190080
-0.088198699 0.102539 0.97167999 4278190080
-0.085783802 0.0849609 0.96582001 4278190080
-0.0849609 0.0849609 0.96726102 4278190080
-0.087904699 0.114258 0.977539 4278190080
-0.0849609 0.114258 0.983109 4278190080
-0.084782198 0.090820298 0.97167999 4278190080
-0.0849609 0.091393404 0.97167999 4278190080
-0.0833105 0.096679702 0.977539 4278190080
-0.0849609 0.102131 0.977539 4278190080
-0.086449496 0.108398 0.977539 4278190080
-0.0849609 0.108398 0.98032802 4278190080
-0.0850804 0.102539 0.977539 4278190080
-0.0849609 0.102539 0.977763 4278190080
