# .PCD v0.7 - Point Cloud Data file format
VERSION 0.7
FIELDS x y z rgb
SIZE 4 4 4 4
TYPE F F F U
COUNT 1 1 1 1
WIDTH 1141
HEIGHT 1
VIEWPOINT 0 0 0 1 0 0 0
POINTS 1141
DATA ascii
-0.27832001 0.12597699 0.51301003 4278190080
-0.207692 0.12597699 0.508789 4278190080
-0.20800801 0.12812901 0.508789 4278190080
-0.29016799 0.143555 0.508789 4278190080
-0.290039 0.143555 0.50886297 4278190080
-0.28417999 0.143555 0.51392102 4278190080
-0.210785 0.143555 0.508789 4278190080
-0.20800801 0.143555 0.51204902 4278190080
-0.29118001 0.149414 0.508789 4278190080
-0.290039 0.154973 0.508789 4278190080
-0.290039 0.149414 0.50951302 4278190080
-0.28417999 0.149414 0.51440603 4278190080
-0.212136 0.149414 0.508789 4278190080
-0.20800801 0.149414 0.51350802 4278190080
-0.28700101 0.131836 0.508789 4278190080
-0.28417999 0.131836 0.51004398 4278190080
-0.27832001 0.131836 0.514072 4278190080
-0.20858499 0.131836 0.508789 4278190080
-0.20800801 0.131836 0.50943702 4278190080
-0.289125 0.137695 0.508789 4278190080
-0.290039 0.14282501 0.508789 4278190080
-0.28417999 0.137695 0.51182097 4278190080
-0.209857 0.137695 0.508789 4278190080
-0.20800801 0.137695 0.510961 4278190080
-0.283409 0.143555 0.51464802 4278190080
-0.27832001 0.143555 0.517851 4278190080
-0.20583899 0.143555 0.51464802 4278190080
-0.20214801 0.143555 0.51888603 4278190080
-0.27564299 0.120117 0.51464802 4278190080
-0.272461 0.120117 0.51757503 4278190080
-0.200791 0.120117 0.51464802 4278190080
-0.20214801 0.124959 0.51464802 4278190080
-0.196289 0.120117 0.51950997 4278190080
-0.27693301 0.12597699 0.51464802 4278190080
-0.272461 0.12597699 0.51832098 4278190080
-0.202447 0.12597699 0.51464802 4278190080
-0.20214801 0.12597699 0.514992 4278190080
-0.27781999 0.131836 0.51464802 4278190080
-0.27832001 0.132897 0.51464802 4278190080
-0.272461 0.131836 0.51946801 4278190080
-0.20376 0.131836 0.51464802 4278190080
-0.20214801 0.131836 0.51655698 4278190080
-0.28397 0.149414 0.51464802 4278190080
-0.28417999 0.15013701 0.51464802 4278190080
-0.27832001 0.149414 0.51931101 4278190080
-0.20694201 0.149414 0.51464802 4278190080
-0.20800801 0.15276 0.51464802 4278190080
-0.20214801 0.149414 0.52041101 4278190080
-0.281165 0.137695 0.51464802 4278190080
-0.27832001 0.137695 0.516967 4278190080
-0.205015 0.137695 0.51464802 4278190080
-0.20214801 0.137695 0.51806802 4278190080
-0.27452701 0.143555 0.52050799 4278190080
-0.272461 0.143555 0.52221501 4278190080
-0.200884 0.143555 0.52050799 4278190080
-0.196289 0.143555 0.52594602 4278190080
-0.26906401 0.120117 0.52050799 4278190080
-0.26660201 0.120117 0.52307099 4278190080
-0.19546799 0.120117 0.52050799 4278190080
-0.196289 0.123253 0.52050799 4278190080
-0.270509 0.12597699 0.52050799 4278190080
-0.26660201 0.12597699 0.52473998 4278190080
-0.197163 0.12597699 0.52050799 4278190080
-0.196289 0.12597699 0.52143401 4278190080
-0.27678201 0.149414 0.52050799 4278190080
-0.272461 0.149414 0.52400702 4278190080
-0.202071 0.149414 0.52050799 4278190080
-0.20214801 0.149831 0.52050799 4278190080
-0.27362701 0.137695 0.52050799 4278190080
-0.272461 0.137695 0.521429 4278190080
-0.26660201 0.137695 0.52582699 4278190080
-0.199994 0.137695 0.52050799 4278190080
-0.196289 0.137695 0.524665 4278190080
-0.27148601 0.131836 0.52050799 4278190080
-0.272461 0.135196 0.52050799 4278190080
-0.26660201 0.131836 0.52539301 4278190080
-0.198589 0.131836 0.52050799 4278190080
-0.196289 0.131836 0.52307099 4278190080
-0.26857001 0.143555 0.52636701 4278190080
-0.26660201 0.143555 0.52890301 4278190080
-0.195951 0.143555 0.52636701 4278190080
-0.196289 0.145908 0.52636701 4278190080
-0.26348701 0.120117 0.52636701 4278190080
-0.26074201 0.120117 0.52985501 4278190080
-0.190981 0.120117 0.52636701 4278190080
-0.19043 0.120117 0.52710402 4278190080
-0.26448399 0.12597699 0.52636701 4278190080
-0.26074201 0.12597699 0.5316 4278190080
-0.19231901 0.12597699 0.52636701 4278190080
-0.19043 0.12597699 0.52883399 4278190080
-0.18457 0.120117 0.53512198 4278190080
-0.26604801 0.137695 0.52636701 4278190080
-0.26660201 0.139266 0.52636701 4278190080
-0.19487099 0.137695 0.52636701 4278190080
-0.19043 0.137695 0.53179902 4278190080
-0.26994601 0.149414 0.52636701 4278190080
-0.26660201 0.149414 0.529728 4278190080
-0.196888 0.149414 0.52636701 4278190080
-0.196289 0.149414 0.52704102 4278190080
-0.26558301 0.131836 0.52636701 4278190080
-0.193637 0.131836 0.52636701 4278190080
-0.19043 0.131836 0.530352 4278190080
-0.18457 0.12597699 0.53669 4278190080
-0.18457 0.137695 0.53970599 4278190080
-0.18457 0.143555 0.5413 4278190080
-0.18457 0.131836 0.53811002 4278190080
-0.18264 0.120117 0.538086 4278190080
-0.26022601 0.12597699 0.53222698 4278190080
-0.26074201 0.128611 0.53222698 4278190080
-0.25488299 0.12597699 0.53784901 4278190080
-0.187892 0.12597699 0.53222698 4278190080
-0.258293 0.120117 0.53222698 4278190080
-0.25488299 0.120117 0.53641403 4278190080
-0.186639 0.120117 0.53222698 4278190080
-0.18457 0.149414 0.54290903 4278190080
-0.263293 0.143555 0.53222698 4278190080
-0.26074201 0.143555 0.535065 4278190080
-0.191193 0.143555 0.53222698 4278190080
-0.19043 0.143555 0.533158 4278190080
-0.18363599 0.12597699 0.538086 4278190080
-0.18457 0.131741 0.538086 4278190080
-0.181765 0.137695 0.54394501 4278190080
-0.178711 0.137695 0.54885298 4278190080
-0.26131901 0.131836 0.53222698 4278190080
-0.26074201 0.131836 0.53294301 4278190080
-0.188997 0.131836 0.53222698 4278190080
-0.18286 0.143555 0.54394501 4278190080
-0.26414901 0.149414 0.53222698 4278190080
-0.26074201 0.149414 0.53652197 4278190080
-0.192488 0.149414 0.53222698 4278190080
-0.19043 0.149414 0.53491098 4278190080
-0.180765 0.131836 0.54394501 4278190080
-0.178711 0.131836 0.54722202 4278190080
-0.17888699 0.120117 0.54394501 4278190080
-0.178711 0.120117 0.54423499 4278190080
-0.261969 0.137695 0.53222698 4278190080
-0.26074201 0.137695 0.53383303 4278190080
-0.19011199 0.137695 0.53222698 4278190080
-0.19043 0.13956501 0.53222698 4278190080
-0.183841 0.149414 0.54394501 4278190080
-0.18457 0.154552 0.54394501 4278190080
-0.17984401 0.12597699 0.54394501 4278190080
-0.178711 0.12597699 0.545717 4278190080
-0.253721 0.120117 0.538086 4278190080
-0.24902301 0.120117 0.54376602 4278190080
-0.17814399 0.137695 0.54980499 4278190080
-0.178711 0.14148501 0.54980499 4278190080
-0.179048 0.143555 0.54980499 4278190080
-0.178711 0.143555 0.55032301 4278190080
-0.25464201 0.12597699 0.538086 4278190080
-0.25488299 0.126623 0.538086 4278190080
-0.258434 0.143555 0.538086 4278190080
-0.25488299 0.143555 0.54252899 4278190080
-0.18678699 0.143555 0.538086 4278190080
-0.17717899 0.131836 0.54980499 4278190080
-0.17530499 0.120117 0.54980499 4278190080
-0.17285199 0.120117 0.55405301 4278190080
-0.25656199 0.131836 0.538086 4278190080
-0.25488299 0.131836 0.54016501 4278190080
-0.184588 0.131836 0.538086 4278190080
-0.25926599 0.149414 0.538086 4278190080
-0.26074201 0.154401 0.538086 4278190080
-0.188087 0.149414 0.538086 4278190080
-0.18007199 0.149414 0.54980499 4278190080
-0.178711 0.149414 0.55206901 4278190080
-0.17465501 0.137695 0.555664 4278190080
-0.17285199 0.137695 0.55841899 4278190080
-0.17616799 0.12597699 0.54980499 4278190080
-0.17285199 0.12597699 0.55501401 4278190080
-0.175464 0.143555 0.555664 4278190080
-0.17285199 0.143555 0.55970198 4278190080
-0.25743601 0.137695 0.538086 4278190080
-0.25488299 0.137695 0.54128599 4278190080
-0.18575101 0.137695 0.538086 4278190080
-0.24889199 0.120117 0.54394501 4278190080
-0.24902301 0.120892 0.54394501 4278190080
-0.1719 0.120117 0.555664 4278190080
-0.173454 0.131836 0.555664 4278190080
-0.17285199 0.131836 0.55666202 4278190080
-0.25019199 0.12597699 0.54394501 4278190080
-0.24902301 0.12597699 0.54540098 4278190080
-0.253582 0.143555 0.54394501 4278190080
-0.25488299 0.148289 0.54394501 4278190080
-0.24902301 0.143555 0.54973298 4278190080
-0.17068 0.137695 0.56152302 4278190080
-0.16699199 0.137695 0.56718701 4278190080
-0.17652901 0.149414 0.555664 4278190080
-0.17285199 0.149414 0.56110501 4278190080
-0.17162301 0.143555 0.56152302 4278190080
-0.251194 0.131836 0.54394501 4278190080
-0.24902301 0.131836 0.54687297 4278190080
-0.172451 0.12597699 0.555664 4278190080
-0.17285199 0.12841 0.555664 4278190080
-0.167983 0.120117 0.56152302 4278190080
-0.16699199 0.120117 0.563034 4278190080
-0.16982201 0.131836 0.56152302 4278190080
-0.16699199 0.131836 0.56569803 4278190080
-0.255198 0.149414 0.54394501 4278190080
-0.25488299 0.149414 0.54445302 4278190080
-0.252799 0.137695 0.54394501 4278190080
-0.24902301 0.137695 0.54889703 4278190080
-0.24508999 0.120117 0.54980499 4278190080
-0.243164 0.120117 0.55230898 4278190080
-0.16687299 0.137695 0.56738299 4278190080
-0.16699199 0.13841701 0.56738299 4278190080
-0.24561401 0.12597699 0.54980499 4278190080
-0.243164 0.12597699 0.55384499 4278190080
-0.16791099 0.143555 0.56738299 4278190080
-0.16699199 0.143555 0.56880999 4278190080
-0.17258801 0.149414 0.56152302 4278190080
-0.17285199 0.15172499 0.56152302 4278190080
-0.248971 0.143555 0.54980499 4278190080
-0.24902301 0.143852 0.54980499 4278190080
-0.16878401 0.12597699 0.56152302 4278190080
-0.16699199 0.12597699 0.56443101 4278190080
-0.164111 0.120117 0.56738299 4278190080
-0.16113301 0.120117 0.572043 4278190080
-0.165904 0.131836 0.56738299 4278190080
-0.246961 0.131836 0.54980499 4278190080
-0.243164 0.131836 0.55564898 4278190080
-0.24828 0.137695 0.54980499 4278190080
-0.24103899 0.120117 0.555664 4278190080
-0.237305 0.120117 0.56090498 4278190080
-0.163124 0.137695 0.57324201 4278190080
-0.16113301 0.137695 0.57628697 4278190080
-0.25046399 0.149414 0.54980499 4278190080
-0.24902301 0.149414 0.551682 4278190080
-0.164143 0.143555 0.57324201 4278190080
-0.16113301 0.143555 0.57766402 4278190080
-0.242116 0.12597699 0.555664 4278190080
-0.168818 0.149414 0.56738299 4278190080
-0.16699199 0.149414 0.57022899 4278190080
-0.160384 0.120117 0.57324201 4278190080
-0.16113301 0.124132 0.57324201 4278190080
-0.165178 0.12597699 0.56738299 4278190080
-0.24456701 0.143555 0.555664 4278190080
-0.243164 0.143555 0.55761999 4278190080
-0.162119 0.131836 0.57324201 4278190080
-0.16113301 0.131836 0.57481402 4278190080
-0.243156 0.131836 0.555664 4278190080
-0.243164 0.131898 0.555664 4278190080
-0.15939599 0.137695 0.57910198 4278190080
-0.24405199 0.137695 0.555664 4278190080
-0.243164 0.137695 0.557028 4278190080
-0.236908 0.120117 0.56152302 4278190080
-0.237305 0.123259 0.56152302 4278190080
-0.156701 0.120117 0.57910198 4278190080
-0.15527301 0.120117 0.58125901 4278190080
-0.160138 0.143555 0.57910198 4278190080
-0.108398 0.148458 0.57910198 4278190080
-0.102539 0.14714 0.57910198 4278190080
-0.096679702 0.147421 0.57910198 4278190080
-0.096679702 0.143555 0.58428198 4278190080
-0.090820298 0.143555 0.58465701 4278190080
-0.161477 0.12597699 0.57324201 4278190080
-0.16113301 0.12597699 0.57376999 4278190080
-0.16480599 0.149414 0.57324201 4278190080
-0.16113301 0.149414 0.57822502 4278190080
-0.120117 0.154943 0.57324201 4278190080
-0.114258 0.152822 0.57324201 4278190080
-0.108398 0.15160801 0.57324201 4278190080
-0.108398 0.149414 0.57595801 4278190080
-0.102539 0.151749 0.57324201 4278190080
-0.102539 0.149414 0.57551098 4278190080
-0.096679702 0.15391301 0.57324201 4278190080
-0.096679702 0.149414 0.57696998 4278190080
-0.158453 0.131836 0.57910198 4278190080
-0.15527301 0.131836 0.58389902 4278190080
-0.246397 0.149414 0.555664 4278190080
-0.243164 0.149414 0.55924398 4278190080
-0.237699 0.12597699 0.56152302 4278190080
-0.237305 0.12597699 0.56218898 4278190080
-0.241024 0.143555 0.56152302 4278190080
-0.23940399 0.131836 0.56152302 4278190080
-0.237305 0.131836 0.56423199 4278190080
-0.155588 0.137695 0.584961 4278190080
-0.15527301 0.137695 0.58545601 4278190080
-0.096679702 0.14337599 0.584961 4278190080
-0.090820298 0.143417 0.584961 4278190080
-0.152861 0.120117 0.584961 4278190080
-0.149414 0.120117 0.59023499 4278190080
-0.240402 0.137695 0.56152302 4278190080
-0.237305 0.137695 0.566531 4278190080
-0.15455499 0.131836 0.584961 4278190080
-0.15527301 0.13583601 0.584961 4278190080
-0.15757699 0.12597699 0.57910198 4278190080
-0.15527301 0.12597699 0.58253902 4278190080
-0.15632699 0.143555 0.584961 4278190080
-0.15527301 0.143555 0.58657199 4278190080
-0.114258 0.148389 0.584961 4278190080
-0.108398 0.146751 0.584961 4278190080
-0.100206 0.143555 0.584961 4278190080
-0.102539 0.14378799 0.584961 4278190080
-0.102539 0.143555 0.58554602 4278190080
-0.0904551 0.143555 0.584961 4278190080
-0.0849609 0.14724299 0.584961 4278190080
-0.0849609 0.143555 0.58985603 4278190080
-0.160359 0.149414 0.57910198 4278190080
-0.12597699 0.15526401 0.57910198 4278190080
-0.120117 0.152723 0.57910198 4278190080
-0.114166 0.149414 0.57910198 4278190080
-0.114258 0.149444 0.57910198 4278190080
-0.114258 0.149414 0.57915002 4278190080
-0.091372401 0.149414 0.57910198 4278190080
-0.090820298 0.149781 0.57910198 4278190080
-0.090820298 0.149414 0.57930702 4278190080
-0.0849609 0.149414 0.58266699 4278190080
-0.233908 0.12597699 0.56738299 4278190080
-0.231445 0.12597699 0.571706 4278190080
-0.241467 0.149414 0.56152302 4278190080
-0.243164 0.15444 0.56152302 4278190080
-0.232979 0.120117 0.56738299 4278190080
-0.231445 0.120117 0.570041 4278190080
-0.151779 0.137695 0.59082001 4278190080
-0.149414 0.137695 0.594244 4278190080
-0.102539 0.142882 0.59082001 4278190080
-0.096679702 0.141984 0.59082001 4278190080
-0.090820298 0.14127401 0.59082001 4278190080
-0.0849609 0.143098 0.59082001 4278190080
-0.23476 0.131836 0.56738299 4278190080
-0.231445 0.131836 0.57317299 4278190080
-0.237516 0.143555 0.56738299 4278190080
-0.237305 0.143555 0.56767303 4278190080
-0.15090799 0.131836 0.59082001 4278190080
-0.149414 0.131836 0.59307402 4278190080
-0.14904501 0.120117 0.59082001 4278190080
-0.149414 0.122757 0.59082001 4278190080
-0.153723 0.12597699 0.584961 4278190080
-0.236662 0.137695 0.56738299 4278190080
-0.237305 0.14202499 0.56738299 4278190080
-0.151972 0.143555 0.59082001 4278190080
-0.149414 0.143555 0.59422702 4278190080
-0.120117 0.14866699 0.59082001 4278190080
-0.114258 0.14755 0.59082001 4278190080
-0.104616 0.143555 0.59082001 4278190080
-0.108398 0.145464 0.59082001 4278190080
-0.084026501 0.143555 0.59082001 4278190080
-0.0791016 0.149354 0.59082001 4278190080
-0.15529899 0.149414 0.584961 4278190080
-0.15527301 0.149482 0.584961 4278190080
-0.15527301 0.149414 0.584993 4278190080
-0.131836 0.155165 0.584961 4278190080
-0.12597699 0.153534 0.584961 4278190080
-0.118033 0.149414 0.584961 4278190080
-0.120117 0.15064199 0.584961 4278190080
-0.120117 0.149414 0.58735299 4278190080
-0.0825359 0.149414 0.584961 4278190080
-0.0791016 0.149414 0.59074599 4278190080
-0.230509 0.12597699 0.57324201 4278190080
-0.147691 0.137695 0.59667999 4278190080
-0.102539 0.142215 0.59667999 4278190080
-0.096679702 0.14114501 0.59667999 4278190080
-0.090820298 0.140475 0.59667999 4278190080
-0.0849609 0.140332 0.59667999 4278190080
-0.237444 0.149414 0.56738299 4278190080
-0.237305 0.149414 0.56757402 4278190080
-0.22920799 0.120117 0.57324201 4278190080
-0.147139 0.131836 0.59667999 4278190080
-0.143555 0.131836 0.60220402 4278190080
-0.145264 0.120117 0.59667999 4278190080
-0.143555 0.120117 0.59945703 4278190080
-0.231405 0.131836 0.57324201 4278190080
-0.231445 0.132001 0.57324201 4278190080
-0.149876 0.12597699 0.59082001 4278190080
-0.149414 0.12597699 0.59152102 4278190080
-0.23327801 0.143555 0.57324201 4278190080
-0.231445 0.143555 0.57581502 4278190080
-0.232637 0.137695 0.57324201 4278190080
-0.231445 0.137695 0.57498199 4278190080
-0.14749201 0.143555 0.59667999 4278190080
-0.143555 0.143555 0.60122901 4278190080
-0.114258 0.14705899 0.59667999 4278190080
-0.107077 0.143555 0.59667999 4278190080
-0.108398 0.144144 0.59667999 4278190080
-0.079459697 0.143555 0.59667999 4278190080
-0.0791016 0.14409 0.59667999 4278190080
-0.0791016 0.143555 0.59808803 4278190080
-0.143858 0.137695 0.602539 4278190080
-0.143555 0.139129 0.602539 4278190080
-0.143555 0.137695 0.60297197 4278190080
-0.102539 0.141652 0.602539 4278190080
-0.096679702 0.14057399 0.602539 4278190080
-0.090820298 0.139293 0.602539 4278190080
-0.0849609 0.13949899 0.602539 4278190080
-0.0791016 0.143043 0.602539 4278190080
-0.149911 0.149414 0.59082001 4278190080
-0.149414 0.15010799 0.59082001 4278190080
-0.149414 0.149414 0.59136802 4278190080
-0.143555 0.15386 0.59082001 4278190080
-0.137695 0.154589 0.59082001 4278190080
-0.131836 0.15515199 0.59082001 4278190080
-0.122293 0.149414 0.59082001 4278190080
-0.12597699 0.153956 0.59082001 4278190080
-0.120117 0.149414 0.59382302 4278190080
-0.079076298 0.149414 0.59082001 4278190080
-0.226549 0.12597699 0.57910198 4278190080
-0.225586 0.12597699 0.58033401 4278190080
-0.143336 0.131836 0.602539 4278190080
-0.143555 0.134408 0.602539 4278190080
-0.233954 0.149414 0.57324201 4278190080
-0.231445 0.149414 0.57644302 4278190080
-0.141672 0.120117 0.602539 4278190080
-0.225798 0.120117 0.57910198 4278190080
-0.225586 0.120117 0.57938701 4278190080
-0.146236 0.12597699 0.59667999 4278190080
-0.143555 0.12597699 0.60105503 4278190080
-0.227744 0.131836 0.57910198 4278190080
-0.225586 0.131836 0.58295202 4278190080
-0.229009 0.143555 0.57910198 4278190080
-0.228608 0.137695 0.57910198 4278190080
-0.225586 0.137695 0.58276498 4278190080
-0.13962799 0.137695 0.60839802 4278190080
-0.137695 0.14260399 0.60839802 4278190080
-0.137695 0.137695 0.61110902 4278190080
-0.108398 0.143324 0.60839802 4278190080
-0.102539 0.141077 0.60839802 4278190080
-0.096679702 0.140141 0.60839802 4278190080
-0.090820298 0.138852 0.60839802 4278190080
-0.0849609 0.13839 0.60839802 4278190080
-0.0791016 0.142776 0.60839802 4278190080
-0.142333 0.143555 0.602539 4278190080
-0.137695 0.143555 0.60785598 4278190080
-0.114258 0.147026 0.602539 4278190080
-0.10807 0.143555 0.602539 4278190080
-0.108398 0.14372 0.602539 4278190080
-0.108398 0.143555 0.60444099 4278190080
-0.078561202 0.143555 0.602539 4278190080
-0.139597 0.131836 0.60839802 4278190080
-0.137695 0.131836 0.611296 4278190080
-0.144573 0.149414 0.59667999 4278190080
-0.143555 0.15005501 0.59667999 4278190080
-0.143555 0.149414 0.59778398 4278190080
-0.137695 0.153221 0.59667999 4278190080
-0.118727 0.149414 0.59667999 4278190080
-0.120117 0.154567 0.59667999 4278190080
-0.077173799 0.149414 0.59667999 4278190080
-0.073242202 0.15522601 0.59667999 4278190080
-0.13797601 0.120117 0.60839802 4278190080
-0.137695 0.120117 0.608845 4278190080
-0.222165 0.12597699 0.584961 4278190080
-0.21972699 0.12597699 0.58958 4278190080
-0.142612 0.12597699 0.602539 4278190080
-0.22933701 0.149414 0.57910198 4278190080
-0.221512 0.120117 0.584961 4278190080
-0.21972699 0.120117 0.58783299 4278190080
-0.22422799 0.131836 0.584961 4278190080
-0.225765 0.143555 0.584961 4278190080
-0.225586 0.143555 0.58528399 4278190080
-0.135728 0.131836 0.61425799 4278190080
-0.131836 0.131836 0.620049 4278190080
-0.135483 0.137695 0.61425799 4278190080
-0.131836 0.137695 0.61954302 4278190080
-0.102539 0.141158 0.61425799 4278190080
-0.096679702 0.139846 0.61425799 4278190080
-0.090820298 0.13857 0.61425799 4278190080
-0.0849609 0.138234 0.61425799 4278190080
-0.0791016 0.142765 0.61425799 4278190080
-0.223937 0.137695 0.584961 4278190080
-0.225586 0.14290901 0.584961 4278190080
-0.13720199 0.143555 0.60839802 4278190080
-0.108814 0.143555 0.60839802 4278190080
-0.114258 0.147199 0.60839802 4278190080
-0.108398 0.143555 0.61036003 4278190080
-0.078184202 0.143555 0.60839802 4278190080
-0.13819601 0.149414 0.602539 4278190080
-0.137695 0.149803 0.602539 4278190080
-0.137695 0.149414 0.603028 4278190080
-0.131836 0.15323 0.602539 4278190080
-0.12597699 0.154572 0.602539 4278190080
-0.117998 0.149414 0.602539 4278190080
-0.120117 0.15270101 0.602539 4278190080
-0.075815 0.149414 0.602539 4278190080
-0.073242202 0.154043 0.602539 4278190080
-0.13413 0.120117 0.61425799 4278190080
-0.131836 0.120117 0.617746 4278190080
-0.138928 0.12597699 0.60839802 4278190080
-0.137695 0.12597699 0.61030602 4278190080
-0.21894801 0.12597699 0.59082001 4278190080
-0.21972699 0.130062 0.59082001 4278190080
-0.225788 0.149414 0.584961 4278190080
-0.225586 0.153183 0.584961 4278190080
-0.225586 0.149414 0.58523703 4278190080
-0.21757101 0.120117 0.59082001 4278190080
-0.13140599 0.137695 0.62011701 4278190080
-0.102539 0.142546 0.62011701 4278190080
-0.096679702 0.13948201 0.62011701 4278190080
-0.090820298 0.138172 0.62011701 4278190080
-0.0849609 0.138244 0.62011701 4278190080
-0.0791016 0.14264201 0.62011701 4278190080
-0.131789 0.131836 0.62011701 4278190080
-0.220008 0.131836 0.59082001 4278190080
-0.21972699 0.131836 0.591223 4278190080
-0.22175699 0.143555 0.59082001 4278190080
-0.21972699 0.143555 0.59386098 4278190080
-0.130318 0.120117 0.62011701 4278190080
-0.13254701 0.143555 0.61425799 4278190080
-0.131836 0.144391 0.61425799 4278190080
-0.131836 0.143555 0.61511499 4278190080
-0.12597699 0.14823499 0.61425799 4278190080
-0.120117 0.14904501 0.61425799 4278190080
-0.114258 0.14812 0.61425799 4278190080
-0.10738 0.143555 0.61425799 4278190080
-0.108398 0.145171 0.61425799 4278190080
-0.078182198 0.143555 0.61425799 4278190080
-0.13236199 0.149414 0.60839802 4278190080
-0.131836 0.14981399 0.60839802 4278190080
-0.131836 0.149414 0.60888499 4278190080
-0.12597699 0.151613 0.60839802 4278190080
-0.12597699 0.149414 0.61256802 4278190080
-0.118238 0.149414 0.60839802 4278190080
-0.120117 0.151283 0.60839802 4278190080
-0.120117 0.149414 0.61329597 4278190080
-0.075047299 0.149414 0.60839802 4278190080
-0.073242202 0.153317 0.60839802 4278190080
-0.135023 0.12597699 0.61425799 4278190080
-0.131836 0.12597699 0.61905098 4278190080
-0.22028799 0.137695 0.59082001 4278190080
-0.21972699 0.137695 0.59196198 4278190080
-0.2154 0.12597699 0.59667999 4278190080
-0.21386699 0.12597699 0.59860098 4278190080
-0.213874 0.120117 0.59667999 4278190080
-0.21386699 0.120117 0.59668702 4278190080
-0.126893 0.137695 0.62597698 4278190080
-0.12597699 0.139256 0.62597698 4278190080
-0.12597699 0.137695 0.627226 4278190080
-0.096679702 0.140993 0.62597698 4278190080
-0.090820298 0.13838901 0.62597698 4278190080
-0.0849609 0.138585 0.62597698 4278190080
-0.0791016 0.142821 0.62597698 4278190080
-0.12781 0.131836 0.62597698 4278190080
-0.12597699 0.131836 0.628443 4278190080
-0.222156 0.149414 0.59082001 4278190080
-0.21972699 0.149414 0.59497899 4278190080
-0.215901 0.131836 0.59667999 4278190080
-0.21386699 0.131836 0.59945297 4278190080
-0.12633801 0.120117 0.62597698 4278190080
-0.12597699 0.120117 0.62649202 4278190080
-0.217867 0.143555 0.59667999 4278190080
-0.21386699 0.143555 0.60184199 4278190080
-0.131129 0.12597699 0.62011701 4278190080
-0.127838 0.143555 0.62011701 4278190080
-0.12597699 0.14501201 0.62011701 4278190080
-0.12597699 0.143555 0.62252301 4278190080
-0.120117 0.14789 0.62011701 4278190080
-0.114258 0.14878599 0.62011701 4278190080
-0.103645 0.143555 0.62011701 4278190080
-0.102539 0.143555 0.621683 4278190080
-0.077940598 0.143555 0.62011701 4278190080
-0.108398 0.149414 0.618581 4278190080
-0.102539 0.154543 0.61425799 4278190080
-0.074595504 0.149414 0.61425799 4278190080
-0.073242202 0.153035 0.61425799 4278190080
-0.123138 0.131836 0.631836 4278190080
-0.120117 0.131836 0.63577402 4278190080
-0.216947 0.137695 0.59667999 4278190080
-0.21386699 0.137695 0.60216898 4278190080
-0.122637 0.137695 0.631836 4278190080
-0.120117 0.142462 0.631836 4278190080
-0.120117 0.137695 0.63493901 4278190080
-0.0849609 0.14153901 0.631836 4278190080
-0.209601 0.120117 0.602539 4278190080
-0.20800801 0.120117 0.60494101 4278190080
-0.21087299 0.12597699 0.602539 4278190080
-0.20800801 0.12597699 0.60637897 4278190080
-0.12222 0.120117 0.631836 4278190080
-0.120117 0.120117 0.63485497 4278190080
-0.127073 0.12597699 0.62597698 4278190080
-0.12597699 0.12597699 0.62758499 4278190080
-0.211634 0.131836 0.602539 4278190080
-0.20800801 0.131836 0.60813701 4278190080
-0.218438 0.149414 0.59667999 4278190080
-0.123666 0.143555 0.62597698 4278190080
-0.120117 0.145991 0.62597698 4278190080
-0.120117 0.143555 0.63106799 4278190080
-0.114258 0.14876699 0.62597698 4278190080
-0.0993172 0.143555 0.62597698 4278190080
-0.096679702 0.146411 0.62597698 4278190080
-0.096679702 0.143555 0.62769902 4278190080
-0.090820298 0.143555 0.63174701 4278190080
-0.078283399 0.143555 0.62597698 4278190080
-0.0791016 0.143555 0.62914801 4278190080
-0.073242202 0.149094 0.62597698 4278190080
-0.111812 0.149414 0.62011701 4278190080
-0.104551 0.149414 0.62011701 4278190080
-0.108398 0.15014599 0.62011701 4278190080
-0.102539 0.150508 0.62011701 4278190080
-0.102539 0.149414 0.62076199 4278190080
-0.096679702 0.15323301 0.62011701 4278190080
-0.096679702 0.149414 0.62429798 4278190080
-0.073645897 0.149414 0.62011701 4278190080
-0.073242202 0.15086301 0.62011701 4278190080
-0.073242202 0.149414 0.62403202 4278190080
-0.21334501 0.143555 0.602539 4278190080
-0.21386699 0.145218 0.602539 4278190080
-0.118741 0.131836 0.63769501 4278190080
-0.213624 0.137695 0.602539 4278190080
-0.118021 0.137695 0.63769501 4278190080
-0.114258 0.142904 0.63769501 4278190080
-0.18457 0.120117 0.63979298 4278190080
-0.117997 0.120117 0.63769501 4278190080
-0.20632599 0.12597699 0.60839802 4278190080
-0.205396 0.120117 0.60839802 4278190080
-0.20214801 0.120117 0.61312199 4278190080
-0.122912 0.12597699 0.631836 4278190080
-0.120117 0.12597699 0.635427 4278190080
-0.119314 0.143555 0.631836 4278190080
-0.114258 0.147315 0.631836 4278190080
-0.114258 0.143555 0.636985 4278190080
-0.090477802 0.143555 0.631836 4278190080
-0.0803461 0.143555 0.631836 4278190080
-0.0849609 0.147452 0.631836 4278190080
-0.0849609 0.143555 0.633865 4278190080
-0.0791016 0.144798 0.631836 4278190080
-0.214864 0.149414 0.602539 4278190080
-0.21386699 0.149414 0.60463798 4278190080
-0.207811 0.131836 0.60839802 4278190080
-0.20800801 0.13258 0.60839802 4278190080
-0.18457 0.131836 0.64387298 4278190080
-0.115345 0.131836 0.64355499 4278190080
-0.114258 0.131836 0.64543599 4278190080
-0.113457 0.149414 0.62597698 4278190080
-0.108398 0.15162501 0.62597698 4278190080
-0.0933998 0.149414 0.62597698 4278190080
-0.090820298 0.150493 0.62597698 4278190080
-0.090820298 0.149414 0.62681597 4278190080
-0.0849609 0.149414 0.63133103 4278190080
-0.073041603 0.149414 0.62597698 4278190080
-0.073242202 0.149414 0.627424 4278190080
-0.20993599 0.143555 0.60839802 4278190080
-0.20800801 0.143555 0.61220801 4278190080
-0.18231501 0.120117 0.64355499 4278190080
-0.114329 0.120117 0.64355499 4278190080
-0.114258 0.120117 0.64366299 4278190080
-0.18457 0.137695 0.64491099 4278190080
-0.114262 0.137695 0.64355499 4278190080
-0.114258 0.137704 0.64355499 4278190080
-0.114258 0.137695 0.64356101 4278190080
-0.209277 0.137695 0.60839802 4278190080
-0.20800801 0.137695 0.61002201 4278190080
-0.18457 0.12597699 0.64034098 4278190080
-0.118462 0.12597699 0.63769501 4278190080
-0.201352 0.120117 0.61425799 4278190080
-0.20214801 0.125957 0.61425799 4278190080
-0.202151 0.12597699 0.61425799 4278190080
-0.20214801 0.12597699 0.61426198 4278190080
-0.113833 0.143555 0.63769501 4278190080
-0.179786 0.131836 0.649414 4278190080
-0.178711 0.131836 0.650769 4278190080
-0.111792 0.131836 0.649414 4278190080
-0.108398 0.131836 0.65472299 4278190080
-0.20408501 0.131836 0.61425799 4278190080
-0.20214801 0.131836 0.61704302 4278190080
-0.21168 0.149414 0.60839802 4278190080
-0.20800801 0.149414 0.61237401 4278190080
-0.113235 0.149414 0.631836 4278190080
-0.108398 0.15241399 0.631836 4278190080
-0.083001003 0.149414 0.631836 4278190080
-0.074745201 0.149414 0.631836 4278190080
-0.0791016 0.149414 0.63352102 4278190080
-0.073242202 0.151813 0.631836 4278190080
-0.17887799 0.120117 0.649414 4278190080
-0.178711 0.120117 0.64963597 4278190080
-0.110796 0.120117 0.649414 4278190080
-0.108398 0.120117 0.653548 4278190080
-0.206558 0.143555 0.61425799 4278190080
-0.181596 0.137695 0.649414 4278190080
-0.178711 0.137695 0.652215 4278190080
-0.11117 0.137695 0.649414 4278190080
-0.108398 0.143023 0.649414 4278190080
-0.108398 0.137695 0.65380901 4278190080
-0.18262801 0.12597699 0.64355499 4278190080
-0.18457 0.1311 0.64355499 4278190080
-0.114996 0.12597699 0.64355499 4278190080
-0.114258 0.12597699 0.64486903 4278190080
-0.204909 0.137695 0.61425799 4278190080
-0.20214801 0.137695 0.61784798 4278190080
-0.197142 0.120117 0.62011701 4278190080
-0.196289 0.120117 0.62170601 4278190080
-0.18457 0.143555 0.64713502 4278190080
-0.111682 0.143555 0.64355499 4278190080
-0.108398 0.143555 0.64891499 4278190080
-0.198034 0.12597699 0.62011701 4278190080
-0.196289 0.12597699 0.62293297 4278190080
-0.175414 0.131836 0.65527302 4278190080
-0.17285199 0.131836 0.65954298 4278190080
-0.108077 0.131836 0.65527302 4278190080
-0.174182 0.120117 0.65527302 4278190080
-0.17285199 0.120117 0.657143 4278190080
-0.107292 0.120117 0.65527302 4278190080
-0.199991 0.131836 0.62011701 4278190080
-0.196289 0.131836 0.62564701 4278190080
-0.112426 0.149414 0.63769501 4278190080
-0.203205 0.143555 0.62011701 4278190080
-0.20214801 0.147613 0.62011701 4278190080
-0.20214801 0.143555 0.62143397 4278190080
-0.20631 0.149414 0.61425799 4278190080
-0.20214801 0.149414 0.61945498 4278190080
-0.17632601 0.137695 0.65527302 4278190080
-0.178711 0.142627 0.65527302 4278190080
-0.107545 0.137695 0.65527302 4278190080
-0.183218 0.143555 0.649414 4278190080
-0.108215 0.143555 0.649414 4278190080
-0.179812 0.12597699 0.649414 4278190080
-0.178711 0.12597699 0.65102297 4278190080
-0.111701 0.12597699 0.649414 4278190080
-0.108398 0.12597699 0.65437698 4278190080
-0.200582 0.137695 0.62011701 4278190080
-0.20214801 0.141001 0.62011701 4278190080
-0.17185301 0.131836 0.66113299 4278190080
-0.17285199 0.135354 0.66113299 4278190080
-0.104622 0.131836 0.66113299 4278190080
-0.102539 0.131836 0.66463798 4278190080
-0.19382501 0.120117 0.62597698 4278190080
-0.194342 0.12597699 0.62597698 4278190080
-0.170028 0.120117 0.66113299 4278190080
-0.16699199 0.120117 0.66464198 4278190080
-0.10343 0.120117 0.66113299 4278190080
-0.102539 0.120117 0.662588 4278190080
-0.19598199 0.131836 0.62597698 4278190080
-0.196289 0.132972 0.62597698 4278190080
-0.18457 0.149414 0.64762801 4278190080
-0.110849 0.149414 0.64355499 4278190080
-0.108398 0.154853 0.64355499 4278190080
-0.108398 0.149414 0.64836901 4278190080
-0.173452 0.137695 0.66113299 4278190080
-0.17285199 0.137695 0.66189402 4278190080
-0.104383 0.137695 0.66113299 4278190080
-0.102539 0.137695 0.66470701 4278190080
-0.201662 0.149414 0.62011701 4278190080
-0.20214801 0.150767 0.62011701 4278190080
-0.17916401 0.143555 0.65527302 4278190080
-0.178711 0.143555 0.65578598 4278190080
-0.10578 0.143555 0.65527302 4278190080
-0.17509 0.12597699 0.65527302 4278190080
-0.17285199 0.12597699 0.659401 4278190080
-0.107778 0.12597699 0.65527302 4278190080
-0.198432 0.143555 0.62597698 4278190080
-0.196289 0.143555 0.62888902 4278190080
-0.165116 0.120117 0.66699201 4278190080
-0.16699199 0.124501 0.66699201 4278190080
-0.099831797 0.120117 0.66699201 4278190080
-0.096679702 0.120117 0.67187798 4278190080
-0.169021 0.131836 0.66699201 4278190080
-0.16699199 0.131836 0.67033601 4278190080
-0.101159 0.131836 0.66699201 4278190080
-0.19060101 0.12597699 0.631836 4278190080
-0.19043 0.12597699 0.63205099 4278190080
-0.197111 0.137695 0.62597698 4278190080
-0.196289 0.137695 0.627397 4278190080
-0.19053701 0.120117 0.631836 4278190080
-0.19043 0.120117 0.632007 4278190080
-0.18337201 0.149414 0.649414 4278190080
-0.18457 0.15352599 0.649414 4278190080
-0.107975 0.149414 0.649414 4278190080
-0.108398 0.15294801 0.649414 4278190080
-0.169017 0.137695 0.66699201 4278190080
-0.16699199 0.137695 0.66988498 4278190080
-0.101335 0.137695 0.66699201 4278190080
-0.19183201 0.131836 0.631836 4278190080
-0.19043 0.131836 0.63345802 4278190080
-0.175281 0.143555 0.66113299 4278190080
-0.17285199 0.143555 0.665308 4278190080
-0.103149 0.143555 0.66113299 4278190080
-0.102539 0.143555 0.66237003 4278190080
-0.19895899 0.149414 0.62597698 4278190080
-0.196289 0.149414 0.63104302 4278190080
-0.171846 0.12597699 0.66113299 4278190080
-0.104046 0.12597699 0.66113299 4278190080
-0.102539 0.12597699 0.66342998 4278190080
-0.16522799 0.131836 0.67285198 4278190080
-0.097708203 0.131836 0.67285198 4278190080
-0.096679702 0.131836 0.674568 4278190080
-0.16140901 0.120117 0.67285198 4278190080
-0.16113301 0.120117 0.67323899 4278190080
-0.0961169 0.120117 0.67285198 4278190080
-0.096679702 0.123882 0.67285198 4278190080
-0.193976 0.143555 0.631836 4278190080
-0.19043 0.143555 0.636832 4278190080
-0.186095 0.12597699 0.63769501 4278190080
-0.193491 0.137695 0.631836 4278190080
-0.19043 0.137695 0.63572299 4278190080
-0.179766 0.149414 0.65527302 4278190080
-0.178711 0.149414 0.65684599 4278190080
-0.105384 0.149414 0.65527302 4278190080
-0.18606 0.120117 0.63769501 4278190080
-0.16469701 0.137695 0.67285198 4278190080
-0.098063603 0.137695 0.67285198 4278190080
-0.096679702 0.137695 0.67519802 4278190080
-0.171128 0.143555 0.66699201 4278190080
-0.16699199 0.143555 0.672225 4278190080
-0.100477 0.143555 0.66699201 4278190080
-0.187337 0.131836 0.63769501 4278190080
-0.167688 0.12597699 0.66699201 4278190080
-0.16699199 0.12597699 0.66787797 4278190080
-0.100321 0.12597699 0.66699201 4278190080
-0.195751 0.149414 0.631836 4278190080
-0.196289 0.15414301 0.631836 4278190080
-0.16119 0.131836 0.678711 4278190080
-0.16113301 0.131836 0.67877603 4278190080
-0.094180703 0.131836 0.678711 4278190080
-0.157931 0.120117 0.678711 4278190080
-0.15527301 0.120117 0.682441 4278190080
-0.092672497 0.120117 0.678711 4278190080
-0.090820298 0.120117 0.681795 4278190080
-0.18978 0.143555 0.63769501 4278190080
-0.19043 0.14542 0.63769501 4278190080
-0.17591301 0.149414 0.66113299 4278190080
-0.17285199 0.149414 0.66619903 4278190080
-0.102704 0.149414 0.66113299 4278190080
-0.102539 0.149414 0.66148901 4278190080
-0.16183101 0.137695 0.678711 4278190080
-0.16113301 0.137695 0.67954302 4278190080
-0.094656602 0.137695 0.678711 4278190080
-0.189068 0.137695 0.63769501 4278190080
-0.16656201 0.143555 0.67285198 4278190080
-0.16699199 0.14452299 0.67285198 4278190080
-0.097705498 0.143555 0.67285198 4278190080
-0.096679702 0.143555 0.67521203 4278190080
-0.16295899 0.12597699 0.67285198 4278190080
-0.16113301 0.12597699 0.67600799 4278190080
-0.096976303 0.12597699 0.67285198 4278190080
-0.096679702 0.12597699 0.67337 4278190080
-0.184806 0.131836 0.64355499 4278190080
-0.153763 0.120117 0.68457001 4278190080
-0.0890994 0.120117 0.68457001 4278190080
-0.191505 0.149414 0.63769501 4278190080
-0.19043 0.149414 0.63934398 4278190080
-0.15669701 0.131836 0.68457001 4278190080
-0.15527301 0.131836 0.68639398 4278190080
-0.090834998 0.131836 0.68457001 4278190080
-0.090820298 0.131836 0.68459499 4278190080
-0.172309 0.149414 0.66699201 4278190080
-0.17285199 0.151509 0.66699201 4278190080
-0.100213 0.149414 0.66699201 4278190080
-0.18656901 0.143555 0.64355499 4278190080
-0.15777899 0.137695 0.68457001 4278190080
-0.15527301 0.137695 0.68809903 4278190080
-0.0913454 0.137695 0.68457001 4278190080
-0.090820298 0.137695 0.68544501 4278190080
-0.18544701 0.137695 0.64355499 4278190080
-0.1629 0.143555 0.678711 4278190080
-0.16113301 0.143555 0.68112499 4278190080
-0.095123798 0.143555 0.678711 4278190080
-0.159548 0.12597699 0.678711 4278190080
-0.16113301 0.131622 0.678711 4278190080
-0.15527301 0.12597699 0.68360502 4278190080
-0.093318298 0.12597699 0.678711 4278190080
-0.090820298 0.12597699 0.68305999 4278190080
-0.149829 0.120117 0.69042999 4278190080
-0.149414 0.120117 0.69093198 4278190080
-0.085455798 0.120117 0.69042999 4278190080
-0.0849609 0.120117 0.69126803 4278190080
-0.15229601 0.131836 0.69042999 4278190080
-0.149414 0.131836 0.69533497 4278190080
-0.087154597 0.131836 0.69042999 4278190080
-0.0849609 0.131836 0.69383699 4278190080
-0.18723901 0.149414 0.64355499 4278190080
-0.16863599 0.149414 0.67285198 4278190080
-0.16699199 0.149414 0.67501903 4278190080
-0.097608797 0.149414 0.67285198 4278190080
-0.096679702 0.149414 0.674977 4278190080
-0.153467 0.137695 0.69042999 4278190080
-0.087982997 0.137695 0.69042999 4278190080
-0.0849609 0.137695 0.69519001 4278190080
-0.158659 0.143555 0.68457001 4278190080
-0.15527301 0.143555 0.68986899 4278190080
-0.092215203 0.143555 0.68457001 4278190080
-0.090820298 0.143555 0.68712902 4278190080
-0.15453701 0.12597699 0.68457001 4278190080
-0.15527301 0.12789699 0.68457001 4278190080
-0.089982502 0.12597699 0.68457001 4278190080
-0.090820298 0.131734 0.68457001 4278190080
-0.14630499 0.120117 0.696289 4278190080
-0.143555 0.120117 0.70032001 4278190080
-0.082304999 0.120117 0.696289 4278190080
-0.1487 0.131836 0.696289 4278190080
-0.149414 0.133525 0.696289 4278190080
-0.083747298 0.131836 0.696289 4278190080
-0.16449 0.149414 0.678711 4278190080
-0.16113301 0.149414 0.68332601 4278190080
-0.094879203 0.149414 0.678711 4278190080
-0.150894 0.137695 0.696289 4278190080
-0.149414 0.137695 0.69793499 4278190080
-0.084418297 0.137695 0.696289 4278190080
-0.0849609 0.142148 0.696289 4278190080
-0.154855 0.143555 0.69042999 4278190080
-0.15527301 0.14610501 0.69042999 4278190080
-0.088770598 0.143555 0.69042999 4278190080
-0.151043 0.12597699 0.69042999 4278190080
-0.149414 0.12597699 0.69261801 4278190080
-0.086451598 0.12597699 0.69042999 4278190080
-0.0849609 0.12597699 0.69284898 4278190080
-0.14225 0.120117 0.70214802 4278190080
-0.079482198 0.120117 0.70214802 4278190080
-0.0791016 0.120117 0.70289499 4278190080
-0.15991899 0.149414 0.68457001 4278190080
-0.16113301 0.153722 0.68457001 4278190080
-0.092427298 0.149414 0.68457001 4278190080
-0.090820298 0.149414 0.68803298 4278190080
-0.14396299 0.131836 0.70214802 4278190080
-0.143555 0.131836 0.70274299 4278190080
-0.081281498 0.131836 0.70214802 4278190080
-0.14574701 0.137695 0.70214802 4278190080
-0.143555 0.137695 0.70519298 4278190080
-0.081696503 0.137695 0.70214802 4278190080
-0.151595 0.143555 0.696289 4278190080
-0.149414 0.143555 0.69913602 4278190080
-0.085165396 0.143555 0.696289 4278190080
-0.0849609 0.143555 0.69663399 4278190080
-0.14743701 0.12597699 0.696289 4278190080
-0.143555 0.12597699 0.70076299 4278190080
-0.083226599 0.12597699 0.696289 4278190080
-0.138135 0.120117 0.70800799 4278190080
-0.137695 0.120117 0.70872402 4278190080
-0.077568799 0.120117 0.70800799 4278190080
-0.13979 0.131836 0.70800799 4278190080
-0.137695 0.131836 0.71115297 4278190080
-0.079277597 0.131836 0.70800799 4278190080
-0.0791016 0.131836 0.70854098 4278190080
-0.155889 0.149414 0.69042999 4278190080
-0.15527301 0.149414 0.69140899 4278190080
-0.089350797 0.149414 0.69042999 4278190080
-0.14748999 0.143555 0.70214802 4278190080
-0.143555 0.143555 0.70650601 4278190080
-0.082392298 0.143555 0.70214802 4278190080
-0.14132001 0.137695 0.70800799 4278190080
-0.137695 0.137695 0.71383601 4278190080
-0.080115698 0.137695 0.70800799 4278190080
-0.0791016 0.137695 0.71067297 4278190080
-0.142378 0.12597699 0.70214802 4278190080
-0.143555 0.130613 0.70214802 4278190080
-0.080685601 0.12597699 0.70214802 4278190080
-0.0791016 0.12597699 0.70742202 4278190080
-0.134409 0.120117 0.71386701 4278190080
-0.131836 0.120117 0.718988 4278190080
-0.076222099 0.120117 0.71386701 4278190080
-0.1364 0.131836 0.71386701 4278190080
-0.077633902 0.131836 0.71386701 4278190080
-0.152742 0.149414 0.696289 4278190080
-0.149414 0.149414 0.70026898 4278190080
-0.085554503 0.149414 0.696289 4278190080
-0.0849609 0.149414 0.69733602 4278190080
-0.137674 0.137695 0.71386701 4278190080
-0.137695 0.137777 0.71386701 4278190080
-0.078102201 0.137695 0.71386701 4278190080
-0.14242201 0.143555 0.70800799 4278190080
-0.143555 0.149059 0.70800799 4278190080
-0.0802029 0.143555 0.70800799 4278190080
-0.0791016 0.143555 0.71042901 4278190080
-0.131484 0.120117 0.71972698 4278190080
-0.131836 0.124164 0.71972698 4278190080
-0.074465498 0.120117 0.71972698 4278190080
-0.073242202 0.120117 0.72403997 4278190080
-0.13799401 0.12597699 0.70800799 4278190080
-0.137695 0.12597699 0.70847797 4278190080
-0.078965798 0.12597699 0.70800799 4278190080
-0.0791016 0.128684 0.70800799 4278190080
-0.148021 0.149414 0.70214802 4278190080
-0.149414 0.153283 0.70214802 4278190080
-0.083186001 0.149414 0.70214802 4278190080
-0.139483 0.143555 0.71386701 4278190080
-0.137695 0.143555 0.71696901 4278190080
-0.0780835 0.143555 0.71386701 4278190080
-0.0791016 0.148093 0.71386701 4278190080
-0.13285799 0.131836 0.71972698 4278190080
-0.131836 0.131836 0.72170299 4278190080
-0.075957701 0.131836 0.71972698 4278190080
-0.135171 0.12597699 0.71386701 4278190080
-0.077348098 0.12597699 0.71386701 4278190080
-0.128033 0.120117 0.725586 4278190080
-0.12597699 0.120117 0.73038298 4278190080
-0.072785497 0.120117 0.725586 4278190080
-0.073242202 0.124052 0.725586 4278190080
-0.134249 0.137695 0.71972698 4278190080
-0.131836 0.137695 0.724163 4278190080
-0.0765628 0.137695 0.71972698 4278190080
-0.143702 0.149414 0.70800799 4278190080
-0.143555 0.149414 0.70820701 4278190080
-0.080941401 0.149414 0.70800799 4278190080
-0.136392 0.143555 0.71972698 4278190080
-0.076952003 0.143555 0.71972698 4278190080
-0.131999 0.12597699 0.71972698 4278190080
-0.131836 0.12597699 0.72020799 4278190080
-0.075278901 0.12597699 0.71972698 4278190080
-0.125457 0.120117 0.73144501 4278190080
-0.12597699 0.12235 0.73144501 4278190080
-0.071013004 0.120117 0.73144501 4278190080
-0.129921 0.131836 0.725586 4278190080
-0.0741698 0.131836 0.725586 4278190080
-0.073242202 0.131836 0.72824502 4278190080
-0.131127 0.137695 0.725586 4278190080
-0.131836 0.14025301 0.725586 4278190080
-0.074745104 0.137695 0.725586 4278190080
-0.073242202 0.137695 0.73013401 4278190080
-0.140701 0.149414 0.71386701 4278190080
-0.137695 0.149414 0.71919 4278190080
-0.079467803 0.149414 0.71386701 4278190080
-0.0791016 0.149414 0.714912 4278190080
-0.132778 0.143555 0.725586 4278190080
-0.131836 0.143555 0.72695899 4278190080
-0.075422898 0.143555 0.725586 4278190080
-0.12959599 0.12597699 0.725586 4278190080
-0.073485397 0.12597699 0.725586 4278190080
-0.073242202 0.12597699 0.72627199 4278190080
-0.122569 0.120117 0.73730499 4278190080
-0.120117 0.120117 0.74251699 4278190080
-0.068891302 0.120117 0.73730499 4278190080
-0.067382798 0.120117 0.74167901 4278190080
-0.13738599 0.149414 0.71972698 4278190080
-0.077682003 0.149414 0.71972698 4278190080
-0.0791016 0.155209 0.71972698 4278190080
-0.126948 0.131836 0.73144501 4278190080
-0.12597699 0.131836 0.73343098 4278190080
-0.071988598 0.131836 0.73144501 4278190080
-0.129086 0.143555 0.73144501 4278190080
-0.12597699 0.143555 0.73717397 4278190080
-0.0735633 0.143555 0.73144501 4278190080
-0.073242202 0.143555 0.73287702 4278190080
-0.128213 0.137695 0.73144501 4278190080
-0.12597699 0.137695 0.73573601 4278190080
-0.072779998 0.137695 0.73144501 4278190080
-0.073242202 0.141001 0.73144501 4278190080
-0.126665 0.12597699 0.73144501 4278190080
-0.12597699 0.12597699 0.73277903 4278190080
-0.071469098 0.12597699 0.73144501 4278190080
-0.119823 0.120117 0.743164 4278190080
-0.120117 0.121456 0.743164 4278190080
-0.066796802 0.120117 0.743164 4278190080
-0.133494 0.149414 0.725586 4278190080
-0.131836 0.149414 0.72864002 4278190080
-0.076251604 0.149414 0.725586 4278190080
-0.125898 0.143555 0.73730499 4278190080
-0.12597699 0.143942 0.73730499 4278190080
-0.072081096 0.143555 0.73730499 4278190080
-0.124102 0.131836 0.73730499 4278190080
-0.070002198 0.131836 0.73730499 4278190080
-0.123396 0.12597699 0.73730499 4278190080
-0.069466896 0.12597699 0.73730499 4278190080
-0.067382798 0.12597699 0.742266 4278190080
-0.119139 0.120117 0.74902302 4278190080
-0.065032102 0.120117 0.74902302 4278190080
-0.125044 0.137695 0.73730499 4278190080
-0.070545398 0.137695 0.73730499 4278190080
-0.13032299 0.149414 0.73144501 4278190080
-0.074316502 0.149414 0.73144501 4278190080
-0.073242202 0.149414 0.73528898 4278190080
-0.295973 0.16699199 0.50292999 4278190080
-0.29589799 0.16699199 0.50310701 4278190080
-0.223555 0.16699199 0.50292999 4278190080
-0.21972699 0.16699199 0.50547099 4278190080
-0.29528499 0.15527301 0.50292999 4278190080
-0.29589799 0.158733 0.50292999 4278190080
-0.290039 0.15527301 0.508726 4278190080
-0.21986 0.15527301 0.50292999 4278190080
-0.21972699 0.15527301 0.50301498 4278190080
-0.21386699 0.15527301 0.50798303 4278190080
-0.29826999 0.178711 0.50292999 4278190080
-0.227393 0.178711 0.50292999 4278190080
-0.225586 0.178711 0.50397599 4278190080
-0.21972699 0.178711 0.50836301 4278190080
-0.12323 0.143555 0.743164 4278190080
-0.070007697 0.143555 0.743164 4278190080
-0.29617801 0.16113301 0.50292999 4278190080
-0.29589799 0.16113301 0.50358099 4278190080
-0.221836 0.16113301 0.50292999 4278190080
-0.21972699 0.16113301 0.50432801 4278190080
-0.29813999 0.18457 0.50292999 4278190080
-0.22917099 0.18457 0.50292999 4278190080
-0.225586 0.18457 0.50521201 4278190080
-0.121176 0.12597699 0.743164 4278190080
-0.120117 0.12597699 0.747078 4278190080
-0.067061901 0.12597699 0.743164 4278190080
-0.067382798 0.12766799 0.743164 4278190080
-0.29769799 0.17285199 0.50292999 4278190080
-0.29589799 0.17285199 0.50833499 4278190080
-0.225226 0.17285199 0.50292999 4278190080
-0.225586 0.173906 0.50292999 4278190080
-0.21972699 0.17285199 0.50670099 4278190080
-0.118925 0.120117 0.75488299 4278190080
-0.062826902 0.120117 0.75488299 4278190080
-0.0615234 0.120117 0.75942099 4278190080
-0.121414 0.131836 0.743164 4278190080
-0.120117 0.131836 0.74756902 4278190080
-0.068287402 0.131836 0.743164 4278190080
-0.067382798 0.131836 0.745736 4278190080
-0.12715299 0.149414 0.73730499 4278190080
-0.12597699 0.149414 0.73963201 4278190080
-0.072636098 0.149414 0.73730499 4278190080
-0.073242202 0.152197 0.73730499 4278190080
-0.121907 0.137695 0.743164 4278190080
-0.120117 0.137695 0.74839699 4278190080
-0.068721801 0.137695 0.743164 4278190080
-0.067382798 0.137695 0.74664301 4278190080
-0.120236 0.143555 0.74902302 4278190080
-0.120117 0.143555 0.75159401 4278190080
-0.067988902 0.143555 0.74902302 4278190080
-0.067382798 0.143555 0.75121403 4278190080
-0.29679501 0.178711 0.508789 4278190080
-0.29589799 0.178711 0.510773 4278190080
-0.219239 0.178711 0.508789 4278190080
-0.21972699 0.180841 0.508789 4278190080
-0.21386699 0.178711 0.51316297 4278190080
-0.119521 0.12597699 0.74902302 4278190080
-0.06538 0.12597699 0.74902302 4278190080
-0.118242 0.120117 0.76074201 4278190080
-0.061243702 0.120117 0.76074201 4278190080
-0.0615234 0.124797 0.76074201 4278190080
-0.29275799 0.16113301 0.508789 4278190080
-0.290039 0.16113301 0.51189101 4278190080
-0.21469399 0.16113301 0.508789 4278190080
-0.21386699 0.16113301 0.50959498 4278190080
-0.28999501 0.15527301 0.508789 4278190080
-0.290039 0.155384 0.508789 4278190080
-0.213172 0.15527301 0.508789 4278190080
-0.21386699 0.15831 0.508789 4278190080
-0.29806501 0.18457 0.508789 4278190080
-0.29589799 0.18457 0.51377797 4278190080
-0.22077499 0.18457 0.508789 4278190080
-0.21972699 0.18457 0.50951999 4278190080
-0.21386699 0.18457 0.51447999 4278190080
-0.29307401 0.16699199 0.508789 4278190080
-0.216093 0.16699199 0.508789 4278190080
-0.21386699 0.16699199 0.51083201 4278190080
-0.119681 0.131836 0.74902302 4278190080
-0.066204801 0.131836 0.74902302 4278190080
-0.124026 0.149414 0.743164 4278190080
-0.070796102 0.149414 0.743164 4278190080
-0.295605 0.17285199 0.508789 4278190080
-0.29589799 0.17397401 0.508789 4278190080
-0.217408 0.17285199 0.508789 4278190080
-0.21386699 0.17285199 0.512043 4278190080
-0.119975 0.143555 0.75488299 4278190080
-0.120117 0.145244 0.75488299 4278190080
-0.066056699 0.143555 0.75488299 4278190080
-0.119098 0.12597699 0.75488299 4278190080
-0.063283399 0.12597699 0.75488299 4278190080
-0.119877 0.137695 0.74902302 4278190080
-0.120117 0.14183 0.74902302 4278190080
-0.066481598 0.137695 0.74902302 4278190080
-0.067382798 0.141302 0.74902302 4278190080
-0.118015 0.120117 0.76660198 4278190080
