# .PCD v0.7 - Point Cloud Data file format
VERSION 0.7
FIELDS x y z rgb
SIZE 4 4 4 4
TYPE F F F U
COUNT 1 1 1 1
WIDTH 1115
HEIGHT 1
VIEWPOINT 0 0 0 1 0 0 0
POINTS 1115
DATA ascii
0.196289 0.020507799 0.85035902 4278190080
0.20214801 0.020507799 0.84951401 4278190080
0.20800801 0.020507799 0.85224098 4278190080
-0.076473497 0.026367201 0.883789 4278190080
-0.0615234 0.0287374 0.883789 4278190080
-0.0556641 0.0291263 0.883789 4278190080
-0.049804699 0.029767299 0.883789 4278190080
-0.043945301 0.030837299 0.883789 4278190080
-0.0380859 0.0305927 0.883789 4278190080
0.0419074 0.020507799 0.73730499 4278190080
0.112089 0.020507799 0.73730499 4278190080
0.114258 0.020507799 0.74056298 4278190080
-0.0063710199 0.0380859 0.90722698 4278190080
0.191771 0.0146484 0.84277302 4278190080
0.19043 0.0146484 0.84377497 4278190080
0.199674 0.0146484 0.84277302 4278190080
0.196289 0.0160142 0.84277302 4278190080
0.20214801 0.0146484 0.844033 4278190080
0.20800801 0.0146484 0.84799498 4278190080
0.21386699 0.0380859 0.87131 4278190080
0.040431298 0.026367201 0.743164 4278190080
0.0380859 0.0291541 0.743164 4278190080
0.112542 0.026367201 0.743164 4278190080
0.114258 0.026367201 0.74709302 4278190080
0.11131 0.043945301 0.743164 4278190080
0.114258 0.043945301 0.74890798 4278190080
0.042969599 0.0146484 0.73144501 4278190080
0.112567 0.0146484 0.73144501 4278190080
0.114258 0.0146484 0.733136 4278190080
0.20800801 0.0322266 0.863428 4278190080
0.21386699 0.0322266 0.86565799 4278190080
0.110385 0.0380859 0.743164 4278190080
-0.13101999 0.0146484 0.88964802 4278190080
-0.131836 0.0146484 0.89059699 4278190080
-0.114258 0.0180618 0.88964802 4278190080
-0.108398 0.0188745 0.88964802 4278190080
-0.102539 0.0201697 0.88964802 4278190080
-0.042982601 0.0322266 0.89550799 4278190080
-0.0322266 0.0346421 0.89550799 4278190080
-0.026367201 0.035209399 0.89550799 4278190080
-0.020507799 0.035716701 0.89550799 4278190080
0.111402 0.0322266 0.743164 4278190080
-0.102019 0.020507799 0.88964802 4278190080
-0.096679702 0.022833699 0.88964802 4278190080
-0.096679702 0.020507799 0.892335 4278190080
-0.090820298 0.023042301 0.88964802 4278190080
-0.090820298 0.020507799 0.89297199 4278190080
-0.0849609 0.0236044 0.88964802 4278190080
-0.0849609 0.020507799 0.89544702 4278190080
-0.0791016 0.024940001 0.88964802 4278190080
0.21386699 0.043945301 0.87905002 4278190080
0.21972699 0.043945301 0.87923598 4278190080
0.225586 0.043945301 0.88154298 4278190080
-0.075599603 0.026367201 0.88964802 4278190080
-0.073242202 0.026367201 0.89114898 4278190080
-0.0615234 0.0293297 0.88964802 4278190080
-0.0556641 0.0296662 0.88964802 4278190080
-0.049804699 0.0304124 0.88964802 4278190080
0.195281 0.020507799 0.85449201 4278190080
0.196289 0.021490701 0.85449201 4278190080
0.20214801 0.025450001 0.85449201 4278190080
0.211097 0.020507799 0.85449201 4278190080
0.20800801 0.0232697 0.85449201 4278190080
0.21386699 0.020507799 0.856408 4278190080
0.21972699 0.020507799 0.86020899 4278190080
0.20214801 0.026367201 0.85559398 4278190080
0.20800801 0.026367201 0.85699302 4278190080
0.041484199 0.020507799 0.743164 4278190080
0.115087 0.020507799 0.743164 4278190080
0.114258 0.0231594 0.743164 4278190080
0.114258 0.044605501 0.74902302 4278190080
0.042411 0.0146484 0.73730499 4278190080
0.115402 0.0146484 0.73730499 4278190080
0.114258 0.0176939 0.73730499 4278190080
0.211143 0.0380859 0.87207001 4278190080
0.20800801 0.0380859 0.87331098 4278190080
0.215692 0.0380859 0.87207001 4278190080
0.21386699 0.038697001 0.87207001 4278190080
0.21972699 0.0380859 0.873564 4278190080
0.225586 0.0380859 0.87738502 4278190080
0.0400263 0.026367201 0.74902302 4278190080
0.0380859 0.0290424 0.74902302 4278190080
0.11471 0.026367201 0.74902302 4278190080
0.114258 0.028147699 0.74902302 4278190080
0.19043 0.0155364 0.84863299 4278190080
0.196289 0.019857399 0.84863299 4278190080
0.20214801 0.0195799 0.84863299 4278190080
0.208905 0.0146484 0.84863299 4278190080
0.20800801 0.0155371 0.84863299 4278190080
0.21386699 0.0146484 0.852157 4278190080
0.0322266 0.0380859 0.754484 4278190080
0.112151 0.0380859 0.74902302 4278190080
0.114258 0.043820702 0.74902302 4278190080
0.205328 0.0322266 0.866211 4278190080
0.20800801 0.034107201 0.866211 4278190080
0.21471301 0.0322266 0.866211 4278190080
0.21386699 0.032830499 0.866211 4278190080
0.21972699 0.0322266 0.86909699 4278190080
-0.040646002 0.0322266 0.90136701 4278190080
-0.0380859 0.0322266 0.903615 4278190080
-0.026367201 0.035432201 0.90136701 4278190080
-0.020507799 0.035967 0.90136701 4278190080
-0.020507799 0.0322266 0.907107 4278190080
0.112707 0.0322266 0.74902302 4278190080
0.114258 0.0322266 0.75378299 4278190080
-0.0848682 0.020507799 0.89550799 4278190080
-0.0791016 0.023386201 0.89550799 4278190080
-0.073242202 0.0237027 0.89550799 4278190080
-0.069038697 0.026367201 0.89550799 4278190080
-0.067382798 0.026367201 0.897313 4278190080
-0.0556641 0.029650699 0.89550799 4278190080
-0.0556641 0.026367201 0.90129602 4278190080
-0.049804699 0.030556099 0.89550799 4278190080
-0.043945301 0.031779502 0.89550799 4278190080
0.20999999 0.043945301 0.883789 4278190080
0.20800801 0.043945301 0.88666999 4278190080
0.21386699 0.0466501 0.883789 4278190080
0.21972699 0.048396502 0.883789 4278190080
0.228938 0.043945301 0.883789 4278190080
0.225586 0.046417601 0.883789 4278190080
0.231445 0.043945301 0.88539702 4278190080
0.193817 0.020507799 0.86035198 4278190080
0.196289 0.022651101 0.86035198 4278190080
0.21386699 0.0261588 0.86035198 4278190080
0.21994001 0.020507799 0.86035198 4278190080
0.21972699 0.020695399 0.86035198 4278190080
0.225586 0.020507799 0.86408103 4278190080
0.0410087 0.020507799 0.74902302 4278190080
0.116255 0.020507799 0.74902302 4278190080
0.20026299 0.026367201 0.86035198 4278190080
0.20214801 0.0284261 0.86035198 4278190080
0.213614 0.026367201 0.86035198 4278190080
0.20800801 0.0295134 0.86035198 4278190080
0.21386699 0.026367201 0.86049598 4278190080
0.21972699 0.026367201 0.86470503 4278190080
0.040050302 0.026367201 0.75488299 4278190080
0.0380859 0.029064501 0.75488299 4278190080
0.116053 0.026367201 0.75488299 4278190080
0.042159799 0.0146484 0.743164 4278190080
0.11685 0.0146484 0.743164 4278190080
0.19043 0.0162332 0.85449201 4278190080
0.21756899 0.0146484 0.85449201 4278190080
0.21386699 0.01781 0.85449201 4278190080
0.21972699 0.0146484 0.85585397 4278190080
0.225586 0.0146484 0.85932201 4278190080
0.20617101 0.0380859 0.87792999 4278190080
0.20800801 0.0399758 0.87792999 4278190080
0.21386699 0.043093901 0.87792999 4278190080
0.21972699 0.0426341 0.87792999 4278190080
0.226372 0.0380859 0.87792999 4278190080
0.225586 0.0388542 0.87792999 4278190080
0.231445 0.0380859 0.881464 4278190080
0.0323129 0.0380859 0.75488299 4278190080
0.0322266 0.0381759 0.75488299 4278190080
0.113423 0.0380859 0.75488299 4278190080
0.114258 0.039774399 0.75488299 4278190080
0.114258 0.0380859 0.75982499 4278190080
0.202262 0.0322266 0.87207001 4278190080
0.20214801 0.0322266 0.87228298 4278190080
0.20800801 0.037545402 0.87207001 4278190080
0.22391701 0.0322266 0.87207001 4278190080
0.21972699 0.036212601 0.87207001 4278190080
0.225586 0.0322266 0.87326699 4278190080
0.231445 0.0322266 0.87729597 4278190080
0.1145 0.0322266 0.75488299 4278190080
0.114258 0.0339396 0.75488299 4278190080
-0.0556641 0.0263025 0.90136701 4278190080
-0.020613899 0.0322266 0.90722698 4278190080
-0.0203606 0.0322266 0.90722698 4278190080
-0.0087890597 0.0355976 0.90722698 4278190080
-0.055532601 0.026367201 0.90136701 4278190080
-0.043945301 0.029556399 0.90136701 4278190080
0.19043 0.043945301 0.89151299 4278190080
0.196289 0.043945301 0.89175498 4278190080
0.204404 0.043945301 0.88964802 4278190080
0.20214801 0.043945301 0.89141202 4278190080
0.20800801 0.045908902 0.88964802 4278190080
0.21386699 0.049657501 0.88964802 4278190080
0.237128 0.043945301 0.88964802 4278190080
0.231445 0.049320798 0.88964802 4278190080
0.237305 0.043945301 0.88978499 4278190080
0.243164 0.043945301 0.89210302 4278190080
0.24902301 0.043945301 0.89224499 4278190080
0.25488299 0.043945301 0.89387798 4278190080
0.040791199 0.020507799 0.75488299 4278190080
0.117256 0.020507799 0.75488299 4278190080
0.19235399 0.020507799 0.866211 4278190080
0.19043 0.020507799 0.87120998 4278190080
0.196289 0.0244672 0.866211 4278190080
0.22854701 0.020507799 0.866211 4278190080
0.225586 0.0232215 0.866211 4278190080
0.231445 0.020507799 0.86833102 4278190080
0.237305 0.020507799 0.871674 4278190080
0.198312 0.026367201 0.866211 4278190080
0.20214801 0.030548699 0.866211 4278190080
0.221918 0.026367201 0.866211 4278190080
0.21972699 0.0283028 0.866211 4278190080
0.225586 0.026367201 0.86873299 4278190080
0.041851599 0.0146484 0.74902302 4278190080
0.11852 0.0146484 0.74902302 4278190080
0.039960299 0.026367201 0.76074201 4278190080
0.0380859 0.029481599 0.76074201 4278190080
0.117071 0.026367201 0.76074201 4278190080
0.19043 0.017496901 0.86035198 4278190080
0.227551 0.0146484 0.86035198 4278190080
0.225586 0.015864 0.86035198 4278190080
0.231445 0.0146484 0.86242598 4278190080
0.237305 0.0146484 0.86527097 4278190080
0.26074201 0.0146484 0.86134702 4278190080
0.26660201 0.0146484 0.86491901 4278190080
0.19043 0.0380859 0.88817799 4278190080
0.196289 0.0380859 0.88863999 4278190080
0.203298 0.0380859 0.883789 4278190080
0.20214801 0.0380859 0.88566601 4278190080
0.20800801 0.0424731 0.883789 4278190080
0.23491099 0.0380859 0.883789 4278190080
0.231445 0.041481402 0.883789 4278190080
0.237305 0.0380859 0.88534403 4278190080
0.243164 0.0380859 0.88831598 4278190080
0.24902301 0.0380859 0.88907897 4278190080
0.25488299 0.0380859 0.88829398 4278190080
0.032922398 0.0380859 0.76074201 4278190080
0.0322266 0.038792498 0.76074201 4278190080
0.114368 0.0380859 0.76074201 4278190080
0.115405 0.0322266 0.76074201 4278190080
0.199444 0.0322266 0.87792999 4278190080
0.196289 0.0322266 0.88372898 4278190080
0.20214801 0.034501601 0.87792999 4278190080
0.232511 0.0322266 0.87792999 4278190080
0.231445 0.033140101 0.87792999 4278190080
0.237305 0.0322266 0.88085699 4278190080
-0.020507799 0.032123201 0.90722698 4278190080
0.040670399 0.020507799 0.76074201 4278190080
0.119116 0.020507799 0.76074201 4278190080
0.196289 0.049160801 0.89550799 4278190080
0.20214801 0.0487785 0.89550799 4278190080
0.243164 0.049124699 0.89550799 4278190080
0.24902301 0.049608599 0.89550799 4278190080
0.19043 0.021017 0.87207001 4278190080
0.196289 0.026207 0.87207001 4278190080
0.231445 0.025242001 0.87207001 4278190080
0.23793501 0.020507799 0.87207001 4278190080
0.237305 0.0210115 0.87207001 4278190080
0.243164 0.020507799 0.87557 4278190080
0.26074201 0.020507799 0.87533897 4278190080
0.0416619 0.0146484 0.75488299 4278190080
0.119754 0.0146484 0.75488299 4278190080
0.120117 0.0146484 0.75670499 4278190080
0.040824499 0.026367201 0.76660198 4278190080
0.0380859 0.0309048 0.76660198 4278190080
0.117501 0.026367201 0.76660198 4278190080
0.114258 0.026367201 0.77236301 4278190080
0.196444 0.026367201 0.87207001 4278190080
0.196289 0.026367201 0.872482 4278190080
0.20214801 0.032152399 0.87207001 4278190080
0.23020899 0.026367201 0.87207001 4278190080
0.225586 0.0306278 0.87207001 4278190080
0.231445 0.026367201 0.87295198 4278190080
0.237305 0.026367201 0.87660903 4278190080
0.11644 0.0322266 0.76660198 4278190080
0.114258 0.0322266 0.76912898 4278190080
0.19043 0.040608902 0.88964802 4278190080
0.196289 0.039889801 0.88964802 4278190080
0.20214801 0.042215101 0.88964802 4278190080
0.237305 0.043768398 0.88964802 4278190080
0.243164 0.040216301 0.88964802 4278190080
0.24902301 0.039140798 0.88964802 4278190080
0.25488299 0.039060701 0.88964802 4278190080
0.033907801 0.0380859 0.76660198 4278190080
0.0322266 0.039834499 0.76660198 4278190080
0.115351 0.0380859 0.76660198 4278190080
0.114258 0.0380859 0.76843399 4278190080
0.19043 0.018861299 0.866211 4278190080
0.231445 0.018332699 0.866211 4278190080
0.23886099 0.0146484 0.866211 4278190080
0.237305 0.015505 0.866211 4278190080
0.243164 0.0146484 0.86866802 4278190080
0.24902301 0.0146484 0.87007999 4278190080
0.255142 0.0146484 0.866211 4278190080
0.25488299 0.0146484 0.866606 4278190080
0.26697499 0.0146484 0.866211 4278190080
0.272461 0.0146484 0.86978799 4278190080
0.195832 0.0322266 0.883789 4278190080
0.19043 0.0322266 0.88442498 4278190080
0.196289 0.032297701 0.883789 4278190080
0.20214801 0.0369955 0.883789 4278190080
0.242828 0.0322266 0.883789 4278190080
0.237305 0.036015 0.883789 4278190080
0.243164 0.0322266 0.88397503 4278190080
0.24902301 0.0322266 0.88575298 4278190080
0.25488299 0.0322266 0.88594902 4278190080
0.26074201 0.0322266 0.88756198 4278190080
0.041488402 0.020507799 0.76660198 4278190080
0.043945301 0.020507799 0.76993698 4278190080
0.118674 0.020507799 0.76660198 4278190080
0.042063799 0.0146484 0.76074201 4278190080
0.043945301 0.0146484 0.76302302 4278190080
0.120733 0.0146484 0.76074201 4278190080
0.120117 0.017158199 0.76074201 4278190080
0.120117 0.0146484 0.76145297 4278190080
0.19043 0.024160599 0.87792999 4278190080
0.24814899 0.020507799 0.87792999 4278190080
0.243164 0.023605701 0.87792999 4278190080
0.24902301 0.020507799 0.87835503 4278190080
0.25769401 0.020507799 0.87792999 4278190080
0.25488299 0.020507799 0.879471 4278190080
0.112376 0.0380859 0.772461 4278190080
0.114258 0.040980902 0.772461 4278190080
0.192743 0.026367201 0.87792999 4278190080
0.19043 0.026367201 0.88109601 4278190080
0.196289 0.0291471 0.87792999 4278190080
0.239547 0.026367201 0.87792999 4278190080
0.237305 0.028134201 0.87792999 4278190080
0.243164 0.026367201 0.88002503 4278190080
0.24902301 0.026367201 0.88208401 4278190080
0.25488299 0.026367201 0.88267303 4278190080
0.243164 0.0177029 0.87207001 4278190080
0.24902301 0.015932901 0.87207001 4278190080
0.25488299 0.01694 0.87207001 4278190080
0.26074201 0.019615799 0.87207001 4278190080
0.043945301 0.0225759 0.772461 4278190080
0.043945301 0.017513299 0.76660198 4278190080
0.24902301 0.0201975 0.87792999 4278190080
0.25488299 0.019736901 0.87792999 4278190080
0.19043 0.0310681 0.883789 4278190080
0.243164 0.031954899 0.883789 4278190080
0.24902301 0.029038301 0.883789 4278190080
0.25488299 0.028222101 0.883789 4278190080
0.26074201 0.028868699 0.883789 4278190080
0.0322266 0.046613298 0.86035198 4278190080
0.0322266 0.043945301 0.86183 4278190080
0.0288346 0.043945301 0.87207001 4278190080
0.0029296901 0.0322266 0.86320698 4278190080
0.0087890597 0.0322266 0.86615998 4278190080
0.0029296901 0.026367201 0.86238003 4278190080
0.0087890597 0.026367201 0.86447603 4278190080
0.0146484 0.026367201 0.86586702 4278190080
0.0322266 0.026367201 0.86610901 4278190080
0.0380859 0.026367201 0.86615199 4278190080
0.043945301 0.026367201 0.86085498 4278190080
0.026827799 0.043945301 0.87792999 4278190080
0.026367201 0.043945301 0.87979603 4278190080
0.0029296901 0.033351898 0.866211 4278190080
0.0089362897 0.0322266 0.866211 4278190080
0.0087890597 0.032249101 0.866211 4278190080
0.0146484 0.0322266 0.868182 4278190080
0.020507799 0.0322266 0.86893702 4278190080
0.026367201 0.0322266 0.86930901 4278190080
0.0322266 0.0322266 0.86919898 4278190080
0.0380859 0.0322266 0.86963999 4278190080
0.043945301 0.0322266 0.86886901 4278190080
0.018427599 0.026367201 0.866211 4278190080
0.0146484 0.027248399 0.866211 4278190080
0.020507799 0.026367201 0.86640197 4278190080
0.0308614 0.026367201 0.866211 4278190080
0.026367201 0.026367201 0.86654401 4278190080
0.0322266 0.0265595 0.866211 4278190080
0.0380859 0.026465699 0.866211 4278190080
0.043945301 0.0302529 0.866211 4278190080
0.020507799 0.0380859 0.87073302 4278190080
0.026367201 0.0380859 0.87003398 4278190080
0.0322266 0.041324101 0.866211 4278190080
0.0322266 0.0380859 0.87149799 4278190080
0.025776001 0.043945301 0.883789 4278190080
0.12597699 0.043945301 0.88802701 4278190080
0.131836 0.043945301 0.88784403 4278190080
0.137695 0.043945301 0.88727498 4278190080
0.143555 0.043945301 0.886998 4278190080
0.149414 0.043945301 0.88745397 4278190080
0.15527301 0.043945301 0.88824999 4278190080
0.16113301 0.043945301 0.88886702 4278190080
0.16699199 0.043945301 0.88919902 4278190080
0.17285199 0.043945301 0.88952601 4278190080
0.189198 0.0146484 0.84863299 4278190080
0.0029296901 0.035509299 0.87207001 4278190080
0.0087890597 0.034921601 0.87207001 4278190080
0.0146484 0.036426801 0.87207001 4278190080
0.0380859 0.035833001 0.87207001 4278190080
0.137695 0.026367201 0.87744802 4278190080
0.143555 0.026367201 0.876903 4278190080
0.149414 0.026367201 0.87724102 4278190080
0.15527301 0.026367201 0.87757599 4278190080
0.0029296901 0.020507799 0.86078 4278190080
0.0087890597 0.020507799 0.86178797 4278190080
0.0146484 0.020507799 0.86244798 4278190080
0.020507799 0.020507799 0.86311698 4278190080
0.026367201 0.020507799 0.86327899 4278190080
0.0322266 0.020507799 0.86311799 4278190080
0.0380859 0.020507799 0.86305702 4278190080
0.043945301 0.020507799 0.863159 4278190080
0.0087890597 0.0380859 0.87672001 4278190080
0.017545201 0.0380859 0.87207001 4278190080
0.0146484 0.0380859 0.87333798 4278190080
0.020507799 0.038386099 0.87207001 4278190080
0.026367201 0.039311599 0.87207001 4278190080
0.033909399 0.0380859 0.87207001 4278190080
0.0380859 0.039964899 0.87207001 4278190080
0.0380859 0.0380859 0.87327302 4278190080
0.025090599 0.043945301 0.88964802 4278190080
0.12597699 0.047982201 0.88964802 4278190080
0.131836 0.048068602 0.88964802 4278190080
0.137695 0.048824701 0.88964802 4278190080
0.143555 0.048573401 0.88964802 4278190080
0.149414 0.047726899 0.88964802 4278190080
0.15527301 0.046701401 0.88964802 4278190080
0.16113301 0.045448501 0.88964802 4278190080
0.16699199 0.0447166 0.88964802 4278190080
0.17367101 0.043945301 0.88964802 4278190080
0.17285199 0.044131901 0.88964802 4278190080
0.178711 0.043945301 0.89041698 4278190080
0.18457 0.043945301 0.89119297 4278190080
0.0029296901 0.0146484 0.85826999 4278190080
0.0087890597 0.0146484 0.85879201 4278190080
0.0146484 0.0146484 0.859191 4278190080
0.020507799 0.0146484 0.859456 4278190080
0.026367201 0.0146484 0.85978299 4278190080
0.0322266 0.0146484 0.85982502 4278190080
0.0380859 0.0146484 0.859519 4278190080
0.043945301 0.0146484 0.85953802 4278190080
0.18787301 0.0146484 0.85449201 4278190080
0.0029296901 0.0380366 0.87792999 4278190080
0.12597699 0.0322266 0.87978297 4278190080
0.131836 0.0322266 0.880786 4278190080
0.137695 0.0322266 0.88012803 4278190080
0.143555 0.0322266 0.88026297 4278190080
0.149414 0.0322266 0.880808 4278190080
0.15527301 0.0322266 0.88136899 4278190080
0.16113301 0.0322266 0.88184202 4278190080
0.16699199 0.0322266 0.88209403 4278190080
0.17285199 0.0322266 0.88262302 4278190080
0.178711 0.0322266 0.883286 4278190080
0.020507799 0.026028 0.866211 4278190080
0.026367201 0.0257849 0.866211 4278190080
0.135617 0.026367201 0.87792999 4278190080
0.131836 0.026367201 0.87872899 4278190080
0.137695 0.027430801 0.87792999 4278190080
0.143555 0.028134599 0.87792999 4278190080
0.149414 0.0274739 0.87792999 4278190080
0.161024 0.026367201 0.87792999 4278190080
0.15527301 0.026910899 0.87792999 4278190080
0.16113301 0.026367201 0.87793601 4278190080
0.16699199 0.026367201 0.8786 4278190080
0.17285199 0.026367201 0.87908399 4278190080
0.178711 0.026367201 0.87994099 4278190080
0.18457 0.026367201 0.88036603 4278190080
0.0033065099 0.0380859 0.87792999 4278190080
0.0029296901 0.0380859 0.87801999 4278190080
0.020507799 0.0394223 0.87792999 4278190080
0.026367201 0.043048501 0.87792999 4278190080
0.12597699 0.0380859 0.88309002 4278190080
0.137695 0.0380859 0.883753 4278190080
0.143555 0.0380859 0.88373101 4278190080
0.0206834 0.043945301 0.89550799 4278190080
0.020507799 0.043945301 0.89611 4278190080
0.0029296901 0.019519201 0.86035198 4278190080
0.0087890597 0.017695401 0.86035198 4278190080
0.0146484 0.0167358 0.86035198 4278190080
0.020507799 0.0160813 0.86035198 4278190080
0.026367201 0.015572 0.86035198 4278190080
0.0322266 0.0155534 0.86035198 4278190080
0.0380859 0.016041299 0.86035198 4278190080
0.045365602 0.0146484 0.86035198 4278190080
0.043945301 0.015869301 0.86035198 4278190080
0.049804699 0.0146484 0.86309701 4278190080
0.185884 0.0146484 0.86035198 4278190080
0.18457 0.0146484 0.86412603 4278190080
0.131836 0.0374345 0.883789 4278190080
0.149414 0.037265498 0.883789 4278190080
0.15527301 0.036551699 0.883789 4278190080
0.16113301 0.035489701 0.883789 4278190080
0.16699199 0.035103001 0.883789 4278190080
0.17285199 0.034274299 0.883789 4278190080
0.184053 0.0322266 0.883789 4278190080
0.178711 0.0330179 0.883789 4278190080
0.18457 0.0322266 0.88383698 4278190080
0.131836 0.020507799 0.87459803 4278190080
0.137695 0.020507799 0.874053 4278190080
0.143555 0.020507799 0.87354499 4278190080
0.149414 0.020507799 0.87322497 4278190080
0.15527301 0.020507799 0.873707 4278190080
0.16113301 0.020507799 0.87425202 4278190080
0.16699199 0.020507799 0.87493098 4278190080
0.17285199 0.020507799 0.87559402 4278190080
0.178711 0.020507799 0.87615103 4278190080
0.18952499 0.020507799 0.87207001 4278190080
0.18457 0.020507799 0.87699401 4278190080
0.18457 0.032142799 0.883789 4278190080
0.0029296901 0.039286502 0.883789 4278190080
0.0146484 0.0396308 0.883789 4278190080
0.020507799 0.040107701 0.883789 4278190080
0.12999199 0.0380859 0.883789 4278190080
0.12597699 0.038951401 0.883789 4278190080
0.13716801 0.0380859 0.883789 4278190080
0.131836 0.0380859 0.88412797 4278190080
0.137695 0.038145401 0.883789 4278190080
0.14418501 0.0380859 0.883789 4278190080
0.143555 0.038189799 0.883789 4278190080
0.149414 0.0380859 0.88425797 4278190080
0.15527301 0.0380859 0.88464701 4278190080
0.16113301 0.0380859 0.88533503 4278190080
0.16699199 0.0380859 0.88547599 4278190080
0.17285199 0.0380859 0.88602799 4278190080
0.178711 0.0380859 0.88687199 4278190080
0.18457 0.0380859 0.88748002 4278190080
0.019290101 0.043945301 0.90136701 4278190080
0.131836 0.0146484 0.86978799 4278190080
0.137695 0.0146484 0.87035602 4278190080
0.143555 0.0146484 0.86974901 4278190080
0.149414 0.0146484 0.86963898 4278190080
0.15527301 0.0146484 0.87004399 4278190080
0.16113301 0.0146484 0.87049901 4278190080
0.16699199 0.0146484 0.87128401 4278190080
0.17285199 0.0146484 0.87188798 4278190080
0.183735 0.0146484 0.866211 4278190080
0.18457 0.0152123 0.866211 4278190080
0.131836 0.025038 0.87792999 4278190080
0.16113301 0.026356701 0.87792999 4278190080
0.16699199 0.025293 0.87792999 4278190080
0.17285199 0.0244337 0.87792999 4278190080
0.178711 0.023308501 0.87792999 4278190080
0.18457 0.022052201 0.87792999 4278190080
0.0029296901 0.040254001 0.88964802 4278190080
0.0087890597 0.040123198 0.88964802 4278190080
0.0146484 0.040382698 0.88964802 4278190080
0.020507799 0.040653002 0.88964802 4278190080
0.178711 0.042699199 0.88964802 4278190080
0.18457 0.041451599 0.88964802 4278190080
0.016610499 0.043945301 0.90722698 4278190080
0.131836 0.0175626 0.87207001 4278190080
0.137695 0.0173917 0.87207001 4278190080
0.143555 0.0182277 0.87207001 4278190080
0.149414 0.018592799 0.87207001 4278190080
0.15527301 0.017895 0.87207001 4278190080
0.16113301 0.0170664 0.87207001 4278190080
0.16699199 0.015900901 0.87207001 4278190080
0.17390101 0.0146484 0.87207001 4278190080
0.17285199 0.0149299 0.87207001 4278190080
0.179952 0.0146484 0.87207001 4278190080
0.178711 0.0146484 0.87289298 4278190080
0.18457 0.017018801 0.87207001 4278190080
0.0029296901 0.040920299 0.89550799 4278190080
0.0087890597 0.040622499 0.89550799 4278190080
0.0146484 0.041423298 0.89550799 4278190080
0.020507799 0.043812599 0.89550799 4278190080
0.0029296901 0.041189302 0.90136701 4278190080
0.0087890597 0.040855501 0.90136701 4278190080
0.0146484 0.0416147 0.90136701 4278190080
0.0029296901 0.040160399 0.90722698 4278190080
0.0087890597 0.040851001 0.90722698 4278190080
0.0087890597 0.0380859 0.912839 4278190080
0.0146484 0.042477299 0.90722698 4278190080
0.0093807001 0.0380859 0.913086 4278190080
0.043945301 0.049804699 0.73031801 4278190080
0.049804699 0.049804699 0.72961497 4278190080
0.0556641 0.049804699 0.73024702 4278190080
0.0615234 0.049804699 0.73105299 4278190080
0.043945301 0.073242202 0.73670399 4278190080
0.049804699 0.073242202 0.73712999 4278190080
0.0322266 0.0556641 0.73452199 4278190080
0.0380859 0.0556641 0.73354399 4278190080
0.043945301 0.0556641 0.731659 4278190080
0.049804699 0.0556641 0.73160303 4278190080
0.0556641 0.0556641 0.732162 4278190080
0.0615234 0.0556641 0.73293602 4278190080
0.067382798 0.0556641 0.733769 4278190080
0.073242202 0.0556641 0.73426801 4278190080
0.0791016 0.0556641 0.73500401 4278190080
0.0849609 0.0556641 0.73587 4278190080
0.090820298 0.0556641 0.73658198 4278190080
0.096679702 0.0556641 0.73705 4278190080
0.102539 0.0556641 0.73697299 4278190080
0.108398 0.0556641 0.73684502 4278190080
0.0380859 0.067382798 0.73619503 4278190080
0.043945301 0.067382798 0.73516101 4278190080
0.049804699 0.067382798 0.73537898 4278190080
0.0556641 0.067382798 0.73597997 4278190080
0.0615234 0.067382798 0.73658001 4278190080
0.067382798 0.067382798 0.73720598 4278190080
0.0322266 0.0615234 0.736642 4278190080
0.0380859 0.0615234 0.73461801 4278190080
0.043945301 0.0615234 0.73327303 4278190080
0.049804699 0.0615234 0.73342597 4278190080
0.0556641 0.0615234 0.733908 4278190080
0.0615234 0.0615234 0.73468101 4278190080
0.067382798 0.0615234 0.73553801 4278190080
0.073242202 0.0615234 0.73611701 4278190080
0.0791016 0.0615234 0.736619 4278190080
0.026367201 0.0791016 0.74138802 4278190080
0.0322266 0.0791016 0.74099201 4278190080
0.0380859 0.0791016 0.73895001 4278190080
0.043945301 0.0791016 0.73839402 4278190080
0.049804699 0.0791016 0.738693 4278190080
0.0556641 0.0791016 0.739721 4278190080
0.0615234 0.0791016 0.740547 4278190080
0.067382798 0.0791016 0.74115998 4278190080
0.073242202 0.0791016 0.74195999 4278190080
0.0791016 0.0791016 0.74277002 4278190080
0.102539 0.0791016 0.74266797 4278190080
0.0322266 0.049804699 0.73438901 4278190080
0.040993899 0.049804699 0.73144501 4278190080
0.0380859 0.049804699 0.73254699 4278190080
0.043945301 0.0547431 0.73144501 4278190080
0.049804699 0.0551918 0.73144501 4278190080
0.0556641 0.0534501 0.73144501 4278190080
0.065553904 0.049804699 0.73144501 4278190080
0.0615234 0.0510143 0.73144501 4278190080
0.067382798 0.049804699 0.731619 4278190080
0.073242202 0.049804699 0.73209101 4278190080
0.0791016 0.049804699 0.73293698 4278190080
0.0849609 0.049804699 0.73394698 4278190080
0.090820298 0.049804699 0.73479301 4278190080
0.096679702 0.049804699 0.73519099 4278190080
0.102539 0.049804699 0.73516899 4278190080
0.108398 0.049804699 0.73478502 4278190080
0.0849609 0.0605787 0.73730499 4278190080
0.090820298 0.058224201 0.73730499 4278190080
0.096679702 0.056566998 0.73730499 4278190080
0.102539 0.057048 0.73730499 4278190080
0.108398 0.057257701 0.73730499 4278190080
0.026367201 0.073242202 0.74064201 4278190080
0.0322266 0.073242202 0.73945302 4278190080
0.039683498 0.073242202 0.73730499 4278190080
0.0380859 0.073242202 0.73753202 4278190080
0.043945301 0.075284697 0.73730499 4278190080
0.051233601 0.073242202 0.73730499 4278190080
0.049804699 0.0739021 0.73730499 4278190080
0.0556641 0.073242202 0.73785299 4278190080
0.0615234 0.073242202 0.738581 4278190080
0.067382798 0.073242202 0.73925197 4278190080
0.073242202 0.073242202 0.74002099 4278190080
0.0791016 0.073242202 0.74089402 4278190080
0.0849609 0.073242202 0.74165797 4278190080
0.090820298 0.073242202 0.74241197 4278190080
0.096679702 0.073242202 0.742459 4278190080
0.102539 0.073242202 0.74177402 4278190080
0.026367201 0.067382798 0.74067003 4278190080
0.033960201 0.067382798 0.73730499 4278190080
0.0322266 0.067382798 0.73778301 4278190080
0.0380859 0.072264902 0.73730499 4278190080
0.0556641 0.071543597 0.73730499 4278190080
0.0615234 0.069504902 0.73730499 4278190080
0.068098702 0.067382798 0.73730499 4278190080
0.067382798 0.067664497 0.73730499 4278190080
0.073242202 0.067382798 0.73801398 4278190080
0.0791016 0.067382798 0.73875201 4278190080
0.0849609 0.067382798 0.73942399 4278190080
0.090820298 0.067382798 0.74027902 4278190080
0.096679702 0.067382798 0.74036503 4278190080
0.102539 0.067382798 0.739981 4278190080
0.108398 0.067382798 0.74104297 4278190080
0.026367201 0.083141997 0.743164 4278190080
0.073242202 0.083499797 0.743164 4278190080
0.082094699 0.0791016 0.743164 4278190080
0.0791016 0.080604203 0.743164 4278190080
0.0849609 0.0791016 0.74355102 4278190080
0.090820298 0.0791016 0.74402398 4278190080
0.100235 0.0791016 0.743164 4278190080
0.096679702 0.0791016 0.74392998 4278190080
0.102689 0.0791016 0.743164 4278190080
0.102539 0.080215096 0.743164 4278190080
0.031581599 0.0615234 0.73730499 4278190080
0.0322266 0.064943701 0.73730499 4278190080
0.073242202 0.065196499 0.73730499 4278190080
0.083253302 0.0615234 0.73730499 4278190080
0.0791016 0.063381404 0.73730499 4278190080
0.0849609 0.0615234 0.73757797 4278190080
0.090820298 0.0615234 0.738226 4278190080
0.096679702 0.0615234 0.73869801 4278190080
0.102539 0.0615234 0.73842102 4278190080
0.108398 0.0615234 0.73857999 4278190080
0.110454 0.049804699 0.743164 4278190080
0.0849609 0.077939399 0.743164 4278190080
0.090820298 0.0759959 0.743164 4278190080
0.096679702 0.076070197 0.743164 4278190080
0.105002 0.073242202 0.743164 4278190080
0.108398 0.073242202 0.74483401 4278190080
0.108398 0.070570499 0.743164 4278190080
0.104146 0.0791016 0.74902302 4278190080
0.0265582 0.0615234 0.743164 4278190080
0.026367201 0.061992001 0.743164 4278190080
0.026367201 0.0615234 0.74339902 4278190080
0.113674 0.049804699 0.74902302 4278190080
0.114258 0.049804699 0.749623 4278190080
0.108398 0.0746089 0.74902302 4278190080
0.107834 0.0791016 0.75488299 4278190080
0.108398 0.0791016 0.75529599 4278190080
0.108398 0.0786222 0.75488299 4278190080
0.0322266 0.049804699 0.85846001 4278190080
0.21972699 0.049804699 0.88535798 4278190080
0.225586 0.049804699 0.88678497 4278190080
0.21972699 0.0556641 0.89530998 4278190080
0.225586 0.0556641 0.892932 4278190080
0.231445 0.0556641 0.89467198 4278190080
0.19043 0.049804699 0.89535397 4278190080
0.20800801 0.049804699 0.895356 4278190080
0.214191 0.049804699 0.88964802 4278190080
0.21386699 0.049804699 0.889938 4278190080
0.21972699 0.0524862 0.88964802 4278190080
0.230744 0.049804699 0.88964802 4278190080
0.225586 0.052723099 0.88964802 4278190080
0.231445 0.049804699 0.89003998 4278190080
0.237305 0.049804699 0.89379001 4278190080
0.12597699 0.0556641 0.89152002 4278190080
0.131836 0.0556641 0.89057398 4278190080
0.137695 0.0556641 0.89161098 4278190080
0.143555 0.0556641 0.89200097 4278190080
0.149414 0.0556641 0.89277202 4278190080
0.15527301 0.0556641 0.893641 4278190080
0.16113301 0.0556641 0.89457297 4278190080
0.16699199 0.0556641 0.89545399 4278190080
0.19043 0.0615234 0.90077102 4278190080
0.19043 0.0556641 0.89862502 4278190080
0.196289 0.0556641 0.89917803 4278190080
0.20214801 0.0556641 0.89982802 4278190080
0.20800801 0.0556641 0.90013999 4278190080
0.219386 0.0556641 0.89550799 4278190080
0.21386699 0.0556641 0.89856899 4278190080
0.21972699 0.0557837 0.89550799 4278190080
0.225586 0.057484001 0.89550799 4278190080
0.233521 0.0556641 0.89550799 4278190080
0.231445 0.0564957 0.89550799 4278190080
0.237305 0.0556641 0.89727199 4278190080
0.243164 0.0556641 0.899046 4278190080
0.19043 0.067382798 0.91526002 4278190080
0.196289 0.067382798 0.918392 4278190080
0.20214801 0.067382798 0.91806698 4278190080
0.225586 0.067382798 0.918024 4278190080
0.231445 0.067382798 0.91674399 4278190080
0.237305 0.067382798 0.91459602 4278190080
0.191916 0.049804699 0.89550799 4278190080
0.19043 0.050084401 0.89550799 4278190080
0.196289 0.049804699 0.89596701 4278190080
0.20715 0.049804699 0.89550799 4278190080
0.20214801 0.049804699 0.89629 4278190080
0.20800801 0.049977399 0.89550799 4278190080
0.21386699 0.0534782 0.89550799 4278190080
0.242047 0.049804699 0.89550799 4278190080
0.237305 0.052843198 0.89550799 4278190080
0.243164 0.049804699 0.89594698 4278190080
0.24902301 0.049804699 0.89561999 4278190080
0.193425 0.0615234 0.90136701 4278190080
0.19043 0.061706301 0.90136701 4278190080
0.196289 0.0615234 0.90196502 4278190080
0.20214801 0.0615234 0.902412 4278190080
0.20800801 0.0615234 0.90422899 4278190080
0.21386699 0.0615234 0.90463299 4278190080
0.21972699 0.0615234 0.90442598 4278190080
0.225586 0.0615234 0.901627 4278190080
0.231445 0.0615234 0.901568 4278190080
0.237305 0.0615234 0.90209198 4278190080
0.243164 0.0615234 0.90441197 4278190080
0.12597699 0.058860801 0.89550799 4278190080
0.15527301 0.060816199 0.89550799 4278190080
0.16113301 0.058965001 0.89550799 4278190080
0.16733 0.0556641 0.89550799 4278190080
0.16699199 0.055769 0.89550799 4278190080
0.17285199 0.0556641 0.89643002 4278190080
0.178711 0.0556641 0.89733201 4278190080
0.18457 0.0556641 0.89798999 4278190080
0.131836 0.0615234 0.89158201 4278190080
0.137695 0.0615234 0.89250302 4278190080
0.143555 0.0615234 0.89100701 4278190080
0.149414 0.0615234 0.894445 4278190080
0.196289 0.0602859 0.90136701 4278190080
0.20214801 0.059172299 0.90136701 4278190080
0.20800801 0.0573432 0.90136701 4278190080
0.21386699 0.0582591 0.90136701 4278190080
0.21972699 0.0594832 0.90136701 4278190080
0.225586 0.061365101 0.90136701 4278190080
0.231445 0.061359301 0.90136701 4278190080
0.237305 0.0605901 0.90136701 4278190080
0.247963 0.0556641 0.90136701 4278190080
0.243164 0.057984602 0.90136701 4278190080
0.24902301 0.0556641 0.901775 4278190080
0.16113301 0.067382798 0.91092199 4278190080
0.17285199 0.067382798 0.91142899 4278190080
0.178711 0.067382798 0.90955299 4278190080
0.18457 0.067382798 0.91264701 4278190080
0.19043 0.068155497 0.91894501 4278190080
0.20604099 0.067382798 0.91894501 4278190080
0.20800801 0.067382798 0.91950703 4278190080
0.21386699 0.067382798 0.92128003 4278190080
0.223287 0.067382798 0.91894501 4278190080
0.21972699 0.067382798 0.92003399 4278190080
0.225586 0.067568898 0.91894501 4278190080
0.231445 0.067894503 0.91894501 4278190080
0.241109 0.067382798 0.91894501 4278190080
0.237305 0.0682467 0.91894501 4278190080
0.243164 0.067382798 0.92032498 4278190080
0.24902301 0.055085901 0.90136701 4278190080
0.12597699 0.049804699 0.890342 4278190080
0.131836 0.049804699 0.89040899 4278190080
0.137695 0.049804699 0.89012599 4278190080
0.143555 0.049804699 0.89037597 4278190080
0.149414 0.049804699 0.89085102 4278190080
0.15527301 0.049804699 0.89125597 4278190080
0.16113301 0.049804699 0.89190698 4278190080
0.16699199 0.049804699 0.89260399 4278190080
0.17285199 0.049804699 0.89345503 4278190080
0.178711 0.049804699 0.89406198 4278190080
0.18457 0.049804699 0.89492798 4278190080
0.19043 0.063656002 0.90722698 4278190080
0.196289 0.0634069 0.90722698 4278190080
0.20214801 0.063077599 0.90722698 4278190080
0.20800801 0.062619597 0.90722698 4278190080
0.21386699 0.062441699 0.90722698 4278190080
0.21972699 0.0625825 0.90722698 4278190080
0.225586 0.063627496 0.90722698 4278190080
0.231445 0.063936003 0.90722698 4278190080
0.237305 0.0639107 0.90722698 4278190080
0.245111 0.0615234 0.90722698 4278190080
0.243164 0.062394299 0.90722698 4278190080
0.24902301 0.0615234 0.91219002 4278190080
0.24902301 0.058656301 0.90722698 4278190080
0.12769701 0.0615234 0.89550799 4278190080
0.12597699 0.0615234 0.89832801 4278190080
0.15409499 0.0615234 0.89550799 4278190080
0.15527301 0.0615234 0.89576399 4278190080
0.16113301 0.0615234 0.896218 4278190080
0.16699199 0.0615234 0.89879698 4278190080
0.17285199 0.0615234 0.89957798 4278190080
0.178711 0.0615234 0.90001303 4278190080
0.18457 0.0615234 0.90019602 4278190080
0.19043 0.069057196 0.92480499 4278190080
0.20214801 0.068393499 0.92480499 4278190080
0.20800801 0.068339899 0.92480499 4278190080
0.21386699 0.0681815 0.92480499 4278190080
0.21972699 0.068537802 0.92480499 4278190080
0.225586 0.0686481 0.92480499 4278190080
0.231445 0.069063202 0.92480499 4278190080
0.237305 0.069299698 0.92480499 4278190080
0.245364 0.067382798 0.92480499 4278190080
0.243164 0.068515196 0.92480499 4278190080
0.166867 0.067382798 0.913086 4278190080
0.16745 0.067382798 0.913086 4278190080
0.16699199 0.067382798 0.91318798 4278190080
0.185671 0.067382798 0.913086 4278190080
0.18457 0.067506798 0.913086 4278190080
0.17285199 0.0538789 0.89550799 4278190080
0.178711 0.0524197 0.89550799 4278190080
0.18457 0.050908901 0.89550799 4278190080
0.19043 0.066306099 0.913086 4278190080
0.196289 0.065739401 0.913086 4278190080
0.20214801 0.065012701 0.913086 4278190080
0.20800801 0.064791597 0.913086 4278190080
0.21386699 0.064195 0.913086 4278190080
0.21972699 0.064376198 0.913086 4278190080
0.225586 0.065489203 0.913086 4278190080
0.231445 0.065852597 0.913086 4278190080
0.237305 0.066721201 0.913086 4278190080
0.243164 0.064266004 0.913086 4278190080
0.24902301 0.061750501 0.913086 4278190080
0.15527301 0.0628222 0.90136701 4278190080
0.16113301 0.062951103 0.90136701 4278190080
0.16699199 0.0621337 0.90136701 4278190080
0.17285199 0.062006701 0.90136701 4278190080
0.178711 0.062048301 0.90136701 4278190080
0.18457 0.061983101 0.90136701 4278190080
0.19043 0.069938801 0.930664 4278190080
0.196289 0.0692489 0.930664 4278190080
0.20214801 0.069330998 0.930664 4278190080
0.20800801 0.069602698 0.930664 4278190080
0.21386699 0.0688814 0.930664 4278190080
0.21972699 0.069217101 0.930664 4278190080
0.225586 0.069296502 0.930664 4278190080
0.231445 0.070030697 0.930664 4278190080
0.237305 0.0705714 0.930664 4278190080
0.24869899 0.067382798 0.930664 4278190080
0.243164 0.069654703 0.930664 4278190080
0.24902301 0.067382798 0.93100703 4278190080
0.25488299 0.0591227 0.91894501 4278190080
0.15662301 0.067382798 0.91894501 4278190080
0.15527301 0.067382798 0.91948301 4278190080
0.18457 0.068709597 0.91894501 4278190080
0.20800801 0.067149997 0.91894501 4278190080
0.21386699 0.066355899 0.91894501 4278190080
0.21972699 0.066806801 0.91894501 4278190080
0.243164 0.066638201 0.91894501 4278190080
0.25187701 0.0615234 0.91894501 4278190080
0.24902301 0.063497096 0.91894501 4278190080
0.15527301 0.063918397 0.90722698 4278190080
0.16113301 0.064107299 0.90722698 4278190080
0.16699199 0.063763097 0.90722698 4278190080
0.17285199 0.065072998 0.90722698 4278190080
0.178711 0.065394796 0.90722698 4278190080
0.18457 0.064368799 0.90722698 4278190080
0.19043 0.071531698 0.93652302 4278190080
0.196289 0.0703789 0.93652302 4278190080
0.20214801 0.070110701 0.93652302 4278190080
0.20800801 0.070311204 0.93652302 4278190080
0.21386699 0.069948301 0.93652302 4278190080
0.21972699 0.070080303 0.93652302 4278190080
0.225586 0.070578799 0.93652302 4278190080
0.231445 0.071200103 0.93652302 4278190080
0.237305 0.071435101 0.93652302 4278190080
0.243164 0.071114399 0.93652302 4278190080
0.251564 0.067382798 0.93652302 4278190080
0.24902301 0.069287099 0.93652302 4278190080
0.25488299 0.0610076 0.92480499 4278190080
0.18457 0.0694599 0.92480499 4278190080
0.25426599 0.0615234 0.92480499 4278190080
0.24902301 0.065115198 0.92480499 4278190080
0.25488299 0.0615234 0.92539901 4278190080
0.16699199 0.067312099 0.913086 4278190080
0.19043 0.068117604 0.94238299 4278190080
0.196289 0.069172099 0.94238299 4278190080
0.196289 0.067382798 0.94379699 4278190080
0.20214801 0.068224996 0.94238299 4278190080
0.20800801 0.069319703 0.94238299 4278190080
0.21386699 0.070425197 0.94238299 4278190080
0.21972699 0.070563599 0.94238299 4278190080
0.21972699 0.067382798 0.94516897 4278190080
0.225586 0.070723303 0.94238299 4278190080
0.231445 0.069934703 0.94238299 4278190080
0.231445 0.067382798 0.94402498 4278190080
0.237305 0.070208199 0.94238299 4278190080
0.243164 0.071207799 0.94238299 4278190080
0.250514 0.067382798 0.94238299 4278190080
0.24902301 0.068790399 0.94238299 4278190080
0.24902301 0.067382798 0.94359303 4278190080
0.18457 0.070330702 0.930664 4278190080
0.24902301 0.067191496 0.930664 4278190080
0.25488299 0.063852303 0.930664 4278190080
0.15527301 0.066819198 0.91894501 4278190080
0.17285199 0.067382798 0.94045699 4278190080
0.178711 0.067382798 0.94046402 4278190080
0.18457 0.070605598 0.93652302 4278190080
0.18457 0.067382798 0.94148397 4278190080
0.243164 0.0615234 0.94221199 4278190080
0.25488299 0.064982899 0.93652302 4278190080
0.188743 0.067382798 0.94238299 4278190080
0.24300399 0.0615234 0.94238299 4278190080
0.243421 0.0615234 0.94238299 4278190080
0.243164 0.061788399 0.94238299 4278190080
0.25488299 0.064299099 0.94238299 4278190080
0.0322266 0.102539 0.74663001 4278190080
0.0380859 0.102539 0.74577999 4278190080
0.043945301 0.102539 0.74627501 4278190080
0.049804699 0.102539 0.74694002 4278190080
0.0556641 0.102539 0.74750501 4278190080
0.0615234 0.102539 0.74820399 4278190080
0.067382798 0.102539 0.748936 4278190080
0.026367201 0.096679702 0.74746901 4278190080
0.0322266 0.096679702 0.74473101 4278190080
0.0380859 0.096679702 0.74371898 4278190080
0.043945301 0.096679702 0.74402499 4278190080
0.049804699 0.096679702 0.744726 4278190080
0.0556641 0.096679702 0.74545199 4278190080
0.0615234 0.096679702 0.74622703 4278190080
0.067382798 0.096679702 0.74701101 4278190080
0.073242202 0.096679702 0.74768603 4278190080
0.0791016 0.096679702 0.74836999 4278190080
0.0849609 0.096679702 0.74880201 4278190080
0.096679702 0.096679702 0.748344 4278190080
0.0380859 0.090820298 0.74197799 4278190080
0.043945301 0.090820298 0.74211699 4278190080
0.049804699 0.090820298 0.74271798 4278190080
0.0322266 0.0849609 0.74239898 4278190080
0.0380859 0.0849609 0.74050897 4278190080
0.043945301 0.0849609 0.74038798 4278190080
0.049804699 0.0849609 0.74093699 4278190080
0.0556641 0.0849609 0.74168402 4278190080
0.0615234 0.0849609 0.74235898 4278190080
0.067382798 0.0849609 0.74286699 4278190080
0.020507799 0.102539 0.75112402 4278190080
0.0269814 0.102539 0.74902302 4278190080
0.026367201 0.102539 0.749318 4278190080
0.049804699 0.107893 0.74902302 4278190080
0.0556641 0.106556 0.74902302 4278190080
0.0615234 0.10471 0.74902302 4278190080
0.068157598 0.102539 0.74902302 4278190080
0.067382798 0.102779 0.74902302 4278190080
0.073242202 0.102539 0.74959499 4278190080
0.0791016 0.102539 0.75016397 4278190080
0.0849609 0.102539 0.75087398 4278190080
0.090820298 0.102539 0.75103998 4278190080
0.096679702 0.102539 0.750503 4278190080
0.0322266 0.108398 0.74875599 4278190080
0.0380859 0.108398 0.74840403 4278190080
0.043945301 0.108398 0.74874198 4278190080
0.024900001 0.096679702 0.74902302 4278190080
0.020507799 0.096679702 0.75466901 4278190080
0.026367201 0.101637 0.74902302 4278190080
0.073242202 0.100771 0.74902302 4278190080
0.0791016 0.098771296 0.74902302 4278190080
0.088480197 0.096679702 0.74902302 4278190080
0.0849609 0.097304501 0.74902302 4278190080
0.091810703 0.096679702 0.74902302 4278190080
0.090820298 0.096679702 0.74917001 4278190080
0.096818797 0.096679702 0.74902302 4278190080
0.096679702 0.098559603 0.74902302 4278190080
0.026367201 0.114258 0.75397599 4278190080
0.0322266 0.114258 0.75178099 4278190080
0.0380859 0.114258 0.75163102 4278190080
0.043945301 0.114258 0.75186801 4278190080
0.049804699 0.114258 0.75235802 4278190080
0.0556641 0.114258 0.75284398 4278190080
0.0615234 0.114258 0.75329602 4278190080
0.067382798 0.114258 0.75376397 4278190080
0.073242202 0.114258 0.75449598 4278190080
0.090820298 0.114258 0.75470603 4278190080
0.026367201 0.090820298 0.74539202 4278190080
0.033422802 0.090820298 0.743164 4278190080
0.0322266 0.090820298 0.74346697 4278190080
0.0380859 0.094798401 0.743164 4278190080
0.043945301 0.094009198 0.743164 4278190080
0.053583499 0.090820298 0.743164 4278190080
0.049804699 0.092086099 0.743164 4278190080
0.0556641 0.090820298 0.743406 4278190080
0.0615234 0.090820298 0.74403298 4278190080
0.067382798 0.090820298 0.74497098 4278190080
0.073242202 0.090820298 0.74584001 4278190080
0.0791016 0.090820298 0.74645299 4278190080
0.0849609 0.090820298 0.74703902 4278190080
0.090820298 0.090820298 0.74753302 4278190080
0.096679702 0.090820298 0.747033 4278190080
0.029327 0.0849609 0.743164 4278190080
0.026367201 0.0849609 0.74388498 4278190080
0.0322266 0.089145899 0.743164 4278190080
0.0556641 0.089996897 0.743164 4278190080
0.0615234 0.087788902 0.743164 4278190080
0.069887802 0.0849609 0.743164 4278190080
0.067382798 0.085780002 0.743164 4278190080
0.073242202 0.0849609 0.743563 4278190080
0.0791016 0.0849609 0.74432498 4278190080
0.0849609 0.0849609 0.74514699 4278190080
0.090820298 0.0849609 0.74569798 4278190080
0.096679702 0.0849609 0.74551898 4278190080
0.102539 0.0849609 0.74519497 4278190080
0.097413301 0.102539 0.75488299 4278190080
0.020507799 0.108398 0.75419801 4278190080
0.0316367 0.108398 0.74902302 4278190080
0.026367201 0.108398 0.751504 4278190080
0.0322266 0.108927 0.74902302 4278190080
0.0380859 0.109513 0.74902302 4278190080
0.0474643 0.108398 0.74902302 4278190080
0.043945301 0.108907 0.74902302 4278190080
0.049804699 0.108398 0.749219 4278190080
0.0556641 0.108398 0.74970299 4278190080
0.0615234 0.108398 0.75038701 4278190080
0.067382798 0.108398 0.75101602 4278190080
0.073242202 0.108398 0.75168198 4278190080
0.0791016 0.108398 0.75226301 4278190080
0.0849609 0.108398 0.752882 4278190080
0.090820298 0.108398 0.75303203 4278190080
0.096679702 0.108398 0.75420099 4278190080
0.098136097 0.096679702 0.75488299 4278190080
0.0247804 0.114258 0.75488299 4278190080
0.020507799 0.114258 0.75728297 4278190080
0.026367201 0.115888 0.75488299 4278190080
0.0322266 0.118614 0.75488299 4278190080
0.0380859 0.118879 0.75488299 4278190080
0.043945301 0.118797 0.75488299 4278190080
0.049804699 0.11817 0.75488299 4278190080
0.0556641 0.117698 0.75488299 4278190080
0.0615234 0.116975 0.75488299 4278190080
0.067382798 0.116124 0.75488299 4278190080
0.077096 0.114258 0.75488299 4278190080
0.073242202 0.11497 0.75488299 4278190080
0.0791016 0.114258 0.75508702 4278190080
0.0892516 0.114258 0.75488299 4278190080
0.0849609 0.114258 0.75533402 4278190080
0.090942502 0.114258 0.75488299 4278190080
0.090820298 0.114568 0.75488299 4278190080
0.096679702 0.114258 0.75869298 4278190080
0.090820298 0.0961546 0.74902302 4278190080
0.099876396 0.090820298 0.74902302 4278190080
0.102539 0.090820298 0.75093597 4278190080
0.102539 0.089057803 0.74902302 4278190080
0.098975897 0.102539 0.76074201 4278190080
0.019519901 0.108398 0.75488299 4278190080
0.0146484 0.108398 0.758973 4278190080
0.020507799 0.109726 0.75488299 4278190080
0.0791016 0.113828 0.75488299 4278190080
0.0849609 0.113169 0.75488299 4278190080
0.096679702 0.109015 0.75488299 4278190080
0.102329 0.096679702 0.76074201 4278190080
0.102539 0.096679702 0.76091498 4278190080
0.0171657 0.114258 0.76074201 4278190080
0.020507799 0.119494 0.76074201 4278190080
0.097307898 0.114258 0.76074201 4278190080
0.096679702 0.115054 0.76074201 4278190080
0.101132 0.102539 0.76660198 4278190080
0.102539 0.102539 0.76868898 4278190080
0.102539 0.091729201 0.75488299 4278190080
0.0146484 0.11054 0.76074201 4278190080
0.097844698 0.108398 0.76074201 4278190080
0.102539 0.101014 0.76660198 4278190080
0.0150387 0.114258 0.76660198 4278190080
0.0146484 0.115578 0.76660198 4278190080
0.097996697 0.114258 0.76660198 4278190080
0.096679702 0.116579 0.76660198 4278190080
0.102539 0.0964614 0.76074201 4278190080
0.102539 0.104327 0.772461 4278190080
0.0146484 0.113815 0.76660198 4278190080
0.098499797 0.108398 0.76660198 4278190080
0.015148 0.114258 0.772461 4278190080
0.0146484 0.115084 0.772461 4278190080
0.0146484 0.114258 0.77370101 4278190080
0.098733902 0.114258 0.772461 4278190080
0.102539 0.10833 0.77832001 4278190080
0.0146484 0.113693 0.772461 4278190080
0.099561602 0.108398 0.772461 4278190080
0.099526301 0.114258 0.77832001 4278190080
0.102483 0.108398 0.77832001 4278190080
0.102539 0.108398 0.7784 4278190080
0.100054 0.114258 0.78417999 4278190080
0.102539 0.111028 0.78417999 4278190080
0.099962898 0.114258 0.790039 4278190080
0.102539 0.110808 0.790039 4278190080
0.0322266 0.12597699 0.76044703 4278190080
0.0380859 0.12597699 0.75982201 4278190080
0.043945301 0.12597699 0.75868201 4278190080
0.049804699 0.12597699 0.75836301 4278190080
0.0556641 0.12597699 0.75890601 4278190080
