# .PCD v0.7 - Point Cloud Data file format
VERSION 0.7
FIELDS x y z rgb
SIZE 4 4 4 4
TYPE F F F U
COUNT 1 1 1 1
WIDTH 1198
HEIGHT 1
VIEWPOINT 0 0 0 1 0 0 0
POINTS 1198
DATA ascii
0.59930301 0.049804699 1.04785 4278190080
0.59472698 0.049804699 1.052 4278190080
0.66918403 0.049804699 1.04785 4278190080
0.26624501 0.073242202 1.28809 4278190080
0.26074201 0.073242202 1.29177 4278190080
0.26660201 0.074295297 1.28809 4278190080
0.42480499 0.0615234 1.1760499 4278190080
0.43701199 0.049804699 1.1709 4278190080
0.59731698 0.067382798 1.05371 4278190080
0.59472698 0.067382798 1.0561399 4278190080
0.66806602 0.067382798 1.05371 4278190080
0.25138399 0.0556641 1.29395 4278190080
0.24902301 0.0556641 1.29585 4278190080
0.26364601 0.067382798 1.28809 4278190080
0.26074201 0.067382798 1.29047 4278190080
0.42480499 0.084400803 1.17676 4278190080
0.43652299 0.0815529 1.17676 4278190080
0.430664 0.056639999 1.17676 4278190080
0.43652299 0.0574883 1.17676 4278190080
0.24902301 0.049804699 1.2934099 4278190080
0.25582001 0.049804699 1.28809 4278190080
0.25488299 0.049804699 1.2885799 4278190080
0.59442598 0.073242202 1.05957 4278190080
0.58886701 0.073242202 1.06406 4278190080
0.59472698 0.075839303 1.05957 4278190080
0.66622603 0.073242202 1.05957 4278190080
0.665039 0.075347103 1.05957 4278190080
0.254296 0.0615234 1.29395 4278190080
0.24902301 0.0615234 1.2977999 4278190080
0.25488299 0.063237101 1.29395 4278190080
0.413086 0.073242202 1.18823 4278190080
0.25165799 0.0791016 1.2998 4278190080
0.24902301 0.0791016 1.30163 4278190080
0.59526402 0.0791016 1.05957 4278190080
0.59472698 0.0791016 1.05997 4278190080
0.66325498 0.0791016 1.05957 4278190080
0.665039 0.084454201 1.05957 4278190080
0.42530701 0.0615234 1.17676 4278190080
0.430664 0.0615234 1.17949 4278190080
0.43922901 0.0615234 1.17676 4278190080
0.592574 0.049804699 1.05371 4278190080
0.58886701 0.049804699 1.05601 4278190080
0.66887701 0.049804699 1.05371 4278190080
0.59405398 0.0556641 1.05371 4278190080
0.58886701 0.0556641 1.05758 4278190080
0.59472698 0.058116801 1.05371 4278190080
0.66674101 0.0556641 1.05371 4278190080
0.59547102 0.0615234 1.05371 4278190080
0.59472698 0.0615234 1.0545599 4278190080
0.66777802 0.0615234 1.05371 4278190080
0.665039 0.0615234 1.05654 4278190080
0.24902301 0.073242202 1.29975 4278190080
0.25772199 0.073242202 1.29395 4278190080
0.25488299 0.073242202 1.29601 4278190080
0.43784201 0.049804699 1.17676 4278190080
0.43652299 0.051738899 1.17676 4278190080
0.43652299 0.049804699 1.17959 4278190080
0.237305 0.0556641 1.30452 4278190080
0.243745 0.0556641 1.2998 4278190080
0.243164 0.0556641 1.30024 4278190080
0.59111297 0.067382798 1.05957 4278190080
0.58886701 0.067382798 1.06187 4278190080
0.66661501 0.067382798 1.05957 4278190080
0.24902301 0.067382798 1.29892 4278190080
0.25632 0.067382798 1.29395 4278190080
0.25488299 0.067382798 1.29503 4278190080
0.43652299 0.061251901 1.18262 4278190080
0.42480499 0.082294703 1.18262 4278190080
0.39550799 0.067382798 1.19134 4278190080
0.40136701 0.067382798 1.19288 4278190080
0.40722701 0.067382798 1.1931601 4278190080
0.413086 0.071730703 1.18848 4278190080
0.413086 0.067382798 1.18958 4278190080
0.41894501 0.067382798 1.19014 4278190080
0.248363 0.049804699 1.29395 4278190080
0.243164 0.049804699 1.29826 4278190080
0.24902301 0.051121499 1.29395 4278190080
0.245781 0.0615234 1.2998 4278190080
0.243164 0.0615234 1.30152 4278190080
0.40136701 0.073242202 1.19064 4278190080
0.41202801 0.073242202 1.18848 4278190080
0.40722701 0.073242202 1.1896501 4278190080
0.41348499 0.073242202 1.18848 4278190080
0.413086 0.074158803 1.18848 4278190080
0.41894501 0.073242202 1.1934201 4278190080
0.42480499 0.073242202 1.1921099 4278190080
0.57714802 0.073242202 1.07031 4278190080
0.587017 0.073242202 1.06543 4278190080
0.58300799 0.073242202 1.06778 4278190080
0.58886701 0.078722604 1.06543 4278190080
0.43613699 0.0615234 1.18262 4278190080
0.43652299 0.0615234 1.18323 4278190080
0.237305 0.0791016 1.31059 4278190080
0.243893 0.0791016 1.30566 4278190080
0.243164 0.0791016 1.3062299 4278190080
0.57714802 0.049804699 1.06445 4278190080
0.58362299 0.049804699 1.05957 4278190080
0.58300799 0.049804699 1.0599999 4278190080
0.58300799 0.0791016 1.0695601 4278190080
0.58899802 0.0791016 1.06543 4278190080
0.58886701 0.0791016 1.0655299 4278190080
0.40136701 0.049804699 1.1849999 4278190080
0.58300799 0.0615234 1.0644799 4278190080
0.58959103 0.0615234 1.05957 4278190080
0.58886701 0.0615234 1.06016 4278190080
0.66340798 0.0615234 1.05957 4278190080
0.665039 0.064791799 1.05957 4278190080
0.58632302 0.0556641 1.05957 4278190080
0.58300799 0.0556641 1.06224 4278190080
0.58886701 0.060196001 1.05957 4278190080
0.24895599 0.073242202 1.2998 4278190080
0.243164 0.073242202 1.30422 4278190080
0.24902301 0.073406696 1.2998 4278190080
0.23591401 0.0556641 1.30566 4278190080
0.231445 0.0556641 1.30917 4278190080
0.237305 0.060745001 1.30566 4278190080
0.57714802 0.067382798 1.06854 4278190080
0.58463001 0.067382798 1.06543 4278190080
0.58300799 0.067382798 1.06633 4278190080
0.247495 0.067382798 1.2998 4278190080
0.243164 0.067382798 1.30221 4278190080
0.38964799 0.0556641 1.1930799 4278190080
0.39550799 0.0556641 1.19135 4278190080
0.40136701 0.0556641 1.19103 4278190080
0.40722701 0.0556641 1.19324 4278190080
0.40136701 0.0791016 1.19305 4278190080
0.413086 0.0791016 1.19059 4278190080
0.42480499 0.079243898 1.18848 4278190080
0.42480499 0.0791016 1.18859 4278190080
0.39124399 0.067382798 1.19434 4278190080
0.38964799 0.067382798 1.1962 4278190080
0.39550799 0.070322402 1.19434 4278190080
0.231445 0.0615234 1.3105 4278190080
0.237542 0.0615234 1.30566 4278190080
0.237305 0.0615234 1.30584 4278190080
0.241009 0.049804699 1.2998 4278190080
0.237305 0.049804699 1.30255 4278190080
0.243164 0.054379702 1.2998 4278190080
0.398114 0.073242202 1.19434 4278190080
0.39550799 0.073242202 1.19775 4278190080
0.40722701 0.0787578 1.19434 4278190080
0.41894501 0.074656799 1.19434 4278190080
0.38964799 0.0615234 1.19318 4278190080
0.39550799 0.0615234 1.1911401 4278190080
0.40136701 0.0615234 1.19131 4278190080
0.57573497 0.073242202 1.07129 4278190080
0.571289 0.073242202 1.07522 4278190080
0.57714802 0.075221099 1.07129 4278190080
0.37792999 0.049804699 1.1937799 4278190080
0.39875701 0.049804699 1.18848 4278190080
0.39550799 0.049804699 1.19357 4278190080
0.40136701 0.052510899 1.18848 4278190080
0.56542999 0.049804699 1.0707099 4278190080
0.57517701 0.049804699 1.06543 4278190080
0.571289 0.049804699 1.0671901 4278190080
0.57714802 0.0530398 1.06543 4278190080
0.236174 0.0791016 1.31152 4278190080
0.231445 0.0791016 1.3155 4278190080
0.237305 0.081515901 1.31152 4278190080
0.57981998 0.0615234 1.06543 4278190080
0.57714802 0.0615234 1.0664099 4278190080
0.58300799 0.064296998 1.06543 4278190080
0.571289 0.0791016 1.07488 4278190080
0.57991397 0.0791016 1.07129 4278190080
0.57714802 0.0791016 1.07254 4278190080
0.571289 0.0556641 1.0694 4278190080
0.57827699 0.0556641 1.06543 4278190080
0.57714802 0.0556641 1.06621 4278190080
0.22788 0.0556641 1.31152 4278190080
0.225586 0.0556641 1.31312 4278190080
0.239048 0.067382798 1.30566 4278190080
0.237305 0.067382798 1.30714 4278190080
0.24137001 0.073242202 1.30566 4278190080
0.237305 0.073242202 1.3090301 4278190080
0.243164 0.077467203 1.30566 4278190080
0.38885501 0.0556641 1.19434 4278190080
0.40722701 0.057491299 1.19434 4278190080
0.57302099 0.067382798 1.07129 4278190080
0.571289 0.067382798 1.0726 4278190080
0.39981499 0.0791016 1.19434 4278190080
0.39550799 0.0791016 1.19871 4278190080
0.40505901 0.0791016 1.19434 4278190080
0.40136701 0.082326099 1.19434 4278190080
0.407848 0.0791016 1.19434 4278190080
0.40722701 0.0791016 1.1948299 4278190080
0.41628301 0.0791016 1.19434 4278190080
0.413086 0.084685601 1.19434 4278190080
0.42201 0.0791016 1.19434 4278190080
0.41894501 0.082802899 1.19434 4278190080
0.41894501 0.0791016 1.19689 4278190080
0.38634101 0.067382798 1.2002 4278190080
0.38964799 0.070806302 1.2002 4278190080
0.233493 0.049804699 1.30566 4278190080
0.231445 0.049804699 1.30722 4278190080
0.230195 0.0615234 1.31152 4278190080
0.225586 0.0615234 1.31496 4278190080
0.231445 0.066481799 1.31152 4278190080
0.38866201 0.0615234 1.19434 4278190080
0.38964799 0.063677199 1.19434 4278190080
0.40395701 0.0615234 1.19434 4278190080
0.40722701 0.066377997 1.19434 4278190080
0.40722701 0.0615234 1.19863 4278190080
0.383789 0.073242202 1.20389 4278190080
0.39225399 0.073242202 1.2002 4278190080
0.38964799 0.073242202 1.20207 4278190080
0.56939298 0.073242202 1.07715 4278190080
0.56542999 0.073242202 1.07981 4278190080
0.56542999 0.0513638 1.07129 4278190080
0.225586 0.067382798 1.31663 4278190080
0.231664 0.067382798 1.31152 4278190080
0.231445 0.067382798 1.3117 4278190080
0.37916899 0.049804699 1.19434 4278190080
0.37792999 0.0506065 1.19434 4278190080
0.39274499 0.049804699 1.19434 4278190080
0.38964799 0.0521884 1.19434 4278190080
0.38964799 0.049804699 1.19565 4278190080
0.229105 0.0791016 1.31738 4278190080
0.225586 0.0791016 1.32023 4278190080
0.231445 0.084594399 1.31738 4278190080
0.21386699 0.0556641 1.32265 4278190080
0.22075801 0.0556641 1.31738 4278190080
0.21972699 0.0556641 1.31826 4278190080
0.56542999 0.0615234 1.0750099 4278190080
0.57192302 0.0615234 1.07129 4278190080
0.571289 0.0615234 1.07177 4278190080
0.37792999 0.0556641 1.20268 4278190080
0.38530999 0.0556641 1.2002 4278190080
0.383789 0.0556641 1.202 4278190080
0.56871903 0.0791016 1.07715 4278190080
0.56542999 0.0791016 1.08078 4278190080
0.571289 0.082971796 1.07715 4278190080
0.56779402 0.0556641 1.07129 4278190080
0.56542999 0.0556641 1.07269 4278190080
0.571289 0.060392398 1.07129 4278190080
0.56605202 0.067382798 1.07715 4278190080
0.56542999 0.067382798 1.07768 4278190080
0.234043 0.073242202 1.31152 4278190080
0.231445 0.073242202 1.3135 4278190080
0.37792999 0.067382798 1.2069499 4278190080
0.38389099 0.067382798 1.20605 4278190080
0.383789 0.067850202 1.20605 4278190080
0.383789 0.067382798 1.20621 4278190080
0.393601 0.0791016 1.2002 4278190080
0.38964799 0.0791016 1.20232 4278190080
0.21972699 0.049804699 1.31646 4278190080
0.22578 0.049804699 1.31152 4278190080
0.225586 0.049804699 1.31168 4278190080
0.222103 0.0615234 1.31738 4278190080
0.21972699 0.0615234 1.3191 4278190080
0.38498399 0.0615234 1.2002 4278190080
0.383789 0.0615234 1.20263 4278190080
0.38213199 0.073242202 1.20605 4278190080
0.37792999 0.073242202 1.21033 4278190080
0.383789 0.078570098 1.20605 4278190080
0.21386699 0.0791016 1.3286 4278190080
0.22115999 0.0791016 1.32324 4278190080
0.21972699 0.0791016 1.32425 4278190080
0.224472 0.067382798 1.31738 4278190080
0.21972699 0.067382798 1.32061 4278190080
0.225586 0.070227303 1.31738 4278190080
0.38372001 0.049804699 1.2002 4278190080
0.37792999 0.053838599 1.2002 4278190080
0.383908 0.049804699 1.2002 4278190080
0.383789 0.049804699 1.20024 4278190080
0.56542999 0.081992403 1.08301 4278190080
0.21972699 0.073242202 1.32274 4278190080
0.226605 0.073242202 1.31738 4278190080
0.225586 0.073242202 1.3182 4278190080
0.37792999 0.059990998 1.20605 4278190080
0.56542999 0.066366598 1.07715 4278190080
0.21301401 0.0556641 1.32324 4278190080
0.20800801 0.0556641 1.32658 4278190080
0.21386699 0.059757601 1.32324 4278190080
0.37792999 0.0791016 1.21056 4278190080
0.384069 0.0791016 1.20605 4278190080
0.383789 0.0791016 1.20632 4278190080
0.20800801 0.0615234 1.32778 4278190080
0.21419699 0.0615234 1.32324 4278190080
0.21386699 0.0615234 1.3235 4278190080
0.218518 0.049804699 1.31738 4278190080
0.21386699 0.049804699 1.32113 4278190080
0.21972699 0.052837301 1.31738 4278190080
0.37975699 0.0615234 1.20605 4278190080
0.37792999 0.0615234 1.2086 4278190080
0.383789 0.067011997 1.20605 4278190080
0.21313301 0.0791016 1.3291 4278190080
0.20800801 0.0791016 1.33283 4278190080
0.21386699 0.080745198 1.3291 4278190080
0.216406 0.067382798 1.32324 4278190080
0.21386699 0.067382798 1.32531 4278190080
0.21900401 0.073242202 1.32324 4278190080
0.21386699 0.073242202 1.32692 4278190080
0.21972699 0.075223103 1.32324 4278190080
0.203027 0.0556641 1.3291 4278190080
0.20214801 0.0556641 1.32952 4278190080
0.206094 0.0615234 1.3291 4278190080
0.20214801 0.0615234 1.3318501 4278190080
0.20800801 0.066326 1.3291 4278190080
0.20214801 0.049804699 1.32832 4278190080
0.21123099 0.049804699 1.32324 4278190080
0.20800801 0.049804699 1.32568 4278190080
0.205393 0.0791016 1.33496 4278190080
0.20214801 0.0791016 1.33753 4278190080
0.20800801 0.0836922 1.33496 4278190080
0.20214801 0.067382798 1.33359 4278190080
0.208436 0.067382798 1.3291 4278190080
0.20800801 0.067382798 1.32939 4278190080
0.19761001 0.0556641 1.33496 4278190080
0.196289 0.0556641 1.33697 4278190080
0.210576 0.073242202 1.3291 4278190080
0.20800801 0.073242202 1.3308001 4278190080
0.19862901 0.0615234 1.33496 4278190080
0.196289 0.0615234 1.3386101 4278190080
0.201555 0.049804699 1.3291 4278190080
0.20214801 0.0536137 1.3291 4278190080
0.200387 0.067382798 1.33496 4278190080
0.196289 0.067382798 1.3383501 4278190080
0.20214801 0.0711696 1.33496 4278190080
0.195601 0.0556641 1.34082 4278190080
0.197668 0.0791016 1.34082 4278190080
0.196289 0.0791016 1.34188 4278190080
0.196289 0.073242202 1.34005 4278190080
0.20309401 0.073242202 1.33496 4278190080
0.20214801 0.073242202 1.33574 4278190080
0.196006 0.0615234 1.34082 4278190080
0.19795799 0.049804699 1.33496 4278190080
0.196289 0.049804699 1.3391 4278190080
0.194979 0.0556641 1.34668 4278190080
0.19533999 0.0791016 1.34668 4278190080
0.195833 0.067382798 1.34082 4278190080
0.196115 0.073242202 1.34082 4278190080
0.196289 0.075790003 1.34082 4278190080
0.195039 0.0615234 1.34668 4278190080
0.19605801 0.049804699 1.34082 4278190080
0.194859 0.0556641 1.35254 4278190080
0.19531099 0.067382798 1.34668 4278190080
0.194572 0.0791016 1.35254 4278190080
0.19513901 0.073242202 1.34668 4278190080
0.19441099 0.0615234 1.35254 4278190080
0.19602799 0.049804699 1.34668 4278190080
0.194823 0.067382798 1.35254 4278190080
0.194667 0.0556641 1.3584 4278190080
0.19418401 0.0791016 1.3584 4278190080
0.19459599 0.073242202 1.35254 4278190080
0.194194 0.0615234 1.3584 4278190080
0.195941 0.049804699 1.35254 4278190080
0.194521 0.067382798 1.3584 4278190080
0.19456699 0.0556641 1.36426 4278190080
0.19433001 0.073242202 1.3584 4278190080
0.19390699 0.0791016 1.36426 4278190080
0.19417299 0.0615234 1.36426 4278190080
0.195995 0.049804699 1.3584 4278190080
0.196289 0.049804699 1.36213 4278190080
0.19435801 0.067382798 1.36426 4278190080
0.195952 0.0556641 1.37012 4278190080
0.196289 0.0556641 1.37067 4278190080
0.194039 0.073242202 1.36426 4278190080
0.193817 0.0791016 1.37012 4278190080
0.19435801 0.0615234 1.37012 4278190080
0.196446 0.049804699 1.36426 4278190080
0.196289 0.050256401 1.36426 4278190080
0.194373 0.067382798 1.37012 4278190080
0.198449 0.0556641 1.37598 4278190080
0.196289 0.061137699 1.37598 4278190080
0.19382299 0.073242202 1.37012 4278190080
0.194085 0.0791016 1.37598 4278190080
0.19608299 0.0615234 1.37598 4278190080
0.196289 0.0615234 1.37634 4278190080
0.19741 0.049804699 1.37012 4278190080
0.196289 0.054588798 1.37012 4278190080
0.196024 0.067382798 1.37598 4278190080
0.196289 0.067382798 1.37643 4278190080
0.201518 0.0556641 1.38184 4278190080
0.194355 0.073242202 1.37598 4278190080
0.196289 0.073242202 1.3798701 4278190080
0.195079 0.0791016 1.38184 4278190080
0.196289 0.0791016 1.38403 4278190080
0.200574 0.0615234 1.38184 4278190080
0.20214801 0.0615234 1.3832901 4278190080
0.20037401 0.049804699 1.37598 4278190080
0.20214801 0.049804699 1.37745 4278190080
0.19816899 0.067382798 1.38184 4278190080
0.197284 0.073242202 1.38184 4278190080
0.196289 0.075964101 1.38184 4278190080
0.19785801 0.0791016 1.3877 4278190080
0.20214801 0.054979298 1.38184 4278190080
0.19877499 0.073242202 1.3877 4278190080
0.199184 0.067382798 1.39355 4278190080
0.56412101 0.102539 1.08887 4278190080
0.55957001 0.102539 1.09329 4278190080
0.63574201 0.090820298 1.02839 4278190080
0.64160198 0.090820298 1.0251 4278190080
0.647461 0.090820298 1.02666 4278190080
0.65332001 0.090820298 1.0292799 4278190080
0.56409401 0.096679702 1.08887 4278190080
0.55957001 0.096679702 1.0922101 4278190080
0.64160198 0.0849609 1.02359 4278190080
0.64160198 0.114258 1.03461 4278190080
0.553711 0.0849609 1.09361 4278190080
0.560669 0.0849609 1.08887 4278190080
0.55957001 0.0849609 1.08957 4278190080
0.553711 0.108398 1.09978 4278190080
0.56018603 0.108398 1.09473 4278190080
0.55957001 0.108398 1.09542 4278190080
0.55768102 0.102539 1.09473 4278190080
0.553711 0.102539 1.0980999 4278190080
0.55957001 0.106993 1.09473 4278190080
0.64160198 0.096679702 1.02807 4278190080
0.647461 0.096679702 1.0288 4278190080
0.562608 0.114258 1.09473 4278190080
0.55957001 0.114258 1.09641 4278190080
0.562154 0.090820298 1.08887 4278190080
0.55957001 0.090820298 1.09121 4278190080
0.64160198 0.102539 1.03008 4278190080
0.55576903 0.096679702 1.09473 4278190080
0.553711 0.096679702 1.09603 4278190080
0.63328099 0.090820298 1.03027 4278190080
0.62988299 0.090820298 1.03304 4278190080
0.63574201 0.095757 1.03027 4278190080
0.65398598 0.090820298 1.03027 4278190080
0.65332001 0.092629798 1.03027 4278190080
0.65917999 0.090820298 1.0358599 4278190080
0.63574201 0.108398 1.03409 4278190080
0.64160198 0.108398 1.03282 4278190080
0.647461 0.108398 1.03482 4278190080
0.37207001 0.114258 1.22263 4278190080
0.63995397 0.0849609 1.02441 4278190080
0.63574201 0.0849609 1.02669 4278190080
0.64585799 0.0849609 1.02441 4278190080
0.64160198 0.088383898 1.02441 4278190080
0.647461 0.0849609 1.02464 4278190080
0.65332001 0.0849609 1.02683 4278190080
0.37662801 0.0849609 1.21191 4278190080
0.37207001 0.0849609 1.21558 4278190080
0.62988299 0.114258 1.04081 4278190080
0.63705599 0.114258 1.03613 4278190080
0.63574201 0.114258 1.03688 4278190080
0.64548302 0.114258 1.03613 4278190080
0.64160198 0.11811 1.03613 4278190080
0.647461 0.114258 1.03694 4278190080
0.65332001 0.114258 1.04053 4278190080
0.37207001 0.090820298 1.21684 4278190080
0.55179399 0.0849609 1.09473 4278190080
0.54785198 0.0849609 1.09697 4278190080
0.553711 0.0893998 1.09473 4278190080
0.55204803 0.108398 1.10059 4278190080
0.54785198 0.108398 1.10325 4278190080
0.553711 0.111808 1.10059 4278190080
0.62988299 0.096679702 1.03458 4278190080
0.63643801 0.096679702 1.03027 4278190080
0.63574201 0.096679702 1.03064 4278190080
0.64971101 0.096679702 1.03027 4278190080
0.647461 0.100232 1.03027 4278190080
0.65332001 0.096679702 1.03258 4278190080
0.54199201 0.102539 1.10539 4278190080
0.55008602 0.102539 1.10059 4278190080
0.54785198 0.102539 1.10203 4278190080
0.37207001 0.108398 1.22174 4278190080
0.54785198 0.090820298 1.09813 4278190080
0.55427003 0.090820298 1.09473 4278190080
0.553711 0.090820298 1.0951101 4278190080
0.54785198 0.114258 1.10628 4278190080
0.554555 0.114258 1.10059 4278190080
0.553711 0.114258 1.10129 4278190080
0.64082497 0.102539 1.03027 4278190080
0.63574201 0.102539 1.03228 4278190080
0.64240301 0.102539 1.03027 4278190080
0.64160198 0.102955 1.03027 4278190080
0.647461 0.102539 1.03154 4278190080
0.65332001 0.102539 1.03579 4278190080
0.53613299 0.096679702 1.1063499 4278190080
0.54199201 0.096679702 1.10401 4278190080
0.54786003 0.096679702 1.10059 4278190080
0.54785198 0.096679702 1.10059 4278190080
0.37070301 0.114258 1.22363 4278190080
0.366211 0.114258 1.22698 4278190080
0.37207001 0.117556 1.22363 4278190080
0.368536 0.0849609 1.21777 4278190080
0.366211 0.0849609 1.21917 4278190080
0.633075 0.108398 1.03613 4278190080
0.62988299 0.108398 1.03899 4278190080
0.63574201 0.112622 1.03613 4278190080
0.649701 0.108398 1.03613 4278190080
0.647461 0.111794 1.03613 4278190080
0.65332001 0.108398 1.03778 4278190080
0.63126397 0.0849609 1.03027 4278190080
0.62988299 0.0849609 1.03157 4278190080
0.65768701 0.0849609 1.03027 4278190080
0.65917999 0.0849609 1.03125 4278190080
0.62686598 0.090820298 1.03613 4278190080
0.62402302 0.090820298 1.0389301 4278190080
0.659365 0.090820298 1.03613 4278190080
0.65917999 0.091669098 1.03613 4278190080
0.37073699 0.090820298 1.21777 4278190080
0.366211 0.090820298 1.22104 4278190080
0.37207001 0.093470901 1.21777 4278190080
0.37571201 0.102539 1.21777 4278190080
0.37207001 0.102539 1.22031 4278190080
0.53027302 0.0849609 1.10605 4278190080
0.53613299 0.0849609 1.10314 4278190080
0.542485 0.0849609 1.10059 4278190080
0.54199201 0.0849609 1.10086 4278190080
0.62849599 0.114258 1.04199 4278190080
0.62402302 0.114258 1.0459501 4278190080
0.62988299 0.11701 1.04199 4278190080
0.65461397 0.114258 1.04199 4278190080
0.65332001 0.117386 1.04199 4278190080
0.65917999 0.114258 1.04774 4278190080
0.369037 0.108398 1.22363 4278190080
0.366211 0.108398 1.2254699 4278190080
0.53613299 0.108398 1.11169 4278190080
0.545048 0.108398 1.10645 4278190080
0.54199201 0.108398 1.10885 4278190080
0.62842202 0.096679702 1.03613 4278190080
0.62402302 0.096679702 1.04146 4278190080
0.62988299 0.100759 1.03613 4278190080
0.65686798 0.096679702 1.03613 4278190080
0.65917999 0.096679702 1.03799 4278190080
0.53027302 0.102539 1.11204 4278190080
0.54023099 0.102539 1.10645 4278190080
0.53613299 0.102539 1.10867 4278190080
0.54199201 0.104141 1.10645 4278190080
0.366211 0.096679702 1.22296 4278190080
0.37388599 0.096679702 1.21777 4278190080
0.37207001 0.096679702 1.21904 4278190080
0.53613299 0.090820298 1.1054 4278190080
0.54428101 0.090820298 1.10059 4278190080
0.54199201 0.090820298 1.10243 4278190080
0.54785198 0.096664399 1.10059 4278190080
0.54764402 0.114258 1.10645 4278190080
0.54199201 0.114258 1.11129 4278190080
0.54785198 0.114509 1.10645 4278190080
0.53596002 0.096679702 1.10645 4278190080
0.53027302 0.096679702 1.1105 4278190080
0.53613299 0.096924901 1.10645 4278190080
0.63077801 0.102539 1.03613 4278190080
0.62988299 0.102539 1.0369 4278190080
0.653606 0.102539 1.03613 4278190080
0.65332001 0.103618 1.03613 4278190080
0.65917999 0.102539 1.04119 4278190080
0.36343101 0.114258 1.22949 4278190080
0.36035201 0.114258 1.23211 4278190080
0.35449201 0.0849609 1.2274899 4278190080
0.360598 0.0849609 1.22363 4278190080
0.36035201 0.0849609 1.22382 4278190080
0.62086302 0.090820298 1.04199 4278190080
0.618164 0.090820298 1.04471 4278190080
0.664011 0.090820298 1.04199 4278190080
0.665039 0.090820298 1.04317 4278190080
0.36307701 0.090820298 1.22363 4278190080
0.36035201 0.090820298 1.22615 4278190080
0.36035201 0.102539 1.22881 4278190080
0.367358 0.102539 1.22363 4278190080
0.366211 0.102539 1.22451 4278190080
0.627298 0.108398 1.04199 4278190080
0.62402302 0.108398 1.04497 4278190080
0.65689999 0.108398 1.04199 4278190080
0.65917999 0.108398 1.04389 4278190080
0.624906 0.0849609 1.03613 4278190080
0.62402302 0.0849609 1.03688 4278190080
0.66227502 0.0849609 1.03613 4278190080
0.665039 0.0849609 1.03879 4278190080
0.52958697 0.0849609 1.10645 4278190080
0.524414 0.0849609 1.1092401 4278190080
0.53027302 0.086130999 1.10645 4278190080
0.35449201 0.108398 1.2349401 4278190080
0.361146 0.108398 1.22949 4278190080
0.36035201 0.108398 1.23014 4278190080
0.62229401 0.114258 1.04785 4278190080
0.618164 0.114258 1.05198 4278190080
0.62402302 0.117862 1.04785 4278190080
0.65923601 0.114258 1.04785 4278190080
0.65917999 0.114814 1.04785 4278190080
0.534868 0.108398 1.1123 4278190080
0.53027302 0.108398 1.11543 4278190080
0.53613299 0.109802 1.1123 4278190080
0.529917 0.102539 1.1123 4278190080
0.524414 0.102539 1.11625 4278190080
0.53027302 0.103207 1.1123 4278190080
0.62337798 0.096679702 1.04199 4278190080
0.618164 0.096679702 1.04618 4278190080
0.62402302 0.098253697 1.04199 4278190080
0.66205901 0.096679702 1.04199 4278190080
0.665039 0.096679702 1.04546 4278190080
0.524414 0.090820298 1.11099 4278190080
0.53381199 0.090820298 1.10645 4278190080
0.53027302 0.090820298 1.10787 4278190080
0.540263 0.114258 1.1123 4278190080
0.53613299 0.114258 1.11431 4278190080
0.54199201 0.116003 1.1123 4278190080
0.36523801 0.096679702 1.22363 4278190080
0.36035201 0.096679702 1.22716 4278190080
0.366211 0.099258803 1.22363 4278190080
0.35239401 0.0849609 1.22949 4278190080
0.34863299 0.0849609 1.2331899 4278190080
0.35449201 0.089202903 1.22949 4278190080
0.51855499 0.096679702 1.11686 4278190080
0.52758998 0.096679702 1.1123 4278190080
0.524414 0.096679702 1.1138901 4278190080
0.62532002 0.102539 1.04199 4278190080
0.62402302 0.102539 1.04338 4278190080
0.65966702 0.102539 1.04199 4278190080
0.65917999 0.104287 1.04199 4278190080
0.34863299 0.114258 1.24078 4278190080
0.35607901 0.114258 1.23535 4278190080
0.35449201 0.114258 1.23656 4278190080
0.34863299 0.090820298 1.23506 4278190080
0.35564399 0.090820298 1.22949 4278190080
0.35449201 0.090820298 1.23034 4278190080
0.35951 0.102539 1.22949 4278190080
0.35449201 0.102539 1.23378 4278190080
0.36035201 0.105576 1.22949 4278190080
0.61533397 0.090820298 1.04785 4278190080
0.61230499 0.090820298 1.05062 4278190080
0.66753399 0.090820298 1.04785 4278190080
0.618285 0.0849609 1.04199 4278190080
0.618164 0.0849609 1.04214 4278190080
0.66683102 0.0849609 1.04199 4278190080
0.665039 0.089418799 1.04199 4278190080
0.62068301 0.108398 1.04785 4278190080
0.618164 0.108398 1.04994 4278190080
0.66167802 0.108398 1.04785 4278190080
0.665039 0.108398 1.0517401 4278190080
0.51269501 0.0849609 1.11799 4278190080
0.51923198 0.0849609 1.1123 4278190080
0.51855499 0.0849609 1.11277 4278190080
0.353874 0.108398 1.23535 4278190080
0.34863299 0.108398 1.23859 4278190080
0.35449201 0.109793 1.23535 4278190080
0.61605698 0.114258 1.05371 4278190080
0.61230499 0.114258 1.05864 4278190080
0.618164 0.118279 1.05371 4278190080
0.66377699 0.114258 1.05371 4278190080
0.665039 0.114258 1.05559 4278190080
0.51855499 0.108398 1.1222399 4278190080
0.52672797 0.108398 1.11816 4278190080
0.524414 0.108398 1.11929 4278190080
0.53027302 0.112833 1.11816 4278190080
0.52072102 0.102539 1.11816 4278190080
0.51855499 0.102539 1.1194 4278190080
0.524414 0.106219 1.11816 4278190080
0.61662 0.096679702 1.04785 4278190080
0.61230499 0.096679702 1.05167 4278190080
0.618164 0.100665 1.04785 4278190080
0.66612399 0.096679702 1.04785 4278190080
0.665039 0.100791 1.04785 4278190080
0.357283 0.096679702 1.22949 4278190080
0.35449201 0.096679702 1.23175 4278190080
0.52249998 0.090820298 1.1123 4278190080
0.51855499 0.090820298 1.11511 4278190080
0.524414 0.093218803 1.1123 4278190080
0.51855499 0.114258 1.1239001 4278190080
0.524414 0.114258 1.12143 4278190080
0.531115 0.114258 1.11816 4278190080
0.53027302 0.114258 1.11883 4278190080
0.61902899 0.102539 1.04785 4278190080
0.618164 0.102539 1.04853 4278190080
0.66407502 0.102539 1.04785 4278190080
0.665039 0.102539 1.0487601 4278190080
0.34509799 0.0849609 1.23535 4278190080
0.34277299 0.0849609 1.23675 4278190080
0.51656097 0.096679702 1.11816 4278190080
0.51269501 0.096679702 1.12108 4278190080
0.51855499 0.099656701 1.11816 4278190080
0.34277299 0.102539 1.24096 4278190080
0.352009 0.102539 1.23535 4278190080
0.34863299 0.102539 1.2373 4278190080
0.34796399 0.114258 1.24121 4278190080
0.34277299 0.114258 1.24435 4278190080
0.34863299 0.115554 1.24121 4278190080
0.60786098 0.090820298 1.05371 4278190080
0.60644501 0.090820298 1.05489 4278190080
0.66702002 0.090820298 1.05371 4278190080
0.665039 0.090820298 1.05753 4278190080
0.348122 0.090820298 1.23535 4278190080
0.34277299 0.090820298 1.2386301 4278190080
0.34863299 0.092103802 1.23535 4278190080
0.336914 0.108398 1.24606 4278190080
0.34486699 0.108398 1.24121 4278190080
0.34277299 0.108398 1.2425801 4278190080
0.60644501 0.0849609 1.05231 4278190080
0.61248797 0.0849609 1.04785 4278190080
0.61230499 0.0849609 1.04798 4278190080
0.66957402 0.0849609 1.04785 4278190080
0.51246399 0.0849609 1.11816 4278190080
0.506836 0.0849609 1.1228499 4278190080
0.51269501 0.085450299 1.11816 4278190080
0.61148 0.114258 1.05957 4278190080
0.60644501 0.114258 1.06419 4278190080
0.61230499 0.116968 1.05957 4278190080
0.66663301 0.114258 1.05957 4278190080
0.665039 0.114258 1.06511 4278190080
0.61338401 0.108398 1.05371 4278190080
0.61230499 0.108398 1.05466 4278190080
0.66603899 0.108398 1.05371 4278190080
0.665039 0.111884 1.05371 4278190080
0.51514202 0.108398 1.12402 4278190080
0.51269501 0.108398 1.12599 4278190080
0.34277299 0.096679702 1.23991 4278190080
0.350135 0.096679702 1.23535 4278190080
0.34863299 0.096679702 1.23642 4278190080
0.506836 0.090820298 1.12293 4278190080
0.51498002 0.090820298 1.11816 4278190080
0.51269501 0.090820298 1.1202101 4278190080
0.51833099 0.114258 1.12402 4278190080
0.51269501 0.114258 1.12753 4278190080
0.51855499 0.114704 1.12402 4278190080
0.506836 0.102539 1.1286 4278190080
0.51298201 0.102539 1.12402 4278190080
0.51269501 0.102539 1.1243 4278190080
0.60978401 0.096679702 1.05371 4278190080
0.60644501 0.096679702 1.05655 4278190080
0.61230499 0.101906 1.05371 4278190080
0.66751897 0.096679702 1.05371 4278190080
0.33105499 0.0849609 1.2457 4278190080
0.33694601 0.0849609 1.24121 4278190080
0.336914 0.0849609 1.24123 4278190080
0.60644501 0.102539 1.05794 4278190080
0.61258501 0.102539 1.05371 4278190080
0.61230499 0.102539 1.0539401 4278190080
0.66773498 0.102539 1.05371 4278190080
0.50097698 0.096679702 1.1298 4278190080
0.50873399 0.096679702 1.12402 4278190080
0.506836 0.096679702 1.12512 4278190080
0.51269501 0.102026 1.12402 4278190080
0.34240001 0.102539 1.24121 4278190080
0.336914 0.102539 1.24492 4278190080
0.34277299 0.103401 1.24121 4278190080
0.33105499 0.090820298 1.2469 4278190080
0.338644 0.090820298 1.24121 4278190080
0.336914 0.090820298 1.24239 4278190080
0.33875999 0.114258 1.24707 4278190080
0.336914 0.114258 1.24845 4278190080
0.59472698 0.090820298 1.06411 4278190080
0.60075098 0.090820298 1.05957 4278190080
0.600586 0.090820298 1.05972 4278190080
0.66416901 0.090820298 1.05957 4278190080
0.665039 0.094229601 1.05957 4278190080
0.50513601 0.0849609 1.12402 4278190080
0.50097698 0.0849609 1.12635 4278190080
0.33569899 0.108398 1.24707 4278190080
0.33105499 0.108398 1.25103 4278190080
0.336914 0.111005 1.24707 4278190080
0.60505497 0.0849609 1.05371 4278190080
0.600586 0.0849609 1.0579 4278190080
0.60644501 0.088131897 1.05371 4278190080
0.66656798 0.0849609 1.05371 4278190080
0.60749203 0.108398 1.05957 4278190080
0.60644501 0.108398 1.06111 4278190080
0.66779101 0.108398 1.05957 4278190080
0.665039 0.108398 1.06361 4278190080
0.50097698 0.108398 1.1336 4278190080
0.50781 0.108398 1.12988 4278190080
0.506836 0.108398 1.13037 4278190080
0.604729 0.114258 1.06543 4278190080
0.600586 0.114258 1.0688 4278190080
0.60644501 0.119394 1.06543 4278190080
0.664931 0.114258 1.06543 4278190080
0.665039 0.119083 1.06543 4278190080
0.34079 0.096679702 1.24121 4278190080
0.336914 0.096679702 1.2437299 4278190080
0.50097698 0.114258 1.13429 4278190080
0.50966001 0.114258 1.12988 4278190080
0.506836 0.114258 1.1325001 4278190080
0.505292 0.090820298 1.12402 4278190080
0.50097698 0.090820298 1.12814 4278190080
0.506836 0.093750797 1.12402 4278190080
0.503012 0.102539 1.12988 4278190080
0.50097698 0.102539 1.1307499 4278190080
0.506836 0.10689 1.12988 4278190080
0.60282201 0.096679702 1.05957 4278190080
0.600586 0.096679702 1.0614001 4278190080
0.66576999 0.096679702 1.05957 4278190080
0.665039 0.096679702 1.06221 4278190080
0.32914901 0.0849609 1.24707 4278190080
0.32519501 0.0849609 1.24993 4278190080
0.60499799 0.102539 1.05957 4278190080
0.600586 0.102539 1.06501 4278190080
0.60644501 0.105919 1.05957 4278190080
0.66681701 0.102539 1.05957 4278190080
0.665039 0.102539 1.0615799 4278190080
0.50084698 0.096679702 1.12988 4278190080
0.49511701 0.096679702 1.13427 4278190080
0.50097698 0.097177997 1.12988 4278190080
0.32519501 0.114258 1.25761 4278190080
0.33126801 0.114258 1.25293 4278190080
0.33105499 0.114258 1.25309 4278190080
0.333913 0.102539 1.24707 4278190080
0.33105499 0.102539 1.24919 4278190080
0.33083099 0.090820298 1.24707 4278190080
0.32519501 0.090820298 1.25113 4278190080
0.33105499 0.091939703 1.24707 4278190080
0.48925799 0.0849609 1.13398 4278190080
0.49615899 0.0849609 1.12988 4278190080
0.49511701 0.0849609 1.13053 4278190080
0.59243202 0.090820298 1.06543 4278190080
0.58886701 0.090820298 1.06771 4278190080
0.59472698 0.094986297 1.06543 4278190080
0.6627 0.090820298 1.06543 4278190080
0.59472698 0.108398 1.06997 4278190080
0.60095203 0.108398 1.06543 4278190080
0.600586 0.108398 1.06564 4278190080
0.664258 0.108398 1.06543 4278190080
0.32853001 0.108398 1.25293 4278190080
0.32519501 0.108398 1.2555701 4278190080
0.33105499 0.113806 1.25293 4278190080
0.59826601 0.0849609 1.05957 4278190080
0.59472698 0.0849609 1.06256 4278190080
0.600586 0.090403803 1.05957 4278190080
0.66528702 0.0849609 1.05957 4278190080
0.665039 0.086205699 1.05957 4278190080
0.48925799 0.108398 1.14035 4278190080
0.49807101 0.108398 1.13574 4278190080
0.49511701 0.108398 1.13753 4278190080
0.32519501 0.096679702 1.25208 4278190080
0.332055 0.096679702 1.24707 4278190080
0.33105499 0.096679702 1.2478 4278190080
0.58886701 0.114258 1.07517 4278190080
0.59778303 0.114258 1.07129 4278190080
0.59472698 0.114258 1.07344 4278190080
0.600586 0.118064 1.07129 4278190080
0.66207802 0.114258 1.07129 4278190080
0.58886701 0.096679702 1.0691 4278190080
0.595465 0.096679702 1.06543 4278190080
0.59472698 0.096679702 1.06598 4278190080
0.664222 0.096679702 1.06543 4278190080
0.48925799 0.090820298 1.13545 4278190080
0.49697 0.090820298 1.12988 4278190080
0.49511701 0.090820298 1.1306601 4278190080
0.31347701 0.0849609 1.25754 4278190080
0.320755 0.0849609 1.25293 4278190080
0.319336 0.0849609 1.25387 4278190080
0.48925799 0.102539 1.1397901 4278190080
0.49586201 0.102539 1.13574 4278190080
0.49511701 0.102539 1.1365 4278190080
0.498763 0.114258 1.13574 4278190080
0.49511701 0.114258 1.13934 4278190080
0.50097698 0.117651 1.13574 4278190080
0.319336 0.102539 1.25841 4278190080
0.32609901 0.102539 1.25293 4278190080
0.32519501 0.102539 1.25361 4278190080
0.494147 0.096679702 1.13574 4278190080
0.48925799 0.096679702 1.14046 4278190080
0.49511701 0.10033 1.13574 4278190080
0.32374001 0.114258 1.25879 4278190080
0.319336 0.114258 1.26217 4278190080
0.32519501 0.117454 1.25879 4278190080
0.59997302 0.102539 1.06543 4278190080
0.59472698 0.102539 1.0681601 4278190080
0.600586 0.106238 1.06543 4278190080
0.66233599 0.102539 1.06543 4278190080
0.31347701 0.090820298 1.2585 4278190080
0.322411 0.090820298 1.25293 4278190080
0.319336 0.090820298 1.25501 4278190080
0.486965 0.0849609 1.13574 4278190080
0.48339799 0.0849609 1.1389 4278190080
0.57714802 0.090820298 1.07564 4278190080
0.58373398 0.090820298 1.07129 4278190080
0.58300799 0.090820298 1.07174 4278190080
0.58300799 0.0849609 1.07069 4278190080
0.59000897 0.0849609 1.06543 4278190080
0.58886701 0.0849609 1.06609 4278190080
0.31347701 0.108398 1.2641799 4278190080
0.321165 0.108398 1.25879 4278190080
0.319336 0.108398 1.26015 4278190080
0.59310901 0.108398 1.07129 4278190080
0.58886701 0.108398 1.07356 4278190080
0.59472698 0.110612 1.07129 4278190080
0.66131097 0.108398 1.07129 4278190080
0.48770699 0.108398 1.1416 4278190080
0.48925799 0.111792 1.1416 4278190080
0.489023 0.090820298 1.13574 4278190080
0.48339799 0.090820298 1.1415499 4278190080
0.48925799 0.0911415 1.13574 4278190080
0.32408801 0.096679702 1.25293 4278190080
0.319336 0.096679702 1.25649 4278190080
0.32519501 0.099923797 1.25293 4278190080
0.48339799 0.114258 1.1469899 4278190080
0.49098 0.114258 1.1416 4278190080
0.48925799 0.114258 1.14231 4278190080
0.48781401 0.102539 1.1416 4278190080
0.48339799 0.102539 1.14666 4278190080
0.585666 0.096679702 1.07129 4278190080
0.58300799 0.096679702 1.0736099 4278190080
0.58886701 0.101094 1.07129 4278190080
0.66489601 0.096679702 1.07129 4278190080
0.31180799 0.0849609 1.25879 4278190080
0.30761701 0.0849609 1.2618999 4278190080
0.58505499 0.114258 1.07715 4278190080
0.58300799 0.114258 1.07877 4278190080
0.66106099 0.114258 1.07715 4278190080
0.318753 0.102539 1.25879 4278190080
0.31347701 0.102539 1.2622 4278190080
0.319336 0.103761 1.25879 4278190080
0.48794001 0.096679702 1.1416 4278190080
0.48339799 0.096679702 1.14605 4278190080
0.30761701 0.114258 1.26999 4278190080
0.31562099 0.114258 1.26465 4278190080
0.31347701 0.114258 1.26608 4278190080
0.31305999 0.090820298 1.25879 4278190080
0.30761701 0.090820298 1.26276 4278190080
0.31347701 0.091947697 1.25879 4278190080
0.48169199 0.0849609 1.1416 4278190080
0.477539 0.0849609 1.14521 4278190080
0.58995402 0.102539 1.07129 4278190080
0.58886701 0.102539 1.072 4278190080
0.66101599 0.102539 1.07129 4278190080
0.477539 0.108398 1.15139 4278190080
0.48453301 0.108398 1.14746 4278190080
0.48339799 0.112853 1.14746 4278190080
0.48339799 0.108398 1.14896 4278190080
0.58216298 0.0849609 1.07129 4278190080
0.57714802 0.0849609 1.07487 4278190080
0.58300799 0.088359401 1.07129 4278190080
0.31286201 0.108398 1.26465 4278190080
0.30761701 0.108398 1.26845 4278190080
0.31347701 0.109779 1.26465 4278190080
0.57578897 0.090820298 1.07715 4278190080
0.571289 0.090820298 1.08149 4278190080
0.57714802 0.0931511 1.07715 4278190080
0.58467001 0.108398 1.07715 4278190080
0.58300799 0.108398 1.07915 4278190080
0.48154199 0.102539 1.14746 4278190080
0.477539 0.102539 1.14975 4278190080
0.48339799 0.104717 1.14746 4278190080
0.483266 0.090820298 1.1416 4278190080
0.477539 0.090820298 1.1446199 4278190080
0.48339799 0.090910897 1.1416 4278190080
0.29589799 0.0849609 1.2692 4278190080
0.303666 0.0849609 1.26465 4278190080
0.30175799 0.0849609 1.26599 4278190080
0.30761701 0.096679702 1.26447 4278190080
0.315557 0.096679702 1.25879 4278190080
0.31347701 0.096679702 1.25999 4278190080
0.48286799 0.114258 1.14746 4278190080
0.477539 0.114258 1.15212 4278190080
0.48339799 0.11606 1.14746 4278190080
0.571289 0.114258 1.0879 4278190080
0.57880503 0.114258 1.08301 4278190080
0.57714802 0.114258 1.08456 4278190080
0.571289 0.096679702 1.08242 4278190080
0.57965302 0.096679702 1.07715 4278190080
0.57714802 0.096679702 1.0791301 4278190080
0.58300799 0.101059 1.07715 4278190080
0.48038101 0.096679702 1.14746 4278190080
0.477539 0.096679702 1.14908 4278190080
0.30175799 0.102539 1.27037 4278190080
0.30993101 0.102539 1.26465 4278190080
0.30761701 0.102539 1.2661901 4278190080
0.472821 0.0849609 1.14746 4278190080
0.47167999 0.0849609 1.14834 4278190080
0.30481601 0.090820298 1.26465 4278190080
0.30175799 0.090820298 1.26667 4278190080
0.30695301 0.114258 1.27051 4278190080
0.30175799 0.114258 1.27468 4278190080
0.30761701 0.115556 1.27051 4278190080
0.57714802 0.102539 1.08214 4278190080
0.58390301 0.102539 1.07715 4278190080
0.58300799 0.102539 1.07812 4278190080
0.30445099 0.108398 1.27051 4278190080
0.30175799 0.108398 1.27226 4278190080
0.47412801 0.108398 1.15332 4278190080
0.47167999 0.108398 1.1551 4278190080
0.57315099 0.0849609 1.07715 4278190080
0.571289 0.0849609 1.07877 4278190080
0.56922102 0.090820298 1.08301 4278190080
0.56542999 0.090820298 1.08596 4278190080
0.571289 0.108398 1.08658 4278190080
0.57868701 0.108398 1.08301 4278190080
0.57714802 0.108398 1.08403 4278190080
0.47416499 0.102539 1.15332 4278190080
0.47167999 0.102539 1.1550601 4278190080
0.293966 0.0849609 1.27051 4278190080
0.290039 0.0849609 1.27321 4278190080
0.29589799 0.089555897 1.27051 4278190080
0.47386301 0.090820298 1.14746 4278190080
0.47167999 0.090820298 1.15149 4278190080
0.477539 0.094811201 1.14746 4278190080
0.30734199 0.096679702 1.26465 4278190080
0.30175799 0.096679702 1.26846 4278190080
0.30761701 0.097282097 1.26465 4278190080
0.56982201 0.114258 1.08887 4278190080
0.56542999 0.114258 1.0931 4278190080
0.571289 0.116479 1.08887 4278190080
0.46582001 0.114258 1.1585 4278190080
0.47600001 0.114258 1.15332 4278190080
0.47167999 0.114258 1.15613 4278190080
0.46853399 0.0849609 1.15332 4278190080
0.46582001 0.0849609 1.15806 4278190080
0.46582001 0.096679702 1.15868 4278190080
0.473528 0.096679702 1.15332 4278190080
0.47167999 0.096679702 1.15458 4278190080
0.57019901 0.096679702 1.08301 4278190080
0.56542999 0.096679702 1.08723 4278190080
0.571289 0.0979084 1.08301 4278190080
0.30157 0.102539 1.27051 4278190080
0.29589799 0.102539 1.27463 4278190080
0.30175799 0.102965 1.27051 4278190080
0.290039 0.090820298 1.2754 4278190080
0.296435 0.090820298 1.27051 4278190080
0.29589799 0.090820298 1.27088 4278190080
0.29941201 0.114258 1.27637 4278190080
0.29589799 0.114258 1.27889 4278190080
0.30175799 0.119203 1.27637 4278190080
0.290039 0.108398 1.28136 4278190080
0.29644701 0.108398 1.27637 4278190080
0.29589799 0.108398 1.2768 4278190080
0.56542999 0.102539 1.08764 4278190080
0.57561302 0.102539 1.08301 4278190080
0.571289 0.102539 1.08492 4278190080
0.57714802 0.104711 1.08301 4278190080
0.56761801 0.0849609 1.08301 4278190080
0.56542999 0.0849609 1.08513 4278190080
0.45410201 0.108398 1.16348 4278190080
0.459961 0.108398 1.16036 4278190080
0.466396 0.108398 1.15918 4278190080
0.46582001 0.110548 1.15918 4278190080
0.46582001 0.108398 1.15957 4278190080
0.45410201 0.102539 1.1644 4278190080
0.459961 0.102539 1.16245 4278190080
0.465877 0.102539 1.15918 4278190080
0.46582001 0.102539 1.15923 4278190080
0.56784999 0.108398 1.08887 4278190080
0.56542999 0.108398 1.09058 4278190080
0.471075 0.090820298 1.15332 4278190080
0.46582001 0.090820298 1.1586699 4278190080
0.47167999 0.092716798 1.15332 4278190080
0.28613201 0.0849609 1.27637 4278190080
0.28417999 0.0849609 1.2779599 4278190080
0.29885599 0.096679702 1.27051 4278190080
0.29589799 0.096679702 1.2725 4278190080
0.45410201 0.114258 1.16497 4278190080
0.464809 0.114258 1.15918 4278190080
0.459961 0.114258 1.16247 4278190080
0.46484199 0.096679702 1.15918 4278190080
0.46582001 0.102045 1.15918 4278190080
0.43652299 0.0849609 1.16416 4278190080
0.463211 0.0849609 1.15918 4278190080
0.459961 0.0849609 1.1604 4278190080
0.29358801 0.102539 1.27637 4278190080
0.290039 0.102539 1.27911 4278190080
0.29589799 0.107257 1.27637 4278190080
0.28874299 0.090820298 1.27637 4278190080
0.28417999 0.090820298 1.27988 4278190080
0.290039 0.094858103 1.27637 4278190080
0.28417999 0.114258 1.28693 4278190080
0.29132101 0.114258 1.28223 4278190080
0.290039 0.114258 1.28312 4278190080
0.28876901 0.108398 1.28223 4278190080
0.28417999 0.108398 1.28532 4278190080
0.290039 0.111222 1.28223 4278190080
0.45195201 0.108398 1.16504 4278190080
0.44824201 0.108398 1.16757 4278190080
0.56542999 0.105146 1.08887 4278190080
0.44238299 0.102539 1.17055 4278190080
0.45316899 0.102539 1.16504 4278190080
0.44824201 0.102539 1.16813 4278190080
0.272461 0.0849609 1.2868201 4278190080
0.27863401 0.0849609 1.28223 4278190080
0.27832001 0.0849609 1.28248 4278190080
0.28417999 0.096679702 1.28152 4278190080
0.29063401 0.096679702 1.27637 4278190080
0.290039 0.096679702 1.2768199 4278190080
0.44238299 0.090820298 1.16398 4278190080
0.45410201 0.090820298 1.1633199 4278190080
0.46460399 0.090820298 1.15918 4278190080
0.459961 0.090820298 1.16223 4278190080
0.44238299 0.096679702 1.16761 4278190080
0.44824201 0.096679702 1.16784 4278190080
0.45410201 0.101796 1.16504 4278190080
0.45410201 0.096679702 1.16953 4278190080
0.46024901 0.096679702 1.16504 4278190080
0.459961 0.097346097 1.16504 4278190080
0.459961 0.096679702 1.16532 4278190080
0.45399001 0.114258 1.16504 4278190080
0.44824201 0.114258 1.16933 4278190080
0.45410201 0.114467 1.16504 4278190080
0.436084 0.0849609 1.16504 4278190080
0.44063601 0.0849609 1.16504 4278190080
0.43652299 0.0860167 1.16504 4278190080
0.44238299 0.086971603 1.16504 4278190080
0.44238299 0.0849609 1.16678 4278190080
0.44824201 0.0849609 1.16756 4278190080
0.45778301 0.0849609 1.16504 4278190080
0.45410201 0.0894766 1.16504 4278190080
0.45410201 0.0849609 1.1687 4278190080
0.27832001 0.102539 1.28791 4278190080
0.28604901 0.102539 1.28223 4278190080
0.28417999 0.102539 1.28364 4278190080
0.43652299 0.108398 1.17638 4278190080
0.443685 0.108398 1.1709 4278190080
0.44238299 0.108398 1.1720099 4278190080
0.281084 0.090820298 1.28223 4278190080
0.27832001 0.090820298 1.28425 4278190080
0.280628 0.108398 1.28809 4278190080
0.27832001 0.108398 1.28988 4278190080
0.28272599 0.114258 1.28809 4278190080
0.27832001 0.114258 1.29163 4278190080
0.28417999 0.11738 1.28809 4278190080
0.441953 0.102539 1.1709 4278190080
0.43652299 0.102539 1.1751 4278190080
0.44238299 0.104163 1.1709 4278190080
0.28329301 0.096679702 1.28223 4278190080
0.27832001 0.096679702 1.28606 4278190080
0.28417999 0.098546401 1.28223 4278190080
0.27060899 0.0849609 1.28809 4278190080
0.26660201 0.0849609 1.29084 4278190080
0.272461 0.090196803 1.28809 4278190080
0.44149399 0.090820298 1.16504 4278190080
0.444069 0.090820298 1.16504 4278190080
0.44238299 0.092675596 1.16504 4278190080
0.45182499 0.090820298 1.16504 4278190080
0.44824201 0.090820298 1.16941 4278190080
0.45410201 0.092769898 1.16504 4278190080
0.459961 0.095989503 1.16504 4278190080
0.43928799 0.096679702 1.1709 4278190080
0.43652299 0.096679702 1.17453 4278190080
0.44612601 0.114258 1.1709 4278190080
0.44238299 0.114258 1.17364 4278190080
0.44824201 0.119097 1.1709 4278190080
0.42480499 0.0849609 1.17646 4278190080
0.27807799 0.102539 1.28809 4278190080
0.272461 0.102539 1.29228 4278190080
0.27832001 0.103065 1.28809 4278190080
0.26660201 0.090820298 1.29231 4278190080
0.27268699 0.090820298 1.28809 4278190080
0.272461 0.090820298 1.2882299 4278190080
0.26660201 0.108398 1.29852 4278190080
0.27274701 0.108398 1.29395 4278190080
0.272461 0.108398 1.29415 4278190080
0.43588999 0.108398 1.17676 4278190080
0.430664 0.108398 1.18003 4278190080
0.43652299 0.109605 1.17676 4278190080
0.27524701 0.114258 1.29395 4278190080
0.272461 0.114258 1.29597 4278190080
0.42480499 0.102539 1.18181 4278190080
0.43363699 0.102539 1.17676 4278190080
0.430664 0.102539 1.1784199 4278190080
0.25488299 0.0849609 1.29889 4278190080
0.26222399 0.0849609 1.29395 4278190080
0.26074201 0.0849609 1.29503 4278190080
0.27540699 0.096679702 1.28809 4278190080
0.272461 0.096679702 1.29015 4278190080
0.42480499 0.096679702 1.18081 4278190080
0.43269199 0.096679702 1.17676 4278190080
0.430664 0.096679702 1.17784 4278190080
0.430664 0.090820298 1.17542 4278190080
0.437877 0.090820298 1.1709 4278190080
0.43652299 0.090820298 1.1727999 4278190080
0.430664 0.114258 1.18231 4278190080
0.43849599 0.114258 1.17676 4278190080
0.43652299 0.114258 1.17823 4278190080
0.42459601 0.0849609 1.17676 4278190080
0.42542699 0.0849609 1.17676 4278190080
0.42480499 0.085342303 1.17676 4278190080
0.430664 0.089109302 1.17676 4278190080
0.430664 0.0849609 1.17897 4278190080
0.43934 0.0849609 1.17676 4278190080
0.43652299 0.088253997 1.17676 4278190080
0.43652299 0.0849609 1.18177 4278190080
0.27016199 0.102539 1.29395 4278190080
0.26660201 0.102539 1.29637 4278190080
0.272461 0.107733 1.29395 4278190080
0.42706299 0.108398 1.18262 4278190080
0.42480499 0.108398 1.1844 4278190080
0.26431799 0.090820298 1.29395 4278190080
0.26074201 0.090820298 1.29638 4278190080
0.26660201 0.094936296 1.29395 4278190080
0.26474601 0.108398 1.2998 4278190080
0.26074201 0.108398 1.3024499 4278190080
0.26660201 0.113884 1.2998 4278190080
0.26074201 0.114258 1.30433 4278190080
0.26672801 0.114258 1.2998 4278190080
0.26660201 0.114258 1.29989 4278190080
0.25377899 0.0849609 1.2998 4278190080
0.24902301 0.0849609 1.3037699 4278190080
0.25488299 0.087337397 1.2998 4278190080
0.26074201 0.096679702 1.29813 4278190080
0.26751199 0.096679702 1.29395 4278190080
0.26660201 0.096679702 1.29458 4278190080
0.42390901 0.102539 1.18262 4278190080
0.41894501 0.102539 1.18762 4278190080
0.42480499 0.104462 1.18262 4278190080
0.429524 0.090820298 1.17676 4278190080
0.430664 0.094278 1.17676 4278190080
0.42293501 0.096679702 1.18262 4278190080
0.41894501 0.096679702 1.18741 4278190080
0.42246699 0.0849609 1.18262 4278190080
0.42480499 0.090200998 1.18262 4278190080
0.430246 0.114258 1.18262 4278190080
0.42480499 0.114258 1.1866601 4278190080
0.430664 0.11558 1.18262 4278190080
0.413086 0.108398 1.1936899 4278190080
0.420073 0.108398 1.18848 4278190080
0.41894501 0.108398 1.18941 4278190080
0.25488299 0.102539 1.30493 4278190080
0.26204801 0.102539 1.2998 4278190080
0.26074201 0.102539 1.30084 4278190080
