# .PCD v0.7 - Point Cloud Data file format
VERSION 0.7
FIELDS x y z
SIZE 4 4 4
TYPE F F F
COUNT 1 1 1
WIDTH 1369
HEIGHT 1
VIEWPOINT 0 0 0 1 0 0 0
POINTS 1369
DATA ascii
-0.76957262 -0.24088138 -0.48923624
-0.78720927 -0.23930426 -0.52971911
-0.80682319 -0.23682234 -0.55419922
-0.72068596 -0.27955392 -0.31858677
-0.75990355 0.59980917 0.14700845
-0.76958102 0.59875411 0.11889686
-0.74612486 0.56183851 0.1449514
-0.75850844 0.56221843 0.10651508
-0.77368385 0.54654914 0.092793345
-0.7399894 0.51941514 0.14030147
-0.74292314 0.51993448 0.10079508
-0.76576793 0.51648462 0.083394602
-0.73500484 0.47661167 0.13421269
-0.73200411 0.47773606 0.10213268
-0.75737774 0.47330165 0.075458884
-0.73392451 0.43061247 0.12942123
-0.72756606 0.43199912 0.10270318
-0.75204659 0.43047634 0.067180902
-0.73711431 0.40241382 0.12920871
-0.72483426 0.38839981 0.10291918
-0.74628985 0.38688153 0.059099048
-0.72148746 0.34469628 0.097454309
-0.73818326 0.34452716 0.05342865
-0.75629497 0.33124578 0.036999896
-0.71904099 0.30158985 0.091767743
-0.73023605 0.30170161 0.050939754
-0.75001347 0.29705966 0.031628758
-0.71716887 0.25650761 0.084555432
-0.72458357 0.25622979 0.047250032
-0.74491197 0.25352314 0.025393605
-0.71353906 0.21156615 0.083185449
-0.71815544 0.21270886 0.048220977
-0.7380206 0.21127918 0.021781996
-0.70762706 0.1682727 0.076927513
-0.71142101 0.16987339 0.044319227
-0.73160166 0.16701469 0.014951602
-0.70422935 0.12989053 0.071411654
-0.7056424 0.12729388 0.043709859
-0.72445095 0.12658566 0.011339903
-0.7032088 0.082418032 0.042145997
-0.71679133 0.081733964 0.011424273
-0.70626372 0.050500758 0.031289548
-0.71556193 0.051107995 0.014828488
-0.77267283 -0.14671575 -0.30961627
-0.78658032 -0.14683676 -0.34220988
-0.7988252 -0.14582759 -0.38524806
-0.81347167 -0.14533694 -0.42599061
-0.83324337 -0.14703748 -0.46638393
-0.85057074 -0.14785968 -0.50525743
-0.86837757 -0.14958675 -0.54539478
-0.88555992 -0.15314943 -0.58624089
-0.90062463 -0.15370317 -0.61317003
-0.75348818 -0.19315317 -0.22878586
-0.75441235 -0.17933539 -0.26492876
-0.75787538 -0.16140208 -0.29508802
-0.79305416 -0.15558812 -0.3486383
-0.78660125 -0.15132299 -0.40739471
-0.80153656 -0.15236224 -0.44896495
-0.810507 -0.15291128 -0.47389412
-0.82946229 -0.15437344 -0.5181731
-0.84624898 -0.15733239 -0.55598307
-0.86688018 -0.17161453 -0.60141295
-0.88514978 -0.17435834 -0.62056869
-0.75000912 -0.21469811 -0.23005347
-0.7421518 -0.22166324 -0.25910932
-0.83499527 -0.24063337 -0.47684985
-0.84402591 -0.23118964 -0.50886685
-0.84756535 -0.23363519 -0.5587514
-0.86153609 -0.21481287 -0.59139001
-0.73622167 -0.25997853 -0.27637607
-0.74793422 -0.26979923 -0.30873537
-0.76221925 -0.25859261 -0.34889179
-0.78193927 -0.25135541 -0.39101204
-0.79564154 -0.25286555 -0.43313494
-0.81005752 -0.25083905 -0.47229791
-0.82111067 -0.24560623 -0.51715267
-0.8260265 -0.24005811 -0.55097026
-0.72880632 -0.28133428 -0.31563121
-0.79964566 0.63097358 0.16167837
-0.81083721 0.63187712 0.13547477
-0.78942871 0.59864044 0.16331369
-0.80109006 0.60318673 0.11563514
-0.81996995 0.58617324 0.10572584
-0.77729136 0.55562544 0.15661114
-0.79811066 0.55100203 0.13873231
-0.80482399 0.55457103 0.096874431
-0.76685852 0.51494646 0.14922464
-0.79069251 0.50701499 0.13648613
-0.79867047 0.51235354 0.085327521
-0.75849223 0.47250333 0.14396584
-0.78311145 0.46575129 0.13100259
-0.79381663 0.46880257 0.073896915
-0.75394183 0.4260124 0.13786373
-0.77781457 0.42303103 0.12534046
-0.78986806 0.42699146 0.061481878
-0.74789506 0.39524138 0.13329184
-0.76863182 0.37822384 0.12246209
-0.78400207 0.39335066 0.052992851
-0.78878886 0.37216908 0.048818842
-0.75953108 0.33562708 0.12097281
-0.78301162 0.33872479 0.040044293
-0.75065857 0.29442805 0.11709782
-0.77678287 0.29280046 0.028107524
-0.74016452 0.25043371 0.11118282
-0.77498126 0.25089258 0.01833643
-0.73482132 0.20575589 0.10672903
-0.76696026 0.20672117 0.0090878308
-0.72559315 0.16355243 0.099155366
-0.75827658 0.16644931 0.0019608885
-0.77887779 0.15388039 -0.002289474
-0.72286069 0.12079545 0.090452895
-0.7447058 0.12052062 -0.0037165731
-0.76882696 0.11768913 -0.0082601607
-0.72262239 0.077422954 0.082871348
-0.70802879 0.074921086 0.064176038
-0.7377696 0.075324401 -0.0039436519
-0.76364881 0.076027282 -0.0099333525
-0.72304434 0.04080534 0.078598246
-0.71367836 0.030835792 0.052895188
-0.7329914 0.033209614 0.0025648326
-0.76078391 0.035369165 -0.010064274
-0.72592574 -0.005219467 0.048415124
-0.74034387 -0.0066715255 0.011848032
-0.79667711 -0.16105957 -0.21305947
-0.80072224 -0.15512344 -0.24556582
-0.80923098 -0.14658111 -0.28513181
-0.8267712 -0.14669164 -0.33155632
-0.84233546 -0.15239656 -0.36709332
-0.85588759 -0.14090008 -0.41099632
-0.87030041 -0.14026445 -0.45162684
-0.88767219 -0.13963531 -0.49368972
-0.90389764 -0.14025803 -0.5351429
-0.9173975 -0.14369886 -0.57589269
-0.93294042 -0.14991754 -0.61279446
-0.77205843 -0.20604035 -0.14007993
-0.77126491 -0.19032717 -0.17047195
-0.77231628 -0.1800406 -0.20833725
-0.77769089 -0.16695417 -0.24404606
-0.90394115 -0.19003642 -0.58628929
-0.9254483 -0.17575732 -0.61201441
-0.77044988 -0.21470755 -0.1406654
-0.76218754 -0.22827394 -0.17320363
-0.75538856 -0.23008239 -0.21344578
-0.8404147 -0.24385846 -0.38597256
-0.8407656 -0.23249185 -0.41483149
-0.8456735 -0.2350641 -0.45426342
-0.85349202 -0.23443606 -0.50316316
-0.86340022 -0.23355865 -0.52965379
-0.8839792 -0.2161182 -0.57461309
-0.77038383 -0.25583997 -0.18409875
-0.76872993 -0.25669512 -0.21347307
-0.77381754 -0.25890756 -0.25244048
-0.79166251 -0.26236326 -0.29292473
-0.80682993 -0.26250389 -0.33288431
-0.81753528 -0.25284415 -0.37480289
-0.82480091 -0.25070471 -0.42226541
-0.83254325 -0.24695468 -0.45178124
-0.73708606 -0.81154239 -0.37716419
-0.74023855 -0.80991757 -0.39576331
-0.72715396 -0.83612919 -0.37663767
-0.73462754 -0.83666897 -0.40500578
-0.72173661 -0.88889545 -0.37394458
-0.73235756 -0.88311106 -0.39362824
-0.71546817 -0.92051005 -0.37328178
-0.72582722 -0.91534543 -0.39190948
-0.72053635 -0.9454689 -0.37973318
-0.86321473 0.65823805 0.15238245
-0.832362 0.63649541 0.16742682
-0.85327858 0.63559777 0.14445964
-0.82023764 0.60753906 0.16333771
-0.84728402 0.58987963 0.14217894
-0.84075415 0.58715326 0.11523509
-0.83839035 0.54726607 0.14134742
-0.84065986 0.54560208 0.11191116
-0.824072 0.50575745 0.13854311
-0.83578199 0.50405288 0.10620482
-0.82060921 0.45927054 0.1316914
-0.83121836 0.45988131 0.090850726
-0.81481886 0.41559976 0.12047841
-0.83043224 0.41773742 0.08120729
-0.81019884 0.37682557 0.11013167
-0.82750732 0.37184703 0.079502925
-0.81698632 0.3703846 0.060768634
-0.78919309 0.33261672 0.10235706
-0.81828892 0.33007398 0.08598651
-0.81805378 0.32987237 0.055029884
-0.77976704 0.28578281 0.10800822
-0.81133133 0.2907213 0.088724643
-0.82228911 0.28723893 0.049733713
-0.78424996 0.24088433 0.11511345
-0.80405176 0.24811989 0.10279897
-0.81534255 0.24379671 0.036726251
-0.77865326 0.20234586 0.11988686
-0.81106317 0.19774014 0.023197979
-0.76890433 0.15355216 0.11581869
-0.81727809 0.16232257 0.020303503
-0.80235881 0.15141343 0.0055373907
-0.7620784 0.11432062 0.10781878
-0.80349016 0.11409625 0.0010693073
-0.75685847 0.068871945 0.10258201
-0.79807907 0.065957814 -0.0068133175
-0.75073695 0.027141958 0.093484923
-0.78945506 0.024846062 -0.0094662309
-0.7552489 -0.0059058219 0.089395478
-0.74827939 -0.025230467 0.066635936
-0.76267469 -0.027081743 0.010897547
-0.78607148 -0.015095949 -0.0047313869
-0.76812989 -0.044816151 0.053495258
-0.77720106 -0.04520569 0.025338545
-0.97937775 -0.12726973 -0.5550015
-0.81343973 -0.16873801 -0.12190928
-0.81329322 -0.1620948 -0.15477863
-0.82070196 -0.15698144 -0.19315703
-0.83656716 -0.15055317 -0.22940944
-0.85382354 -0.14245485 -0.27009985
-0.872697 -0.15222056 -0.3169837
-0.88001049 -0.15872058 -0.35737973
-0.90036964 -0.14270532 -0.39454061
-0.91683811 -0.13836788 -0.43512207
-0.93032473 -0.13570434 -0.47640413
-0.94644547 -0.13228081 -0.51849437
-0.95842099 -0.13607739 -0.56442094
-0.97649872 -0.14698145 -0.60385793
-0.79180062 -0.19334367 -0.11609103
-0.7901985 -0.17559026 -0.15283485
-0.87256885 -0.17452247 -0.31655163
-0.89289027 -0.17866196 -0.33110362
-0.94666678 -0.17510478 -0.57879269
-0.95939469 -0.17488521 -0.60260332
-0.78267771 -0.23546776 -0.11809476
-0.77329534 -0.24692655 -0.14934467
-0.83891398 -0.2557379 -0.24579261
-0.83993584 -0.24879259 -0.2766065
-0.85565364 -0.25289279 -0.31329387
-0.86700571 -0.247933 -0.36200804
-0.89267051 -0.23790096 -0.38889062
-0.79362643 -0.26226956 -0.12834206
-0.79076105 -0.26410124 -0.160806
-0.80361354 -0.26711711 -0.1990943
-0.81878054 -0.26353028 -0.23556747
-0.81804669 -0.2584281 -0.28081065
-0.84098434 -0.26029474 -0.32660991
-0.85143119 -0.25863835 -0.35117009
-0.7640506 -0.80659068 -0.36041954
-0.77558082 -0.80354106 -0.39524686
-0.80040014 -0.82222456 -0.41177347
-0.75514179 -0.84281188 -0.35705435
-0.76564503 -0.84496784 -0.415638
-0.78829485 -0.84301531 -0.41698813
-0.73907292 -0.90620071 -0.33813286
-0.74464911 -0.88637251 -0.35170913
-0.76221538 -0.88642079 -0.4075143
-0.73877603 -0.92641276 -0.3368091
-0.7234562 -0.93026561 -0.35081431
-0.7475729 -0.92357254 -0.40323365
-0.78563309 -0.91811931 -0.41714823
-0.72220647 -0.9468354 -0.36166245
-0.7271986 -0.94584197 -0.39185148
-0.88154095 0.65521526 0.14374585
-0.87552291 0.63609803 0.14955129
-0.87299639 0.5824005 0.15446609
-0.87481499 0.537283 0.14967632
-0.87177819 0.52814305 0.12848558
-0.8674165 0.49290192 0.15191749
-0.87622672 0.49886328 0.12330751
-0.86344552 0.45171922 0.14116681
-0.87297249 0.45379329 0.11273997
-0.85732269 0.40942562 0.13114899
-0.86953306 0.40882182 0.1026202
-0.84673381 0.38089168 0.1222648
-0.86180711 0.36509174 0.10235715
-0.85319817 0.31862599 0.10157162
-0.84573752 0.28619796 0.1033345
-0.8561579 0.27284291 0.06744048
-0.83080083 0.22172232 0.12961788
-0.8311488 0.23837875 0.11197048
-0.84946233 0.23778906 0.055952996
-0.82198751 0.19577213 0.12439999
-0.8230229 0.20096511 0.11016832
-0.84729409 0.18845966 0.046837971
-0.81559616 0.14996471 0.12320058
-0.82373881 0.15171275 0.10614561
-0.8426851 0.14775583 0.03846772
-0.86026734 0.14273936 0.031360373
-0.8043288 0.10469952 0.12173401
-0.83776826 0.11374851 0.032320127
-0.83617306 0.10013326 0.018166155
-0.79718232 0.061203793 0.11894482
-0.83683968 0.061032027 0.013120294
-0.79139531 0.017590851 0.11162236
-0.83180749 0.019490093 0.0026052296
-0.78725642 -0.013094001 0.1014643
-0.79367894 -0.035259023 0.088215202
-0.82191259 -0.028150454 0.00049394369
-0.79450011 -0.051841028 0.06438598
-0.80627012 -0.055167526 0.030348629
-0.82416189 -0.05234804 0.012497276
-0.95668304 -0.13253088 -0.38076526
-0.96326393 -0.12829553 -0.41826558
-0.97826564 -0.12753808 -0.45972145
-0.98866665 -0.12558411 -0.5035131
-1.0016187 -0.12418184 -0.54619718
-1.0195435 -0.12516929 -0.58637822
-1.0425577 -0.13238227 -0.60607958
-0.84485328 -0.17768602 -0.066583335
-0.83838636 -0.1660381 -0.098308235
-0.84862381 -0.15536378 -0.13925219
-0.86566484 -0.1520811 -0.17615187
-0.87911206 -0.14765158 -0.2146349
-0.89734423 -0.14234434 -0.25382894
-0.91179013 -0.15346044 -0.3034578
-0.92518049 -0.15250783 -0.33480993
-0.93268472 -0.13815169 -0.37751979
-0.94302404 -0.13337347 -0.42700538
-0.95694232 -0.13272299 -0.46490985
-1.0124209 -0.15153298 -0.60189795
-1.0351046 -0.14325203 -0.60866511
-0.82203847 -0.2015596 -0.069043428
-0.81426406 -0.18745233 -0.088721603
-0.90340561 -0.1808383 -0.3239072
-0.92083037 -0.18384938 -0.32097033
-0.93794227 -0.2227089 -0.36171231
-0.81434977 -0.24011463 -0.072091967
-0.80961388 -0.25413519 -0.089854673
-0.85555363 -0.26041162 -0.15590805
-0.85351825 -0.25211942 -0.18014666
-0.86301762 -0.25110394 -0.22184035
-0.87844074 -0.24325937 -0.26079848
-0.8824439 -0.24921629 -0.30324322
-0.90523225 -0.24108772 -0.34686589
-0.92995954 -0.23964682 -0.38878587
-0.94438607 -0.23960724 -0.40829477
-0.8206709 -0.26891673 -0.11050358
-0.83234543 -0.27020258 -0.14455664
-0.83411431 -0.2676594 -0.18525583
-0.8387928 -0.262126 -0.2144911
-0.82567924 -0.78534472 -0.34909552
-0.82885087 -0.78266281 -0.36443746
-0.80160469 -0.80475312 -0.3438676
-0.81545299 -0.79600602 -0.38575077
-0.82770747 -0.81924808 -0.40572792
-0.7953189 -0.84487331 -0.35048142
-0.81254482 -0.86178815 -0.38137469
-0.82193649 -0.84368449 -0.40752125
-0.78155053 -0.90068567 -0.35394347
-0.81036633 -0.89313495 -0.38448152
-0.79944283 -0.90363288 -0.41287482
-0.76294935 -0.93598014 -0.32731682
-0.77966988 -0.92453992 -0.3385435
-0.79842782 -0.93682832 -0.38431025
-0.80201912 -0.93382633 -0.41493428
-0.79215103 -0.97365987 -0.38496047
-0.9068383 0.5233714 0.15694974
-0.91104156 0.49143854 0.15826567
-0.91842735 0.48954934 0.13749096
-0.90600628 0.44705501 0.15159276
-0.91716999 0.44772035 0.12701501
-0.90117174 0.40228993 0.14310709
-0.91142809 0.39948401 0.11753392
-0.88030457 0.38028672 0.13374586
-0.90090978 0.35883141 0.11802447
-0.89285928 0.31431907 0.11690028
-0.90686572 0.30268347 0.09361808
-0.88104093 0.27497214 0.12262525
-0.90529811 0.26584879 0.074915648
-0.92457813 0.25924554 0.054616213
-0.86545378 0.21795253 0.13932641
-0.87492019 0.22902556 0.12853557
-0.89876771 0.23051809 0.062943697
-0.91661316 0.22786005 0.051576003
-0.8609941 0.18532415 0.14029206
-0.86870009 0.18215877 0.12178899
-0.88505679 0.18286328 0.068314314
-0.85464334 0.14419296 0.13715395
-0.86497998 0.15073897 0.11864403
-0.88105053 0.14428154 0.0664846
-0.84739047 0.094110072 0.14005142
-0.8822422 0.10575485 0.058021739
-0.84162092 0.053063408 0.13784015
-0.85677123 0.048185676 0.022356123
-0.83282477 0.010587305 0.12500264
-0.84905791 0.0034334809 0.093358248
-0.8641054 0.0045796037 0.056621924
-0.87186927 0.0077531934 0.018662214
-0.81478703 -0.012798928 0.11035427
-0.8275944 -0.029038131 0.084703624
-0.85517609 -0.033041343 0.061274529
-0.86651248 -0.033651426 0.01031974
-0.82440507 -0.0551515 0.069133222
-0.84871173 -0.061151758 0.047153264
-0.85511488 -0.057767361 0.02374512
-0.94309956 -0.14209644 -0.19734362
-0.95159042 -0.14105004 -0.23721185
-0.96084684 -0.13870953 -0.27773178
-0.97530276 -0.1352569 -0.32394689
-0.98526806 -0.12891307 -0.36332947
-1.0004792 -0.1226242 -0.40391058
-1.0196353 -0.11842103 -0.4449892
-1.0331979 -0.11736939 -0.48677212
-1.0476949 -0.11552395 -0.52916658
-1.0646389 -0.11874355 -0.57194287
-1.0758682 -0.12883958 -0.5977897
-0.86815524 -0.17538962 -0.052784383
-0.87620425 -0.16009071 -0.080512285
-0.89381325 -0.15201488 -0.12366992
-0.90876019 -0.14749253 -0.16152561
-0.91693074 -0.1448261 -0.19947267
-0.92633796 -0.14220023 -0.24046063
-0.94304031 -0.15004906 -0.29388261
-0.95850331 -0.16129383 -0.31193286
-1.0422155 -0.15677994 -0.50929832
-1.0470818 -0.15728734 -0.50999522
-1.0556388 -0.14604568 -0.59147871
-1.0557003 -0.14515676 -0.602202
-0.85444254 -0.20628263 -0.045607358
-0.94685578 -0.22719827 -0.27718818
-0.97233158 -0.22715423 -0.34022218
-0.96281159 -0.22518575 -0.35264131
-1.0028684 -0.22777639 -0.4138045
-0.85063416 -0.24886471 -0.055103898
-0.86323583 -0.26596087 -0.086314678
-0.87596273 -0.25609913 -0.13041469
-0.87642109 -0.24230365 -0.15719247
-0.90969002 -0.2494708 -0.21684226
-0.92264521 -0.24523228 -0.2441479
-0.94447237 -0.23513925 -0.26910898
-0.9612335 -0.23310223 -0.34713224
-0.9660123 -0.24705769 -0.36747381
-0.98320407 -0.24327946 -0.41105571
-1.0093925 -0.23686767 -0.42970297
-0.84631717 -0.27009821 -0.096936971
-0.85411566 -0.26895487 -0.12901402
-0.85292995 -0.78519583 -0.33306244
-0.86438376 -0.77968085 -0.36078972
-0.84437561 -0.81844902 -0.32934693
-0.8564862 -0.80633044 -0.37318563
-0.86837775 -0.81741583 -0.39440271
-0.83028549 -0.83690083 -0.34322909
-0.85073477 -0.8512305 -0.36653358
-0.85653663 -0.84426469 -0.39358836
-0.81514937 -0.91770351 -0.35641477
-0.83879429 -0.91077644 -0.37828618
-0.86036009 -0.90623605 -0.40152574
-0.8110317 -0.92498803 -0.34885716
-0.83570713 -0.94221377 -0.37581128
-0.85842073 -0.93328047 -0.39459357
-0.82757783 -0.98029584 -0.34817451
-0.82990873 -0.97072136 -0.35990632
-0.94584554 0.47626019 0.1603615
-0.95941353 0.46999556 0.15034027
-0.94212776 0.43753779 0.15836857
-0.95841098 0.43726587 0.14067297
-0.94991076 0.39332998 0.13784811
-0.9924891 0.40784633 0.081154555
-0.9931491 0.37241018 0.071993589
-0.9432326 0.34853944 0.13172108
-0.97067118 0.34133849 0.073470876
-0.98137951 0.34367207 0.070927173
-0.93167537 0.31155857 0.13552564
-0.9544124 0.30291468 0.088975057
-0.97269064 0.30574366 0.065221101
-0.9240638 0.26411617 0.14440984
-0.94021499 0.26452601 0.080825403
-0.95825952 0.26206571 0.057419837
-0.90041226 0.21461967 0.14731146
-0.91911358 0.21888213 0.14399867
-0.93513525 0.22215946 0.084809005
-0.94959003 0.22895938 0.054020733
-0.90084732 0.17698011 0.15809384
-0.91276515 0.175712 0.13447821
-0.92593133 0.17307766 0.088614225
-0.95560181 0.15614624 0.048746884
-0.89138842 0.13605605 0.15057369
-0.9001869 0.14335096 0.12954704
-0.91896689 0.13794716 0.080645576
-0.94911093 0.14785212 0.046657503
-0.88301212 0.090854317 0.15682518
-0.91614383 0.095413655 0.0685945
-0.88054013 0.042847782 0.14978084
-0.89937508 0.032937959 0.11600834
-0.86708242 0.019903332 0.13403545
-0.88250613 0.017229229 0.10341975
-0.90270442 -0.0028163642 0.068276048
-0.91381043 -0.0092938542 0.026637226
-0.88957918 -0.043890886 0.052703798
-0.90982246 -0.040310085 0.029964864
-0.88095307 -0.062266193 0.043692052
-1.0814077 -0.10530317 -0.43150973
-1.0908978 -0.10494152 -0.4672927
-1.1040338 -0.10426107 -0.50806522
-1.1176509 -0.10352021 -0.54891765
-1.1321092 -0.10508178 -0.57731462
-0.94347245 -0.15106945 -0.077690333
-0.94773358 -0.1473984 -0.1067467
-0.95181125 -0.14387763 -0.1460681
-0.96644264 -0.14065614 -0.1808674
-0.98159218 -0.13862051 -0.22412506
-0.99585634 -0.13227449 -0.26507601
-1.0128303 -0.12819406 -0.30699465
-1.0283051 -0.12312908 -0.34698972
-1.0449307 -0.11659814 -0.38978562
-1.0578929 -0.11088249 -0.42885086
-1.0691791 -0.10988107 -0.47457501
-1.0867449 -0.1229725 -0.5173105
-1.0999267 -0.12956478 -0.55758286
-1.1185175 -0.12473353 -0.58872461
-0.90526223 -0.17824021 -0.034006298
-0.91895497 -0.15755932 -0.064493328
-0.92397332 -0.15011223 -0.10645157
-0.93017685 -0.14633028 -0.14363065
-0.9830007 -0.18558162 -0.30899882
-1.0710255 -0.15345056 -0.49493814
-1.0820553 -0.1561441 -0.51286387
-1.1001351 -0.16123833 -0.53767836
-0.89424831 -0.21549088 -0.029394209
-0.97529316 -0.22707757 -0.28915316
-1.0001875 -0.22211435 -0.3149921
-1.0105486 -0.22933757 -0.35510701
-1.0179988 -0.23104887 -0.3969149
-0.89266247 -0.25044376 -0.04293707
-0.90307617 -0.25771558 -0.072023422
-0.91806293 -0.24845739 -0.11092725
-0.94927257 -0.24802518 -0.15304926
-0.95212942 -0.25242504 -0.19237843
-0.95978391 -0.26285088 -0.2339187
-0.97754014 -0.25576061 -0.27454183
-0.99049985 -0.25750446 -0.3154445
-1.0076134 -0.25250664 -0.35246974
-1.017848 -0.24569531 -0.3943117
-1.0233516 -0.24458969 -0.4246223
-0.89350057 -0.78449595 -0.31542975
-0.90636832 -0.7719363 -0.34838614
-0.91729116 -0.79253161 -0.37267026
-0.88498414 -0.81914711 -0.31643876
-0.89811164 -0.8357327 -0.34456038
-0.90772414 -0.82307827 -0.38102892
-0.88713193 -0.84584409 -0.36117727
-0.91029149 -0.87506884 -0.39524886
-0.9312945 -0.88879955 -0.41113812
-0.87425232 -0.92614084 -0.37889332
-0.89401996 -0.90862548 -0.40328228
-0.91876256 -0.91220999 -0.41967005
-0.87057775 -0.95758671 -0.37388831
-0.89185178 -0.94977641 -0.39765173
-0.91895521 -0.93902618 -0.42032987
-0.86431825 -0.97372013 -0.36171025
-0.98266739 0.45398247 0.15278192
-0.99478102 0.42611688 0.15270355
-1.0068731 0.41390342 0.086420164
-1.0315007 0.41733804 0.083475173
-0.99117458 0.38753176 0.14737132
-0.99950111 0.40440798 0.084076822
-1.0207533 0.38369209 0.078626513
-0.98565781 0.34099585 0.14558853
-0.9879598 0.32526752 0.1242952
-1.011646 0.34168401 0.072489113
-0.97701722 0.30369583 0.15102047
-0.98754025 0.29333627 0.10654093
-1.0060773 0.29883379 0.067412406
-0.96303815 0.25468266 0.15546519
-0.98031497 0.25421512 0.11325927
-0.99859834 0.25544599 0.061401933
-0.95733398 0.21382238 0.15126739
-0.97306502 0.21274446 0.11151935
-0.99722022 0.21668392 0.055491358
-0.92998987 0.15389568 0.16872688
-0.95319074 0.16724178 0.15038449
-0.96488851 0.16408582 0.1020482
-0.99188614 0.1568557 0.049913883
-0.93459159 0.12898204 0.16952245
-0.9501006 0.13786927 0.14922214
-0.9652952 0.12786518 0.093463182
-0.99143541 0.13583636 0.049677104
-0.93122441 0.078205511 0.17144819
-0.94855773 0.063289136 0.14045674
-0.95450258 0.098014548 0.080308244
-0.98826522 0.093595266 0.050402373
-0.91829979 0.048845842 0.15799502
-0.93331391 0.041816443 0.12399179
-0.95037228 0.0201004 0.089211121
-0.97154891 0.017624855 0.065026164
-0.94204313 -0.0030893832 0.077413023
-0.95827055 -0.01104866 0.046300262
-0.94800574 -0.0430457 0.041831046
-1.0873284 -0.11252169 -0.32981867
-1.0940579 -0.1077619 -0.37348291
-1.1054637 -0.10191853 -0.41387343
-1.1198704 -0.097010292 -0.45550823
-1.1350291 -0.096580654 -0.49590138
-1.150517 -0.097299814 -0.5387162
-1.1646239 -0.10353328 -0.57383752
-0.96704495 -0.15161373 -0.057220399
-0.97990084 -0.1445841 -0.093288064
-0.99349546 -0.13954519 -0.12937993
-1.0076928 -0.13614768 -0.1671479
-1.0249028 -0.13277505 -0.20944709
-1.0411274 -0.12566058 -0.25008255
-1.0539886 -0.12115871 -0.29057494
-1.0642411 -0.11735414 -0.33296415
-1.0696292 -0.11352284 -0.37250173
-1.1307011 -0.13990599 -0.5166803
-1.1489916 -0.13152881 -0.54543281
-1.1535447 -0.12816587 -0.57456917
-0.94522476 -0.18106711 -0.018249065
-0.95258528 -0.16006592 -0.039462149
-1.110658 -0.16165176 -0.51625705
-1.124747 -0.16510993 -0.54223937
-0.90111834 -0.23691206 0.11270081
-0.91358584 -0.23930469 0.091192946
-0.93719745 -0.2209187 -0.021632075
-0.95401204 -0.23785572 -0.033864617
-0.98043334 -0.23371324 -0.094088882
-0.98668838 -0.24324523 -0.11284986
-1.0631655 -0.234828 -0.34479609
-0.89315021 -0.26469478 0.11162595
-0.90752107 -0.26173359 0.086786583
-0.92587298 -0.24757156 -0.036558747
-0.9453001 -0.25134328 -0.057218403
-0.96521175 -0.25121787 -0.097288758
-0.97261369 -0.25588739 -0.13555494
-0.98436129 -0.26541609 -0.17465386
-1.0004559 -0.27264127 -0.21946895
-1.0143905 -0.27776158 -0.25773707
-1.032719 -0.27331442 -0.30267555
-1.0417629 -0.25421441 -0.34007204
-0.9558515 -0.76493567 -0.30149746
-0.95558202 -0.75971222 -0.32749116
-0.97931278 -0.76609969 -0.34665459
-0.93442428 -0.78521109 -0.29886165
-0.93987954 -0.76681864 -0.34056181
-0.95846516 -0.78887433 -0.36146387
-0.92609364 -0.8158192 -0.30578017
-0.93813175 -0.83121753 -0.33338588
-0.94688296 -0.82457423 -0.36407781
-0.94846606 -0.87818968 -0.38912877
-0.95470196 -0.88527828 -0.40555099
-0.9519068 -0.91485691 -0.4208357
-0.92366064 -0.96622604 -0.39169767
-0.94470882 -0.9515292 -0.4168762
-1.1002183 0.57726187 0.10423204
-1.1000357 0.55114436 0.099007756
-1.0956432 0.50299537 0.095262676
-1.0854459 0.46121851 0.090313554
-1.0722249 0.42134035 0.081835747
-1.0248414 0.37413633 0.14953238
-1.0625569 0.37919441 0.076608479
-1.0847365 0.36680269 0.062077343
-1.0217996 0.3364476 0.14774707
-1.0228266 0.33363044 0.13772365
-1.0523263 0.33505404 0.075026035
-1.0761441 0.3317737 0.056482106
-1.0183359 0.29379502 0.1504312
-1.016529 0.28505197 0.13260436
-1.0440112 0.29296535 0.072922587
-1.0654393 0.28973794 0.052257895
-1.0102258 0.24840526 0.15604152
-1.0169969 0.24720456 0.12900724
-1.0414001 0.24853882 0.06258595
-1.0576761 0.24731334 0.051025271
-1.0019934 0.20423229 0.15535699
-1.0111423 0.2051087 0.12624823
-1.0334692 0.20582622 0.057781816
-1.0524386 0.20193066 0.047498524
-0.99136901 0.16080774 0.15476036
-1.0074784 0.16048907 0.11606385
-1.0263292 0.16111431 0.056729645
-1.0412469 0.15925761 0.041429043
-0.96323001 0.1106873 0.17125617
-0.98833954 0.12031503 0.15915102
-1.0032653 0.12039022 0.10612573
-1.0230188 0.11579743 0.056599826
-1.0394609 0.11600761 0.041777283
-0.95786202 0.085824519 0.16725597
-0.97907817 0.072315738 0.14895882
-1.0054022 0.07238853 0.10208198
-1.0150392 0.077951729 0.051985145
-1.0330778 0.077661052 0.042144567
-0.98102194 0.028516993 0.13890134
-0.98933518 0.029171854 0.10374269
-1.0182371 0.017932147 0.053260863
-0.97534883 -0.012136117 0.13865687
-0.97698283 -0.016558915 0.095213994
-0.99964494 -0.0082276613 0.045668095
-1.0163362 -0.022335947 0.034968138
-0.97790378 -0.048310533 0.12629813
-0.97739536 -0.057262227 0.093287379
-0.98838371 -0.054962546 0.054688722
-1.0071448 -0.041926712 0.034779102
-1.1870137 -0.078746274 -0.44214454
-1.197173 -0.078622676 -0.47064218
-0.99207306 -0.086827092 0.09144786
-0.99974597 -0.086278036 0.074394733
-1.0852897 -0.12098396 -0.19247994
-1.090835 -0.11669391 -0.23401368
-1.0997896 -0.11269441 -0.2761583
-1.1168008 -0.10607506 -0.31550995
-1.1318431 -0.099902794 -0.35767069
-1.1485411 -0.09229923 -0.39807799
-1.1607528 -0.086345084 -0.43881097
-1.1767713 -0.089950688 -0.48372018
-1.1944216 -0.097241178 -0.52392513
-1.2068528 -0.10192543 -0.56123793
-1.0102998 -0.16524045 -0.0063657463
-1.0052367 -0.15227193 -0.034972668
-1.0218844 -0.13913926 -0.076034129
-1.0379485 -0.1333418 -0.11567971
-1.0496874 -0.12982374 -0.15183651
-1.0622656 -0.12629278 -0.193248
-1.0672907 -0.122136 -0.23258346
-1.0766026 -0.11770667 -0.26893839
-1.1789539 -0.12631285 -0.49550241
-1.1713789 -0.12359641 -0.5237
-1.1940767 -0.12785073 -0.55981487
-0.95818579 -0.20864308 0.12037067
-0.96272534 -0.20911828 0.1079219
-0.98961312 -0.18598978 -0.0064215362
-0.99245572 -0.18817735 -0.01637584
-0.91545689 -0.24708036 0.14645049
-0.92950302 -0.22598706 0.12951259
-0.94763523 -0.23085982 0.088187143
-0.97298837 -0.21364357 -0.015772581
-0.99035168 -0.2355423 -0.032524586
-1.0129137 -0.24473439 -0.088197589
-1.0306509 -0.2496922 -0.11098054
-1.0676386 -0.24835879 -0.25046784
-1.0790513 -0.23584287 -0.33043879
-0.92289734 -0.27625275 0.12844814
-0.93828857 -0.27195916 0.087314859
-0.98414791 -0.25119764 -0.057513744
-0.9975152 -0.25399622 -0.088913888
-1.0171763 -0.26535219 -0.11835977
-1.0279571 -0.27535683 -0.15942332
-1.0476643 -0.27124178 -0.20130286
-1.0600959 -0.27176991 -0.240881
-1.0735397 -0.28209314 -0.29005423
-1.0695592 -0.25347787 -0.31958321
-1.0801885 -0.31627968 -0.27877063
-1.07289 -0.36511457 -0.28125557
-1.06657 -0.39121202 -0.25848791
-1.0670453 -0.40847087 -0.28664753
-1.0664381 -0.43780887 -0.28862005
-0.98387837 -0.76421535 -0.28745914
-0.99454349 -0.75247753 -0.31451538
-1.0067284 -0.76350749 -0.34329605
-1.1313146 -0.7620002 -0.64465553
-1.1346135 -0.75977612 -0.68659031
-1.1494608 -0.76220548 -0.72353911
-0.97320586 -0.79338169 -0.28511757
-0.9862535 -0.80879778 -0.30186501
-0.99887836 -0.79510331 -0.35154065
-1.1374507 -0.78263497 -0.65569836
-1.138198 -0.78929877 -0.68691182
-1.1498293 -0.78816426 -0.72236603
-0.98134977 -0.82751769 -0.32273039
-0.98784375 -0.82651591 -0.34521061
-1.138695 -0.83453143 -0.69097018
-0.99087477 -0.86956072 -0.3747541
-0.99388289 -0.87641037 -0.39139473
-0.9766826 -0.95173109 -0.41564527
-1.1195881 0.5750863 0.10404274
-1.127116 0.54325807 0.097712904
-1.1392158 0.5268718 0.078939229
-1.1216191 0.50078201 0.093227804
-1.1429548 0.49842927 0.076846123
-1.1170144 0.45741987 0.087807149
-1.1325607 0.45569509 0.068542689
-1.1147535 0.41529447 0.085886717
-1.1231946 0.41524923 0.06271556
-1.1064247 0.37004405 0.085025698
-1.1178213 0.37031907 0.055452526
-1.0992302 0.32733119 0.081669539
-1.1104417 0.32493412 0.050264448
-1.0447571 0.26534796 0.1471802
-1.0869443 0.28787786 0.073436916
-1.1045481 0.28256744 0.053187132
-1.0429931 0.2395681 0.15144707
-1.0469747 0.23608537 0.13960746
-1.0736563 0.24782228 0.064373553
-1.0958627 0.2403924 0.05361864
-1.0440171 0.19746184 0.15385406
-1.0533851 0.19670066 0.14053965
-1.0754591 0.19028801 0.064766169
-1.0890317 0.19807731 0.048764616
-1.0403334 0.15392232 0.15652283
-1.0501269 0.15523911 0.12820996
-1.0680753 0.15514313 0.071762323
-1.083315 0.15230961 0.039404482
-1.032371 0.10823183 0.15592387
-1.044998 0.10678172 0.12647942
-1.0601177 0.10536692 0.07369715
-1.0743183 0.10991514 0.038207918
-1.0234206 0.068566844 0.14567056
-1.0420049 0.063591763 0.11925313
-1.052773 0.065250784 0.065090746
-1.0647775 0.06489554 0.039520383
-1.0016361 0.011501566 0.17869212
-1.0161928 0.028940037 0.15815482
-1.0351603 0.038413465 0.10132353
-1.0493798 0.025421634 0.067560136
-1.0610535 0.021871597 0.036880404
-1.0037253 -0.024424762 0.18691754
-0.98717207 -0.024236605 0.16343355
-1.0305655 0.00074651837 0.04801181
-1.0528903 -0.019025654 0.03252551
-1.0036608 -0.060214557 0.1888019
-0.99288833 -0.065017648 0.15323809
-1.030813 -0.070688322 0.06100446
-1.0432597 -0.050939269 0.042329103
-1.1915767 -0.08418978 -0.33707047
-1.2007155 -0.079869613 -0.38197014
-1.208569 -0.072470702 -0.42355055
-1.2237104 -0.070031129 -0.46495494
-1.2389667 -0.07317692 -0.50428677
-1.2568362 -0.078274198 -0.54151434
-0.99848902 -0.1075256 0.14872926
-0.99439526 -0.10746908 0.10444589
-1.0240885 -0.10718803 0.068160653
-1.0796285 -0.12598385 -0.063213974
-1.088631 -0.12268256 -0.096186817
-1.0957173 -0.12042145 -0.13589272
-1.1116288 -0.11517429 -0.17698616
-1.1274209 -0.10830367 -0.21828336
-1.1435499 -0.10239662 -0.26019117
-1.1603818 -0.095900655 -0.29987475
-1.1683062 -0.09150178 -0.34205523
-1.1769156 -0.087095276 -0.38301608
-1.2041336 -0.12152183 -0.49015203
-1.2365021 -0.10273306 -0.51375878
-1.244119 -0.097005703 -0.54818952
-0.99901813 -0.15168636 0.14652373
-0.99867761 -0.15022905 0.10393687
-1.0217067 -0.15336643 0.065817028
-1.0363274 -0.17054488 0.030747861
-1.0474302 -0.15165827 -0.017842501
-1.0573003 -0.13328387 -0.058744699
-1.0637311 -0.12941305 -0.10035339
-1.0720977 -0.12576778 -0.12957507
-0.98486751 -0.19920236 0.13968366
-0.99033737 -0.19426325 0.099575028
-1.0091473 -0.19486099 0.05891341
-1.0281487 -0.18904939 0.015618712
-1.026683 -0.19283333 -0.0026555657
-0.97111821 -0.23993745 0.14705174
-0.98292655 -0.23943704 0.091696858
-0.99909973 -0.24040996 0.058066607
-1.018755 -0.24007541 0.014207751
-1.0241545 -0.24662094 -0.0216856
-1.0490808 -0.24795601 -0.071578771
-1.0495119 -0.24500346 -0.098542273
-1.1216372 -0.25897387 -0.22944498
-0.95800203 -0.26749027 0.13127604
-0.98077321 -0.26966596 0.095562503
-1.0086108 -0.27383441 0.058501571
-1.023559 -0.2737371 0.023423016
-1.0408908 -0.26234126 -0.0093317926
-1.0551447 -0.27102327 -0.12131619
-1.073971 -0.28234878 -0.1422545
-1.079314 -0.27141541 -0.17689613
-1.0956267 -0.27302051 -0.24025673
-1.1167158 -0.2899774 -0.27311978
-1.1383141 -0.27781731 -0.29042467
-1.0724589 -0.31078041 -0.12103707
-1.0750761 -0.31133011 -0.14176577
-1.1023654 -0.32528684 -0.27511534
-1.0875598 -0.37437791 -0.24770626
-1.0994456 -0.36086956 -0.28146675
-1.1177746 -0.37809223 -0.29997694
-1.0770133 -0.411645 -0.24356678
-1.082319 -0.40834948 -0.29852325
-1.1058393 -0.41249073 -0.3069773
-1.0768963 -0.45515817 -0.24535558
-1.0731366 -0.45438516 -0.28717467
-1.1033177 -0.45679832 -0.30734101
-1.0793003 -0.49897483 -0.25073344
-1.0757105 -0.49806863 -0.28524449
-1.1004688 -0.50112039 -0.30668855
-1.0773482 -0.54425389 -0.25242317
-1.0760777 -0.54292494 -0.28404975
-1.0941468 -0.54208004 -0.3079938
-1.0799257 -0.58515954 -0.28517213
-1.0923001 -0.57372463 -0.30553058
-1.0801669 -0.61601907 -0.28644338
-1.0542208 -0.73572838 -0.29455915
-1.0644917 -0.73644733 -0.31932583
-1.12036 -0.73779845 -0.45982361
-1.1316996 -0.73738343 -0.49799672
-1.1440102 -0.73798501 -0.52170902
-0.9027679 -0.77844274 0.1033932
-0.91497183 -0.77646554 0.072367087
-0.93039072 -0.77919626 0.0421018
-1.0251702 -0.76384622 -0.26861325
-1.0321085 -0.7438612 -0.29704523
-1.0519274 -0.75757426 -0.34096032
-1.0787221 -0.76398027 -0.35747883
-1.1096864 -0.7467491 -0.43080401
-1.1143087 -0.75561154 -0.46245441
-1.1234303 -0.75766307 -0.50341195
-1.1304593 -0.75889021 -0.54501337
-1.1382699 -0.75660002 -0.5915941
-1.1536878 -0.74912339 -0.62814951
-1.1695418 -0.75196511 -0.67000985
-1.1860634 -0.76395011 -0.71686351
-1.1835159 -0.775994 -0.74187529
-0.89843053 -0.80269557 0.10384358
-0.90996104 -0.80180728 0.072625652
-0.92661959 -0.79292727 0.044645727
-1.0160719 -0.79335642 -0.27168089
-1.0282106 -0.80837023 -0.29810107
-1.040502 -0.80307001 -0.33705235
-1.1398028 -0.78194326 -0.55771184
-1.1471006 -0.78579175 -0.59233773
-1.1489475 -0.79558277 -0.63568628
-1.1487409 -0.81222928 -0.66870838
-1.1751181 -0.8058756 -0.7285831
-1.190711 -0.8014397 -0.74115217
-0.88805342 -0.85826665 0.10438567
-0.89705843 -0.86147666 0.085074797
-1.0201634 -0.82690352 -0.31838477
-1.0349687 -0.85761559 -0.35384423
-1.0505483 -0.86430252 -0.36773327
-1.1569328 -0.85441464 -0.65306723
-1.1452947 -0.84523547 -0.67158318
-1.1631225 -0.84368938 -0.72239041
-1.1954389 -0.8506968 -0.75048077
-0.88227642 -0.88789511 0.10457289
-0.8923524 -0.88088334 0.085146293
-1.0204569 -0.86646521 -0.36299956
-1.0272194 -0.86879587 -0.37622428
-1.1477413 -0.87392533 -0.65754354
-1.1415795 -0.87358046 -0.68351609
-1.1589422 -0.87349606 -0.71847844
-1.1896526 -0.87520397 -0.75149322
-1.1597195 0.5223062 0.095083773
-1.1603322 0.52280462 0.093511879
-1.1572618 0.49032462 0.094509751
-1.1662606 0.48988959 0.082342327
-1.150237 0.45997232 0.091794163
-1.1743313 0.44920358 0.074093193
-1.1940161 0.42967898 0.057823837
-1.138948 0.39947429 0.087482512
-1.1626391 0.40847826 0.071299344
-1.1844752 0.40220255 0.049692154
-1.1539477 0.36381584 0.07257551
-1.1737841 0.36052999 0.042073727
-1.1475117 0.31974924 0.067698598
-1.1682035 0.31746563 0.038340747
-1.140628 0.27620924 0.060335398
-1.1634973 0.27475357 0.03742218
-1.1349173 0.23260781 0.055923194
-1.1580386 0.23043726 0.034627557
-1.0754131 0.1754548 0.14869016
-1.1040819 0.17856066 0.074894696
-1.12559 0.19296603 0.059418917
-1.1479126 0.18731892 0.029454261
-1.0653518 0.13244 0.1552017
-1.0776891 0.14334121 0.14332852
-1.1051655 0.15200622 0.082316846
-1.119892 0.1449143 0.042699635
-1.1412185 0.14492813 0.027833968
-1.062053 0.11232184 0.15390371
-1.0738138 0.1095563 0.14296979
-1.1031717 0.10561979 0.079377949
-1.1145086 0.099487305 0.046961099
-1.1357723 0.099789098 0.025958121
-1.0702417 0.054272741 0.13200618
-1.1001071 0.052189007 0.077433944
-1.1029489 0.06147787 0.037371784
-1.1277733 0.057064503 0.022948384
-1.0449407 -0.0013350397 0.19881819
-1.0548786 0.0095831603 0.17083791
-1.0754442 0.025269091 0.13460204
-1.0848266 0.01479426 0.092308819
-1.0931767 0.020429894 0.029569656
-1.117645 0.013211206 0.020896494
-1.0315709 -0.025368169 0.21330342
-1.099301 -0.024127916 0.084657222
-1.0963192 -0.030127704 0.047039956
-1.1171207 -0.01306279 0.025030106
-1.2864798 -0.049466699 -0.4426614
-1.2946012 -0.052076772 -0.46689847
-1.0272336 -0.072961539 0.20503274
-1.0777029 -0.072782241 0.065876275
-1.0807055 -0.067632705 0.05965811
-1.1811471 -0.093637057 -0.16666129
-1.1841114 -0.091011047 -0.19885451
-1.1962175 -0.087060854 -0.24090597
-1.2046874 -0.08230862 -0.28551707
-1.2207891 -0.073568463 -0.32532182
-1.2377008 -0.06611117 -0.36556092
-1.2520065 -0.060735524 -0.40643507
-1.2615573 -0.056428403 -0.45117238
-1.2859161 -0.069150485 -0.49327567
-1.2852396 -0.07664308 -0.52367431
-1.0282015 -0.097063147 0.18826045
-1.0297297 -0.11536262 0.18233249
-1.0602946 -0.11290131 0.060508281
-1.0816467 -0.11939199 0.058560967
-1.1041024 -0.13361081 -0.018087894
-1.1084204 -0.12176633 -0.043386996
-1.1254137 -0.11153574 -0.082123697
-1.1394366 -0.10726366 -0.11973652
-1.1535881 -0.10330763 -0.1602312
-1.1614866 -0.098296903 -0.20176569
-1.171225 -0.094379649 -0.24487981
-1.1804285 -0.091016166 -0.27815512
-1.2623235 -0.095852934 -0.498353
-1.269594 -0.0907664 -0.52300662
-1.0274001 -0.17245686 0.18788645
-1.0139444 -0.15588388 0.17757344
-1.051193 -0.14613068 0.057857007
-1.0731612 -0.15730076 0.03682518
-1.0870975 -0.15145645 -0.0023798645
-1.0186483 -0.20309454 0.18530916
-1.0034138 -0.20025174 0.16941372
-1.01599 -0.24253266 0.18397617
-1.002333 -0.25123489 0.15861595
-1.0209302 -0.26390469 0.12842295
-1.0730957 -0.26190397 -0.018218488
-1.0863277 -0.25429705 -0.054636985
-1.1045086 -0.25458574 -0.075232178
-1.1245327 -0.26111266 -0.17355374
-1.1347851 -0.25774917 -0.22302309
-1.1672751 -0.2631636 -0.24568126
-1.0189618 -0.27659273 0.15712899
-1.0278089 -0.28048119 0.11003174
-1.033146 -0.29184851 0.069215804
-1.052372 -0.28663957 0.026120126
-1.0633487 -0.27073723 0.00077736378
-1.0863874 -0.30438292 -0.11666527
-1.0951339 -0.29176769 -0.13526636
-1.1179519 -0.27419588 -0.16574278
-1.1548333 -0.28304017 -0.25559062
-1.0810052 -0.31231445 -0.11908144
-1.0856545 -0.3124713 -0.12846708
-1.1189107 -0.38560539 -0.23796588
-1.1396704 -0.37501377 -0.26194596
-1.1501746 -0.38205886 -0.29431316
-1.1189941 -0.42048538 -0.23139152
-1.1469597 -0.41321439 -0.24816701
-1.1485585 -0.41705909 -0.30355853
-1.1139389 -0.46274585 -0.22703853
-1.1395664 -0.46336186 -0.30747673
-1.1032093 -0.50657725 -0.22763661
-1.132565 -0.50666243 -0.31021902
-1.0938938 -0.54995996 -0.23022613
-1.1257352 -0.55126011 -0.31262428
-1.0884025 -0.59279263 -0.23863348
-1.0813549 -0.60273677 -0.27037981
-1.1158653 -0.59367615 -0.3101584
-1.0899119 -0.63585234 -0.24208993
-1.0842428 -0.63540244 -0.28035352
-1.1111693 -0.63779485 -0.30955037
-1.0940052 -0.67906499 -0.24678212
-1.0921947 -0.68039215 -0.27725247
-1.1124296 -0.68051064 -0.30819079
-1.0043484 -0.74350357 -0.038493991
-1.0201393 -0.74277079 -0.077986449
-1.0345006 -0.74281263 -0.11505827
-1.0493492 -0.74478281 -0.14745316
-1.0692188 -0.74385762 -0.19841313
-1.0762388 -0.73010671 -0.24103397
-1.0762426 -0.72333556 -0.2816298
-1.0981154 -0.72412026 -0.32333389
-1.1174849 -0.72868866 -0.36191657
-1.1291019 -0.72966027 -0.40539616
-1.1389763 -0.73342174 -0.4476122
-1.1569294 -0.73577255 -0.48736614
-1.1683441 -0.74060333 -0.52636957
-0.92690855 -0.77648395 0.12003469
-0.940494 -0.76227385 0.080939516
-0.95370829 -0.76053268 0.037867993
-0.96927792 -0.75970817 -0.0019439459
-0.98390734 -0.763659 -0.041340798
-1.0039778 -0.76604593 -0.081409097
-1.0243573 -0.76856595 -0.11986795
-1.043833 -0.76925468 -0.15432006
-1.0609496 -0.76621449 -0.19692713
-1.056536 -0.76634514 -0.24018303
-1.0837262 -0.77106559 -0.34609714
-1.1006467 -0.76993424 -0.36629283
-1.1146357 -0.76712573 -0.41066304
-1.1199461 -0.776999 -0.4517549
-1.1362463 -0.7814492 -0.50020206
-1.1643984 -0.75016212 -0.54078281
-1.1848032 -0.74908316 -0.57557309
-1.201432 -0.75976515 -0.61663795
-1.2114134 -0.77074093 -0.6563921
-1.2113297 -0.7747072 -0.69729507
-0.91368234 -0.81231236 0.12729765
-0.92183864 -0.82079434 0.064831167
-0.94455004 -0.81322324 0.035963118
-0.96592766 -0.8085795 -0.002453655
-0.98736286 -0.80454886 -0.04215014
-1.0086101 -0.79903078 -0.079929948
-1.0281554 -0.79618478 -0.11643776
-1.061645 -0.79618293 -0.251755
-1.0686017 -0.80467248 -0.28739899
-1.0845937 -0.80423689 -0.32572165
-1.1120824 -0.7899254 -0.35238364
-1.1324445 -0.79346782 -0.41224435
-1.1402705 -0.79447913 -0.45061439
-1.1511834 -0.78973752 -0.49040979
-1.163682 -0.79304999 -0.53455871
-1.1747785 -0.80006081 -0.57574689
-1.1890457 -0.81036508 -0.62023288
-1.2109882 -0.81129521 -0.65705991
-1.2120693 -0.81208831 -0.70144367
-1.209599 -0.82484007 -0.73403931
-0.90260667 -0.86214525 0.14781964
-0.90195131 -0.84416944 0.12515494
-0.92642134 -0.85031486 0.073303029
-0.9566195 -0.83377361 0.058698028
-1.0632855 -0.86182874 -0.35369611
-1.1699708 -0.86471123 -0.64829767
-1.192704 -0.84969836 -0.65021729
-1.2146115 -0.85709351 -0.7041434
-1.2264082 -0.85053456 -0.74562091
-1.2443674 -0.85877246 -0.78320062
-1.2652946 -0.86732149 -0.81543303
-0.89620173 -0.88816917 0.14619619
-0.88740379 -0.89701211 0.12568517
-0.91735142 -0.89110619 0.075765923
-1.2098926 -0.8936947 -0.70645499
-1.2249068 -0.89714158 -0.7462101
-1.2449856 -0.90048158 -0.77723676
-1.2070644 -0.91634166 -0.72437346
-1.2040294 0.43743694 0.073850095
-1.2062322 0.42737791 0.062416136
-1.2065585 0.39885604 0.076015651
-1.2138377 0.3947219 0.054436833
-1.1997637 0.35672629 0.073834836
-1.21702 0.35222167 0.047573626
-1.1899949 0.3145439 0.068392038
-1.211942 0.31163973 0.045341104
-1.1839976 0.26872903 0.062336862
-1.2043713 0.26725799 0.038742125
-1.1804396 0.22554071 0.0619075
-1.1949453 0.22642829 0.027974337
-1.2174145 0.21477319 0.017232567
-1.1721557 0.18857178 0.067503542
-1.1849855 0.1836125 0.018648863
-1.2087377 0.17604764 0.012770146
-1.1700159 0.12992592 0.067479163
-1.1733807 0.13897362 0.017295003
-1.201478 0.13535923 0.0095008016
-1.1562338 0.099881127 0.068738699
-1.1669009 0.096062556 0.013794601
-1.1940733 0.093240812 0.0053548813
-1.1231939 0.03633523 0.081725776
-1.1604972 0.052307308 0.011921972
-1.1863542 0.047472998 0.0023521185
-1.0692979 -0.0066735595 0.20369187
-1.0865083 -0.0074038357 0.17715599
-1.110103 0.0032981783 0.13979287
-1.1167135 0.0096173584 0.11161408
-1.1450959 -0.00022123754 0.061988384
-1.1581404 0.0064000636 0.016297966
-1.1832716 0.017498001 0.0059868097
-1.0682468 -0.035553038 0.21591385
-1.0960888 -0.037014857 0.18378966
-1.1129507 -0.036182269 0.13837777
-1.1106431 -0.03625764 0.097827703
-1.1305379 -0.030270159 0.059992671
-1.1465744 -0.01799044 0.033052474
-1.2721198 -0.059245512 -0.27768669
-1.2770355 -0.054117307 -0.30657867
-1.285984 -0.049830392 -0.34865323
-1.2969104 -0.048377037 -0.39243326
-1.3143166 -0.047480524 -0.43300343
-1.3218055 -0.053521454 -0.45843938
-1.0604924 -0.07155183 0.20847002
-1.079308 -0.077651657 0.18030842
-1.1070023 -0.081683338 0.14925528
-1.118252 -0.075667657 0.093151033
-1.1219465 -0.082128309 0.078854561
-1.1791946 -0.10075211 -0.038896114
-1.1784313 -0.096607536 -0.0638358
-1.1869864 -0.091560222 -0.10265666
-1.1993104 -0.08673133 -0.14396638
-1.2156551 -0.079471596 -0.18538821
-1.233838 -0.074042372 -0.2263023
-1.2463989 -0.069007203 -0.26675138
-1.2537529 -0.061997525 -0.3078762
-1.2621056 -0.057441369 -0.35000396
-1.275527 -0.053978696 -0.38924569
-1.3168122 -0.080542281 -0.44540989
-1.3197553 -0.072997987 -0.46999726
-1.0734131 -0.1253089 0.17550489
-1.1008227 -0.1236591 0.1489045
-1.1253716 -0.11352466 0.095743597
-1.1119195 -0.12730438 0.071377158
-1.1429974 -0.13811989 0.0033816993
-1.1507939 -0.115213 -0.02613768
-1.1554832 -0.1029149 -0.069761395
-1.165375 -0.098827638 -0.10972685
-1.0708671 -0.16579804 0.18323514
-1.1009341 -0.15714933 0.15352595
-1.1122694 -0.17277129 0.095680833
-1.1203197 -0.16126397 0.053530216
-1.1270972 -0.15154263 0.015632391
-1.036993 -0.20754479 0.19133456
-1.0657847 -0.20975174 0.18965201
-1.1017662 -0.22707854 0.12092826
-1.0973251 -0.21303989 0.093652934
-1.1135172 -0.20954543 0.051576287
-1.1313245 -0.21597601 0.014066458
-1.0316038 -0.24780942 0.18949565
-1.0586782 -0.25891116 0.1793278
-1.0784349 -0.26212949 0.12931354
-1.0809274 -0.25187075 0.091944486
-1.1056744 -0.25817642 0.044573545
-1.1203583 -0.25764322 0.0066834688
-1.1296102 -0.25506684 -0.037575573
-1.1383328 -0.25802916 -0.065048128
-1.1831517 -0.26195759 -0.23952675
-1.0437719 -0.28386891 0.16363735
-1.0529984 -0.28314036 0.12718673
-1.0698972 -0.28764135 0.080105543
-1.0877944 -0.2842043 0.041241765
-1.0942464 -0.27600461 0.012498289
-1.1645702 -0.42939156 -0.25711113
-1.1733845 -0.43005329 -0.28859541
-1.1407343 -0.47744912 -0.23101902
-1.1673754 -0.47170562 -0.24990037
-1.1773427 -0.4718951 -0.28835383
-1.1393185 -0.51503372 -0.2251381
-1.1669581 -0.51228011 -0.23905978
-1.177716 -0.51590168 -0.29532447
-1.1343906 -0.55809855 -0.22509551
-1.1625807 -0.5605551 -0.23602557
-1.1696557 -0.55620241 -0.30380481
-1.1335424 -0.60161901 -0.2241275
-1.1589434 -0.592282 -0.2342681
-1.1628392 -0.60038519 -0.30900785
-1.1237304 -0.64450222 -0.22028327
-1.1559792 -0.64601982 -0.31364226
-1.112747 -0.68916285 -0.22288758
-1.1479689 -0.68675488 -0.31866452
-1.1664401 -0.70278525 -0.32959497
-1.0131435 -0.74763256 -0.0026443601
-1.0332606 -0.74727374 -0.027722299
-1.0496044 -0.7415849 -0.067617476
-1.0609155 -0.7360642 -0.10570389
-1.0759373 -0.73530126 -0.14194295
-1.0928907 -0.73047864 -0.18462172
-1.1007843 -0.71838719 -0.21737039
-1.1333435 -0.71107358 -0.32722384
-1.1558174 -0.7158277 -0.35119513
-1.1685807 -0.72298306 -0.39288801
-1.1841643 -0.73537958 -0.43138897
-1.1970017 -0.7430836 -0.47394374
-1.1977286 -0.74695373 -0.51194358
-0.95566291 -0.78348565 0.12417056
-0.97673273 -0.77728772 0.0930572
-1.0009075 -0.77113777 0.057494402
-1.0196123 -0.76078302 0.021256089
-1.0438198 -0.75776947 -0.010983407
-1.0546094 -0.78929913 -0.16884467
-1.0655844 -0.78898478 -0.1890479
-1.1363379 -0.79376858 -0.31583071
-1.1573982 -0.7966814 -0.32884306
-1.2163553 -0.76730311 -0.48127577
-1.2183017 -0.77021194 -0.51860106
-1.2185469 -0.77308154 -0.55932838
-1.2218392 -0.77863073 -0.60099733
-0.95309269 -0.81815624 0.13125493
-0.98067707 -0.82019264 0.097105607
-0.99267209 -0.82682556 0.056658506
-1.0052125 -0.82722002 0.011848778
-1.0216023 -0.82086074 -0.032850176
-1.0340327 -0.81473899 -0.071120739
-1.0497649 -0.8097316 -0.10851353
-1.0625098 -0.80347371 -0.14768443
-1.0868764 -0.80182087 -0.18907431
-1.0970448 -0.80235898 -0.22988912
-1.1115201 -0.80548465 -0.27268028
-1.1249595 -0.80787027 -0.31105393
-1.1436723 -0.80073535 -0.35248277
-1.1566954 -0.80089933 -0.39443007
-1.1727755 -0.80146378 -0.43628997
-1.1866081 -0.80174965 -0.47948369
-1.2033514 -0.8081702 -0.52149916
-1.219048 -0.81278235 -0.56133997
-1.2299421 -0.81963158 -0.60441202
-1.2400268 -0.82434434 -0.64591891
-1.2542779 -0.83548522 -0.67512745
-1.2874504 -0.83807111 -0.74322063
-1.3032386 -0.83897579 -0.76582372
-1.3153352 -0.83998626 -0.78836417
-0.93176508 -0.86042714 0.15520899
-0.95114553 -0.84906137 0.13801314
-0.9788509 -0.84853113 0.089540333
-0.97553378 -0.84153903 0.068298161
-1.2484632 -0.84017164 -0.61529315
-1.2402213 -0.84875411 -0.64201099
-1.2546132 -0.860744 -0.68925166
-1.2662263 -0.85621196 -0.74276263
-1.2840247 -0.86013085 -0.77056491
-1.2975519 -0.85787696 -0.80377114
-0.92795056 -0.88507265 0.16347431
-0.95197541 -0.88542813 0.071055025
-1.2430735 -0.89366031 -0.68618786
-1.2537603 -0.87823516 -0.75438368
-1.2683287 -0.89310038 -0.78301805
-1.2868114 -0.89868915 -0.80709255
-1.2299572 0.29727328 0.050987303
-1.2410585 0.26113284 0.048676163
-1.2506902 0.2457433 0.026988208
-1.2112502 0.20561536 0.067736983
-1.2281097 0.22259529 0.063193291
-1.24446 0.21639572 0.018421203
-1.2078264 0.17870077 0.070919633
-1.2290254 0.17407422 0.065847456
-1.2419139 0.17536625 0.0073539615
-1.1970022 0.13296756 0.063200295
-1.2153397 0.12961599 0.060117692
-1.2354461 0.12986431 0.00085988641
-1.19468 0.10614315 0.063504159
-1.2079272 0.10446326 0.05738622
-1.2260725 0.086149961 -0.00059065223
-1.2172996 0.042960435 0.0023844242
-1.1783859 -0.0065957457 0.05481258
-1.1981336 -0.002555564 0.033821881
-1.2080375 0.015531078 0.011093765
-1.1184874 -0.040203527 0.17401582
-1.1250844 -0.046308681 0.16346581
-1.1676745 -0.040639654 0.087142467
-1.2628901 -0.064308152 -0.12975466
-1.2705873 -0.059865817 -0.16929489
-1.282023 -0.054797515 -0.2095606
-1.2948312 -0.053612679 -0.25136033
-1.3087959 -0.045946747 -0.29319891
-1.3243347 -0.042994618 -0.33295566
-1.3406162 -0.050477296 -0.37161472
-1.3467344 -0.054990694 -0.41516942
-1.130072 -0.082547076 0.14606135
-1.1425964 -0.097299024 0.10653877
-1.1571556 -0.087452836 0.085989237
-1.2009635 -0.10361235 -0.024773419
-1.2119945 -0.092061818 -0.050203502
-1.2273251 -0.081203587 -0.088542372
-1.2383611 -0.072705701 -0.12842566
-1.2477139 -0.06755238 -0.17165819
-1.2572037 -0.064693674 -0.21417308
-1.2694646 -0.062320873 -0.24574861
-1.3397424 -0.077697664 -0.34334671
-1.3475599 -0.073880643 -0.37619758
-1.3456933 -0.075070195 -0.41505715
-1.1275841 -0.13030207 0.13708986
-1.1405324 -0.12727773 0.1128239
-1.1529108 -0.13191329 0.08226645
-1.1752774 -0.13821912 0.010677487
-1.1917651 -0.12465403 -0.0028676093
-1.0964581 -0.1842455 0.17082362
-1.1198857 -0.17450544 0.14437906
-1.1241972 -0.16675274 0.1148774
-1.1445409 -0.17011268 0.057141781
-1.171427 -0.1688219 0.022749305
-1.1934606 -0.17513795 0.0067330301
-1.0929916 -0.21647459 0.1745161
-1.1147687 -0.2167746 0.1445751
-1.1133901 -0.20215735 0.11810645
-1.1505532 -0.20568949 0.014254957
-1.1876407 -0.21276686 -0.0082609951
-1.084971 -0.25107789 0.16790371
-1.1018256 -0.25012621 0.13663307
-1.1013536 -0.24936056 0.11970486
-1.1432863 -0.2542865 0.020366341
-1.1762987 -0.26290148 -0.071329027
