# .PCD v0.7 - Point Cloud Data file format
VERSION 0.7
FIELDS x y z
SIZE 4 4 4
TYPE F F F
COUNT 1 1 1
WIDTH 1351
HEIGHT 1
VIEWPOINT 0 0 0 1 0 0 0
POINTS 1351
DATA ascii
0.25671172 0.20927343 -0.60486585
0.28175923 0.20592827 -0.63358212
-0.14350572 0.16501597 -0.38427579
-0.10331952 0.1665515 -0.38652375
-0.072804488 0.15928259 -0.38802913
0.19550039 0.16781157 -0.5458684
0.22769032 0.16738343 -0.57475674
0.26138675 0.16663413 -0.60524929
0.29157972 0.16292021 -0.633138
-0.13762236 0.13039386 -0.38508695
-0.10327666 0.12271245 -0.38674387
-0.062414035 0.12393145 -0.3887834
0.17249697 0.11984415 -0.52081895
0.19428575 0.12737565 -0.53954142
0.22816956 0.12455595 -0.56873775
0.25992352 0.1212057 -0.59913367
0.2869187 0.12527613 -0.62633789
-0.10121929 0.081022725 -0.38722301
-0.059081346 0.081708185 -0.3938514
-0.02297686 0.079198822 -0.41085485
0.020318657 0.080551177 -0.42884523
0.058031321 0.078864194 -0.4560625
0.087781161 0.077158719 -0.47635615
0.1242386 0.078635946 -0.49662697
0.15835348 0.08187706 -0.51991069
0.19341114 0.078888841 -0.54702055
0.2266251 0.081368305 -0.57303125
0.25766659 0.086286612 -0.60038126
0.27593955 0.092386946 -0.62028795
-0.092357405 0.05422011 -0.39354292
-0.065619007 0.051375993 -0.40510422
-0.022128552 0.041219123 -0.42059946
0.017831385 0.04068321 -0.42911962
0.058730483 0.041862175 -0.45586526
0.07706219 0.044786051 -0.4870775
0.11485565 0.051657423 -0.5101409
0.14691278 0.054548703 -0.53115904
0.18570705 0.055350229 -0.55827004
-0.0064069033 -0.0021745265 -0.41313937
0.019305304 0.012670934 -0.41578713
0.066149473 0.0039310753 -0.44428474
0.076812848 -0.0035918951 -0.46990186
-0.0010888726 -0.041130342 -0.40835652
0.083291322 -0.038719043 -0.43963391
0.084618688 -0.039830439 -0.46049726
-0.002733916 -0.065581843 -0.42091155
0.024131909 -0.081113815 -0.41586047
0.067578077 -0.079291269 -0.43176556
0.090498209 -0.084203772 -0.46044275
0.02401647 -0.12579888 -0.42210591
0.065466538 -0.12217202 -0.43664375
0.10394102 -0.1263206 -0.45989275
0.030028954 -0.16757876 -0.41650265
0.070292532 -0.16728911 -0.43044406
0.10999186 -0.16540015 -0.45106632
0.12315439 -0.18413116 -0.46923813
0.17326832 -0.18506782 -0.50252604
0.20966619 -0.17825626 -0.51986659
0.24145949 -0.17134894 -0.53846133
0.0347431 -0.21006669 -0.41043842
0.073352724 -0.20807278 -0.42321905
0.11323839 -0.20668444 -0.43917751
0.13510436 -0.21011017 -0.46716484
0.17356697 -0.2040647 -0.49861899
0.21124892 -0.20203376 -0.51672339
0.2374102 -0.19700256 -0.53177387
0.040382206 -0.24237731 -0.40928745
0.074499786 -0.25028202 -0.42243665
0.11082013 -0.24814108 -0.4396618
0.13522671 -0.24183366 -0.45818526
-0.34061822 0.64462829 -0.39646161
-0.31724897 0.65159464 -0.40116447
-0.37264994 0.6032207 -0.37199217
-0.36026469 0.62341034 -0.39074823
-0.37688676 0.569556 -0.36579114
-0.37179172 0.53267944 -0.35732841
-0.36685938 0.49137604 -0.35544595
-0.34259719 0.48089302 -0.34558254
0.21409521 0.4858712 -0.67187035
-0.36563429 0.44747525 -0.35652161
-0.33605176 0.4487555 -0.34792697
0.22352204 0.44879329 -0.67273706
-0.36233437 0.40646657 -0.35799447
-0.32836351 0.40692222 -0.35199866
-0.29437304 0.39452684 -0.3551271
0.23315239 0.40288842 -0.67235327
-0.35475895 0.36588335 -0.35859346
-0.32830751 0.36371124 -0.35590583
-0.28444502 0.36399573 -0.35949081
0.24313596 0.38182342 -0.66251695
0.24806237 0.36164957 -0.67650127
-0.32387808 0.32266277 -0.35918105
-0.28281826 0.32322538 -0.36355621
-0.24933828 0.31841642 -0.3678191
0.25968736 0.32290024 -0.67982471
-0.3150869 0.28046814 -0.36337811
-0.28478992 0.2796717 -0.36705947
-0.24183662 0.28129977 -0.37166938
-0.21519971 0.26965454 -0.37505856
0.27303946 0.2804547 -0.68341637
-0.28378946 0.24254072 -0.3702248
-0.23998469 0.24305068 -0.37470502
-0.20483233 0.243705 -0.37765822
0.28694397 0.24500094 -0.66965079
0.28496599 0.23426187 -0.69235313
-0.27336776 0.20823437 -0.37403503
-0.24166067 0.19973648 -0.37731272
-0.19637649 0.20108816 -0.38032636
0.29151252 0.20699632 -0.66003752
0.29531056 0.19770637 -0.68600309
-0.2350233 0.15881209 -0.38017187
-0.19509585 0.15948875 -0.38198152
-0.16427732 0.16049689 -0.38322252
0.30047345 0.17622481 -0.65374726
0.30736679 0.159511 -0.67715824
-0.22688575 0.12209891 -0.38246992
-0.1959547 0.11577111 -0.38331556
-0.15636043 0.11622309 -0.38437057
0.29761094 0.1096755 -0.64210606
0.31011117 0.11699437 -0.67187786
-0.1942552 0.073838487 -0.38481668
-0.15119486 0.076675214 -0.38489234
-0.12518892 0.067483865 -0.385851
0.041433454 0.059012845 -0.51407176
0.22842063 0.060974352 -0.58869457
0.25599253 0.066290341 -0.61516654
0.280644 0.076554656 -0.64733732
0.3003934 0.087417275 -0.675497
-0.1862824 0.039959759 -0.38695142
-0.15515852 0.032491595 -0.39027235
-0.11413632 0.031264022 -0.40010443
-0.072500601 0.026309252 -0.41880524
-0.043628111 0.025694728 -0.43093756
0.064523026 0.025503665 -0.51062572
0.10505709 0.024978757 -0.52770209
0.13961479 0.028260976 -0.55158514
0.1745597 0.033305347 -0.57523686
0.21020651 0.041345328 -0.59650993
0.24056305 0.045974776 -0.6264112
0.2593013 0.051474586 -0.6491062
-0.15187657 0.0069210231 -0.40264118
-0.12025921 0.0024304539 -0.41678101
-0.08054027 -0.00097356737 -0.43571925
-0.0395533 -0.0085243359 -0.44440404
0.067436904 -0.0078033581 -0.5065403
0.093130752 0.0079234987 -0.54207462
-0.022719011 -0.046925999 -0.44472367
0.072827443 -0.045260154 -0.49890929
-0.015351593 -0.095286377 -0.44227898
-0.010128066 -0.085026182 -0.44141406
0.085168093 -0.088614285 -0.49735093
-0.019294411 -0.12580968 -0.44971868
-0.0010735393 -0.1322183 -0.430464
0.097468421 -0.12287874 -0.49571514
0.10252799 -0.13949889 -0.50161773
0.19998182 -0.15338624 -0.56201911
0.2266822 -0.1482009 -0.56575656
0.0015229434 -0.17321704 -0.42892855
0.11110917 -0.15097472 -0.47781098
0.12201819 -0.16984773 -0.49750429
0.15919092 -0.16698869 -0.51971996
0.19291374 -0.15752001 -0.54370224
0.23889738 -0.16175395 -0.56496233
0.25042242 -0.18250579 -0.58568853
0.006787613 -0.21282232 -0.42926669
0.14649548 -0.22638069 -0.4831081
0.17040734 -0.22308534 -0.49934596
0.20739281 -0.22475064 -0.52835906
0.23598027 -0.21741994 -0.55798113
0.25111669 -0.20746505 -0.58274102
0.021014243 -0.25766784 -0.42386913
0.055460677 -0.27214152 -0.42108241
0.10551615 -0.2730372 -0.46218577
0.13073418 -0.25982857 -0.48790282
0.15945719 -0.24847537 -0.51366758
0.19199112 -0.24076487 -0.5403797
0.029174969 -0.284731 -0.43392694
0.059436113 -0.28730321 -0.44360676
0.091959938 -0.28337413 -0.46736985
0.2476742 -0.75863409 -0.46467656
0.27180514 -0.75671476 -0.47954798
0.24984089 -0.79473233 -0.45190945
0.27903715 -0.79381341 -0.4719829
0.24919789 -0.83616936 -0.44943523
0.27976307 -0.83664042 -0.46870223
0.22358221 -0.87951773 -0.43564552
0.25373656 -0.87106097 -0.44057655
0.29366824 -0.8649115 -0.46472061
0.30471343 -0.87731361 -0.48621911
-0.38755473 0.59195668 -0.40286374
-0.3669197 0.60961372 -0.41551411
-0.3906033 0.56008542 -0.40049094
-0.39348412 0.52417612 -0.39803019
-0.38502395 0.52676159 -0.41791368
-0.395852 0.48270869 -0.38790101
-0.39505845 0.44129589 -0.38153729
-0.38840571 0.40016669 -0.37535447
-0.37590036 0.35815635 -0.37019086
-0.37020352 0.31738496 -0.3712472
-0.34947211 0.31253392 -0.36101463
-0.36823782 0.2761426 -0.37476155
-0.34299535 0.27281478 -0.36458009
0.26880163 0.26200855 -0.70858526
-0.36220989 0.24712226 -0.37462625
-0.33548155 0.23593691 -0.36833426
-0.30115187 0.22529179 -0.36959156
0.27776295 0.23540121 -0.70889759
-0.33076978 0.19445173 -0.3707031
-0.29226014 0.19219181 -0.37314826
0.28804737 0.19075327 -0.71332192
-0.32634598 0.15165715 -0.37300953
-0.28999764 0.15289697 -0.37596428
-0.26009402 0.15062495 -0.37877524
0.30079573 0.15132943 -0.71078598
-0.32001495 0.116494 -0.37542042
-0.29083285 0.10896672 -0.37859863
-0.25029904 0.10947107 -0.38142642
0.30645099 0.10578978 -0.70067596
-0.28698912 0.067350224 -0.38128319
-0.24530788 0.068622485 -0.38336292
-0.21497872 0.059348255 -0.38490704
0.270248 0.059666365 -0.6811254
0.29103562 0.075863242 -0.6929009
-0.27674276 0.037986234 -0.38394681
-0.24566564 0.025023028 -0.38597617
-0.2036622 0.023056909 -0.38881963
-0.17566879 0.009657532 -0.39639255
0.049837783 0.013162389 -0.52467513
0.12442608 0.011136189 -0.59406853
0.15852892 0.013684556 -0.61168826
0.1928391 0.020870268 -0.63004953
0.22707607 0.032590628 -0.65366244
0.24954727 0.044406712 -0.66611338
-0.23720649 -0.0080494881 -0.39352795
-0.20582879 -0.01229316 -0.40259314
-0.17024215 -0.016837016 -0.41475621
-0.13166288 -0.022300631 -0.43338895
-0.09472096 -0.025786296 -0.45651117
-0.061013579 -0.028671958 -0.47450262
0.051195771 -0.0096214563 -0.54145199
0.082744941 -0.0029705018 -0.56354618
0.10924916 0.0037698597 -0.57996446
-0.038339838 -0.045646362 -0.47959542
-0.032804638 -0.062038019 -0.49045622
0.053429902 -0.049115598 -0.52740169
-0.028648511 -0.10653342 -0.46359161
-0.018849373 -0.097524688 -0.49169207
0.00041162968 -0.10776196 -0.50828671
0.064062968 -0.090511546 -0.52279252
-0.025006577 -0.13895561 -0.45778608
-0.0092184842 -0.13982588 -0.48937887
0.0042453706 -0.13841359 -0.50226152
0.078808308 -0.14066876 -0.52580607
0.082807228 -0.15617874 -0.53460467
-0.011561632 -0.1803672 -0.47323164
0.013030067 -0.17376193 -0.50575602
0.099822104 -0.16917998 -0.53970146
0.13285719 -0.17121316 -0.56176406
0.17059286 -0.17640877 -0.58564126
0.20721471 -0.17573443 -0.60240221
0.23706703 -0.18619892 -0.60656732
-0.0042780638 -0.22026791 -0.46776417
0.18352894 -0.2338118 -0.57845128
0.2139761 -0.21692657 -0.59477288
0.24333088 -0.20410052 -0.59897757
0.0027972907 -0.26524442 -0.46388122
0.079989314 -0.27899572 -0.50811934
0.10809214 -0.26259962 -0.525316
0.14326979 -0.25052243 -0.54893559
0.17747895 -0.24400988 -0.55881464
0.016391352 -0.28942567 -0.46190965
0.037388235 -0.29419181 -0.48079368
0.069914266 -0.28854066 -0.49092591
0.24049005 -0.73824364 -0.51084173
0.22396496 -0.75902122 -0.49238443
0.26083624 -0.75886166 -0.51232034
0.2238301 -0.80512047 -0.48140448
0.26285264 -0.79652011 -0.50446105
0.20795611 -0.85106903 -0.46302485
0.23093784 -0.83885485 -0.47593832
0.26592147 -0.84667736 -0.47976202
0.19842455 -0.87951237 -0.4506743
0.23363276 -0.88128114 -0.47970021
0.27579734 -0.8727259 -0.49268359
0.29944387 -0.87896168 -0.49396941
-0.39413372 0.50897276 -0.42063916
-0.39196587 0.51553911 -0.42934477
-0.39958927 0.47714031 -0.41783887
-0.4035989 0.43419412 -0.41943163
-0.4058125 0.39079085 -0.41170526
-0.40340513 0.35001874 -0.407949
-0.3961311 0.30917197 -0.40004867
-0.38719386 0.26346368 -0.39713717
-0.38266054 0.22867 -0.39424112
-0.36298537 0.21699293 -0.37897599
-0.38117257 0.18900864 -0.3963322
-0.36013177 0.18271694 -0.38184929
-0.37828651 0.14815679 -0.39805758
-0.35813174 0.14202198 -0.38556534
-0.34698313 0.10132158 -0.38397309
-0.338494 0.060646608 -0.38402382
-0.3059963 0.059268489 -0.38089919
-0.33403134 0.019625187 -0.38844797
-0.29684421 0.017816424 -0.38557413
-0.26929426 0.0027290434 -0.38771001
0.070993006 -0.00022262335 -0.61119133
0.10114342 0.010551438 -0.61495262
0.14040148 0.014946878 -0.62989545
0.17249678 0.016882569 -0.64759159
-0.32732338 -0.0060419291 -0.39330348
-0.29992837 -0.020614505 -0.39638203
-0.26114991 -0.02772066 -0.40224534
-0.21702425 -0.035525277 -0.4162271
-0.1802242 -0.038076609 -0.432758
-0.13084069 -0.03880246 -0.4611218
-0.11488584 -0.040655486 -0.49800542
-0.081237003 -0.033275202 -0.51734692
-0.058267429 -0.031663984 -0.54248267
0.039680451 -0.017785087 -0.58176035
0.060219869 -0.009002462 -0.59746265
0.095920548 -0.0002771765 -0.59988642
-0.25523549 -0.048147395 -0.42518908
-0.22439128 -0.04856427 -0.43662032
-0.19052631 -0.048204839 -0.4523868
-0.15518504 -0.047021203 -0.47206289
-0.12144008 -0.043626435 -0.48597008
-0.056426749 -0.044764802 -0.50832921
-0.04025577 -0.062349409 -0.52439505
-0.017316192 -0.093658932 -0.52007556
-0.0099656284 -0.10813074 -0.52701336
-0.0093956143 -0.15055926 -0.50876391
-0.0030108839 -0.13959183 -0.51529396
0.070255235 -0.15965939 -0.55632699
-0.015674248 -0.18857236 -0.5152775
-0.0032183528 -0.18549491 -0.53126979
0.082224637 -0.18347239 -0.56852329
0.12300873 -0.19500837 -0.58065903
0.15306284 -0.20070696 -0.59206903
-0.013049066 -0.23060288 -0.51307476
0.096731618 -0.22244686 -0.57458574
0.12124398 -0.22987153 -0.58199018
0.16468437 -0.22701237 -0.59854794
-0.0049909949 -0.26635408 -0.50222814
0.010429591 -0.28239846 -0.52271581
0.066942856 -0.27773625 -0.53089446
0.093320027 -0.2595402 -0.55654937
0.12036529 -0.24991024 -0.5641408
0.016802981 -0.2928372 -0.50437891
0.21028596 -0.74151707 -0.54506743
0.22267058 -0.74374521 -0.54712933
0.19825961 -0.76493204 -0.52455336
0.24230745 -0.76699615 -0.55001247
0.20528248 -0.80430543 -0.52039886
0.23540568 -0.79585087 -0.54215229
0.19691402 -0.85986114 -0.48608851
0.20896798 -0.8542347 -0.49708068
0.19084939 -0.8848871 -0.4814285
0.21151504 -0.87790102 -0.49605066
-0.40906796 0.37600684 -0.44127071
-0.40663981 0.34292775 -0.44051731
-0.40395775 0.35651588 -0.45047599
-0.40768161 0.3009454 -0.43685168
-0.40881601 0.30270082 -0.45887539
-0.40256602 0.26047546 -0.43362629
-0.4072603 0.26930389 -0.45582443
0.31709969 0.2407437 -0.87170792
0.34145266 0.24902506 -0.8784647
0.36620343 0.24615858 -0.89503032
-0.39556918 0.22511904 -0.42663243
-0.39856288 0.21415743 -0.44094217
0.32181171 0.21732666 -0.86362803
0.34608519 0.22098491 -0.86466503
0.3737863 0.22134845 -0.88759565
-0.38755292 0.18280676 -0.41149738
-0.38944364 0.17854171 -0.42931926
0.3235274 0.19457345 -0.86220288
0.34747162 0.1828973 -0.86608517
0.37084132 0.19091906 -0.88278174
-0.38392827 0.13908587 -0.40686554
-0.38475418 0.13575841 -0.42413577
-0.38200551 0.10554612 -0.40671098
-0.37942091 0.095268458 -0.41781282
-0.37340704 0.052662045 -0.41150162
-0.3591677 0.0098030418 -0.41206446
0.051552296 -0.0042304546 -0.63791162
0.068733722 0.0038924962 -0.64498931
-0.34107158 -0.017888024 -0.41691551
-0.31908756 -0.034125999 -0.42622274
-0.28992659 -0.048331931 -0.45259222
-0.2486465 -0.049561337 -0.48008192
-0.21036027 -0.047921076 -0.49569994
-0.17448071 -0.046487272 -0.50889099
-0.13337308 -0.046203285 -0.52975422
-0.097943246 -0.040098518 -0.54799682
-0.064847276 -0.042154461 -0.56497777
0.027868301 -0.024297431 -0.6121555
0.039931566 -0.016948208 -0.62448215
-0.27268711 -0.053013593 -0.44137076
-0.24054722 -0.053634405 -0.46063825
-0.20650283 -0.052932069 -0.47582331
-0.17899647 -0.049493976 -0.4844175
-0.15116173 -0.051062524 -0.52479488
0.15451288 -0.13141735 -0.70088774
0.17756996 -0.13310596 -0.71473849
-0.012247473 -0.16521402 -0.59605235
-0.0021831393 -0.15903336 -0.60115767
0.088854522 -0.16467062 -0.65720987
0.11943948 -0.15843898 -0.67576057
0.15247959 -0.15343466 -0.69531333
0.17846107 -0.14242956 -0.71319503
-0.023662195 -0.20676635 -0.54444814
-0.015640825 -0.20241442 -0.57190961
0.0098884404 -0.18942757 -0.5922873
0.043298393 -0.19864307 -0.62458915
0.086456746 -0.18172809 -0.6523459
0.11179864 -0.17984968 -0.6673004
-0.021495759 -0.2348078 -0.53998947
-0.018299535 -0.23151278 -0.5603354
-0.018876195 -0.26285005 -0.53579235
-0.012710437 -0.27733892 -0.55239779
0.18747541 -0.74613822 -0.57364607
0.20352885 -0.74766034 -0.5826695
0.17157412 -0.77093625 -0.5589242
0.22259575 -0.77706385 -0.58781004
0.18341006 -0.80721039 -0.55753881
0.20250292 -0.7993058 -0.57663733
-0.40344217 0.27746755 -0.46819627
0.32558605 0.27513075 -0.91960907
0.34604162 0.27527457 -0.93444908
-0.41005284 0.23998708 -0.4568415
-0.40780696 0.25227916 -0.46213019
0.30252534 0.24465877 -0.89570177
0.3208957 0.2626285 -0.89954925
0.36567593 0.25541282 -0.92580831
0.37832457 0.24329849 -0.95176399
-0.40517583 0.21658032 -0.45966402
0.30409068 0.21169609 -0.88968551
0.37975734 0.21343102 -0.92121142
0.38102916 0.21063544 -0.94724548
-0.4004277 0.17237946 -0.4591186
0.31181306 0.18325201 -0.88041914
0.32896516 0.16079122 -0.88243085
0.36858213 0.17127529 -0.91463804
-0.39753389 0.12852068 -0.45873094
0.33337665 0.13596097 -0.89349711
0.35602885 0.13415498 -0.91343951
-0.39220721 0.087117329 -0.45564497
-0.3872239 0.043856651 -0.45403162
-0.3712922 0.0056384653 -0.44663018
-0.35624027 -0.014023453 -0.46156785
-0.35286069 -0.01701045 -0.43753541
-0.33639178 -0.029790729 -0.46249515
-0.30588791 -0.039643645 -0.48564446
-0.26736841 -0.041446432 -0.50581378
-0.23114106 -0.04108265 -0.52030617
-0.19123855 -0.037543774 -0.53969443
-0.15016317 -0.041828096 -0.55276901
-0.12870856 -0.040837407 -0.56252778
0.10383299 -0.10129867 -0.72855365
0.13470244 -0.095593102 -0.74418455
0.16973573 -0.093257532 -0.75867963
0.20381814 -0.092605658 -0.78079927
0.22930741 -0.094173938 -0.80210996
-0.071004048 -0.14160459 -0.61940491
-0.04114522 -0.13625526 -0.6279096
-0.008648783 -0.13055208 -0.64746523
0.029578865 -0.12844494 -0.66308844
0.066156298 -0.1224363 -0.68221194
0.10502914 -0.11762068 -0.69868624
0.14258298 -0.11021583 -0.71707821
0.18353674 -0.11400213 -0.73324597
0.21712968 -0.11524332 -0.76040125
0.2448034 -0.12063416 -0.79366696
-0.14623539 -0.17533025 -0.56848037
-0.11415045 -0.16695893 -0.5802319
-0.075591996 -0.15943088 -0.59541392
-0.035959899 -0.15406753 -0.60208142
0.010647357 -0.15213645 -0.62733704
0.039424211 -0.15825486 -0.63704133
0.075108498 -0.14850803 -0.65640831
0.10779199 -0.14271143 -0.67424011
0.16517946 -0.16854461 -0.70297718
0.19097248 -0.15849672 -0.72243488
0.2222825 -0.16141927 -0.75569904
0.24280021 -0.15996814 -0.78774619
-0.14528067 -0.20270802 -0.5627594
-0.1106068 -0.20317079 -0.5697794
-0.067336157 -0.20209025 -0.57973993
-0.035441428 -0.20062971 -0.5853585
0.048228294 -0.19330527 -0.63496655
0.082707554 -0.20411731 -0.65064096
0.12190059 -0.2047205 -0.67263162
0.1557813 -0.20125559 -0.6976133
0.18576995 -0.20504044 -0.73092866
0.21087742 -0.1934077 -0.75878251
0.22745022 -0.18723375 -0.78242731
-0.10577479 -0.24182533 -0.57375908
-0.069379956 -0.24548861 -0.58253622
-0.02729474 -0.24427377 -0.58837712
-0.00096350908 -0.24996158 -0.60633713
0.04944548 -0.25310305 -0.65957433
0.078245014 -0.24803394 -0.65479445
0.11494601 -0.24537177 -0.68265569
0.14419878 -0.23724766 -0.71111017
0.17046508 -0.23157175 -0.73805869
-0.094007045 -0.27063337 -0.57985324
-0.068095908 -0.27752027 -0.58763444
-0.026690587 -0.28137323 -0.59417349
-0.011703819 -0.28330109 -0.61923617
0.082728177 -0.2724615 -0.66987729
0.099805087 -0.27443382 -0.68642473
0.16050041 -0.74999064 -0.61072046
0.18422678 -0.75246358 -0.62084532
0.13805127 -0.78662199 -0.59765553
0.15767807 -0.78391862 -0.59478223
0.19634293 -0.78484964 -0.61914217
0.16115573 -0.81090564 -0.59433687
0.19246119 -0.80279303 -0.60352105
0.30625609 0.27108008 -0.95098633
0.33869019 0.27433926 -0.96607339
0.28859377 0.24231289 -0.92262214
0.28920251 0.24833468 -0.937675
0.35863885 0.26284605 -0.9706099
0.36821997 0.2499615 -0.97674125
0.29331219 0.2152309 -0.91371167
0.29335362 0.20493402 -0.93183005
0.38138321 0.20445634 -0.95710933
0.30026361 0.18661799 -0.90086889
0.30297327 0.16360413 -0.92252815
0.35741484 0.15457574 -0.93812001
0.31421313 0.1178073 -0.91989982
0.35189301 0.11739364 -0.93823689
0.32165277 0.093535975 -0.93049955
0.33969426 0.092982113 -0.94065166
-0.39075941 0.029199585 -0.48085257
-0.387214 0.0076918751 -0.47805518
-0.31495097 -0.028807595 -0.50475675
0.046326995 -0.10404328 -0.73324263
0.078511626 -0.098774135 -0.74452537
0.11570129 -0.090917766 -0.76411188
0.1521982 -0.083291523 -0.78761864
0.19044828 -0.081390798 -0.80722362
0.22797522 -0.086095862 -0.83031392
0.24615386 -0.093960501 -0.8511849
-0.17286976 -0.14719506 -0.60332292
-0.13494974 -0.14373796 -0.61650366
-0.097689405 -0.13863219 -0.63190472
-0.060725465 -0.13099961 -0.6540544
-0.023737639 -0.12302519 -0.67474836
0.0081941783 -0.11602424 -0.69539201
0.042244166 -0.10919184 -0.7123549
0.08034867 -0.10400518 -0.72169173
0.24963272 -0.11820029 -0.81644082
0.2537623 -0.12615138 -0.83941638
-0.23676872 -0.18491197 -0.55957454
-0.20636186 -0.17135458 -0.56898797
-0.16722415 -0.16294013 -0.57918906
-0.13025293 -0.15253833 -0.59564579
-0.10016547 -0.14754489 -0.60731333
0.24463689 -0.17319164 -0.81722009
0.25199705 -0.15935323 -0.83545756
-0.23615961 -0.21003611 -0.55409026
-0.20242631 -0.20923941 -0.55467862
-0.16259503 -0.21169724 -0.55955029
0.12958056 -0.23070353 -0.75812268
0.16102943 -0.22532722 -0.77388662
0.20057881 -0.21317366 -0.78716159
0.22836569 -0.19590114 -0.81180763
-0.22427168 -0.24056406 -0.55528766
-0.1999546 -0.25281557 -0.5585919
-0.15741248 -0.25124604 -0.56520224
-0.12468542 -0.25648397 -0.57363421
-0.0029881001 -0.26684669 -0.66656423
0.034783125 -0.26348752 -0.67730498
0.050912589 -0.26703846 -0.69817895
0.09630248 -0.25673854 -0.71972084
0.13082141 -0.24651113 -0.73679107
0.16739899 -0.23831834 -0.75506783
-0.19046016 -0.27821112 -0.5679462
-0.16273095 -0.27804664 -0.57610202
-0.12083177 -0.28356194 -0.59039009
-0.084596515 -0.29791969 -0.60421646
-0.048895031 -0.3020795 -0.62696379
-0.017674267 -0.28518695 -0.64939302
0.070249051 -0.28333095 -0.69182664
0.093905002 -0.28141472 -0.70322162
0.13436258 -0.75532812 -0.64231455
0.16308752 -0.75509393 -0.65653849
0.11867145 -0.7939139 -0.62822092
0.14136641 -0.80082446 -0.63809234
0.17543083 -0.7851845 -0.65754336
0.13640031 -0.81721687 -0.62844372
0.28465909 0.26669061 -0.98073685
0.3167544 0.2717607 -1.0026979
0.27697191 0.23595539 -0.96883237
0.29020128 0.21195824 -0.95722771
-0.50169891 0.09773472 -0.51499152
-0.47563303 0.10028523 -0.526793
-0.44678891 0.1029391 -0.54232782
0.30016112 0.11186191 -0.95555031
0.34497967 0.10139528 -0.97211993
-0.49887133 0.070338622 -0.50627685
-0.47064179 0.072258234 -0.51642245
-0.43688977 0.066798612 -0.53649759
0.30392537 0.073636308 -0.95473444
0.33385813 0.071886048 -0.96998143
-0.49468675 0.038683861 -0.50601035
-0.47010791 0.038165227 -0.51621801
-0.42866898 0.031324133 -0.53388661
0.31970131 0.046183467 -0.97477436
0.16665509 -0.070972726 -0.85789514
0.19981781 -0.070152491 -0.8763535
0.22179502 -0.070680201 -0.89440817
-0.011263162 -0.11349688 -0.7412402
0.023624539 -0.10560947 -0.75456023
0.061956942 -0.096560255 -0.77708709
0.097710013 -0.087514907 -0.79947621
0.13273752 -0.078371927 -0.8240453
0.17283359 -0.073831484 -0.83515537
0.21076894 -0.074498028 -0.85655731
0.24240342 -0.087668672 -0.88474333
-0.22793624 -0.15012726 -0.60819888
-0.19167113 -0.14343123 -0.61973625
-0.15389454 -0.14009315 -0.64195746
-0.11783892 -0.13511319 -0.66931176
-0.081603438 -0.13061854 -0.68604755
-0.04570514 -0.12297592 -0.70998722
-0.012517929 -0.11349264 -0.72567326
0.25253052 -0.13194275 -0.87935174
-0.2927984 -0.18540129 -0.56960803
-0.26216459 -0.17395124 -0.57587838
-0.22655347 -0.15996461 -0.58726585
0.22677231 -0.18411782 -0.83831155
0.24616703 -0.16657403 -0.86596429
-0.29015681 -0.21774177 -0.55984592
-0.25987145 -0.21616919 -0.55491555
0.18880329 -0.21338326 -0.80918264
0.22374272 -0.19504657 -0.83145022
-0.28518584 -0.25396001 -0.56068963
-0.25350726 -0.26045719 -0.55864006
-0.223674 -0.2700685 -0.56092924
-0.059372663 -0.27238616 -0.66576225
0.017982483 -0.26815087 -0.70901418
0.032754421 -0.27048567 -0.71543396
-0.24639183 -0.28310469 -0.57414013
-0.21315381 -0.28804579 -0.58175123
-0.17735179 -0.29168954 -0.60056072
-0.1412323 -0.29138303 -0.62213039
-0.10472226 -0.30386797 -0.63728273
-0.065182388 -0.29710865 -0.65826309
-0.038448632 -0.29362354 -0.66289967
0.093856364 -0.77083743 -0.67108786
0.11576861 -0.75481641 -0.6766696
0.14573097 -0.76017332 -0.69093919
0.099802673 -0.79492223 -0.65471041
0.12608287 -0.80826104 -0.67214185
0.15582097 -0.78990096 -0.68908191
0.10041744 -0.81814802 -0.65853864
0.11835265 -0.82050759 -0.65847093
0.26540077 0.26360464 -1.0182605
0.3015278 0.27119529 -1.0396556
0.31453165 0.25815332 -1.0591744
0.26444685 0.23403528 -1.0084339
-0.52257836 0.12775712 -0.55490363
-0.49680424 0.1306335 -0.56413633
-0.46892872 0.13082567 -0.57876724
-0.55006534 0.096272632 -0.52998507
-0.52381182 0.10985859 -0.52866787
-0.48494557 0.11935948 -0.54326349
-0.45065925 0.10779911 -0.56070131
0.29796904 0.096728191 -0.98077714
-0.54746234 0.072555482 -0.52596617
-0.52744436 0.062596485 -0.51430976
-0.43782386 0.064479873 -0.5719558
0.28811345 0.064134374 -0.98681545
0.32466415 0.054097489 -1.003798
-0.51377916 0.024035662 -0.52103567
-0.47376519 0.015769929 -0.5241524
-0.44051713 0.013756186 -0.54917264
-0.4270786 0.010878488 -0.58145624
0.29015568 0.032317445 -0.98867184
0.31354377 0.024920598 -1.0030661
-0.5075835 -0.0025638491 -0.53399944
-0.48259261 -0.009913221 -0.54107869
-0.44362941 -0.0066855699 -0.56305861
-0.42889321 -0.0030214936 -0.58568567
0.11227539 -0.076610714 -0.86961949
0.146056 -0.069405407 -0.88195574
0.18293604 -0.066435531 -0.90476507
0.21767288 -0.067847475 -0.92419416
0.23462567 -0.074524447 -0.94555092
-0.063830137 -0.12227608 -0.77217406
-0.031113535 -0.11817303 -0.77391887
0.00025230646 -0.11041814 -0.78924078
0.037124246 -0.10048722 -0.81371486
0.074547768 -0.089056194 -0.83615237
0.10809931 -0.0802145 -0.84628963
0.24415639 -0.089741632 -0.91394883
0.24514863 -0.09996368 -0.93848908
-0.3165133 -0.16105178 -0.61296976
-0.28383616 -0.15639903 -0.61890125
-0.24870753 -0.1467948 -0.63735873
-0.21355258 -0.1416745 -0.66234267
-0.17519993 -0.1402472 -0.68188536
-0.13929151 -0.13737394 -0.70165581
-0.10247035 -0.1330549 -0.72783834
-0.067285538 -0.12549792 -0.74667788
-0.037172586 -0.12016284 -0.75633878
0.24705565 -0.12811509 -0.91151965
0.24589503 -0.12501746 -0.91943598
-0.34380659 -0.18886721 -0.59057063
-0.31852007 -0.17695078 -0.5879423
-0.28368443 -0.16389555 -0.59469986
-0.34019253 -0.22131263 -0.58334589
-0.31995848 -0.22722864 -0.5708555
-0.30960193 -0.26884931 -0.57840914
-0.2775566 -0.28421572 -0.60381776
-0.24449763 -0.28141287 -0.62246782
-0.19861159 -0.27394676 -0.6398983
-0.1777465 -0.27672479 -0.64677173
-0.052867025 -0.27797776 -0.74049616
-0.025490016 -0.2747027 -0.74941695
-0.0057097971 -0.27961585 -0.76890218
-0.26974019 -0.28849077 -0.59161955
-0.23330969 -0.29056168 -0.60813022
-0.19498928 -0.28722301 -0.62090397
-0.12813076 -0.2913861 -0.66527641
-0.08143425 -0.30234164 -0.72673464
-0.053628802 -0.30845928 -0.72594613
-0.018751681 -0.30919662 -0.73869079
-0.0029740334 -0.30195102 -0.76281846
-0.032543898 -0.32923174 -0.73696983
0.075093895 -0.76996446 -0.69942802
0.093175858 -0.75507808 -0.71174443
0.12496719 -0.76373523 -0.72630537
0.073803365 -0.80249965 -0.69300711
0.099131286 -0.81615067 -0.70510828
0.13469857 -0.79343688 -0.72618175
-0.29266569 -0.85276425 -0.48431188
-0.26229268 -0.84785116 -0.49897215
-0.23248506 -0.85312229 -0.52251756
0.090999037 -0.82065022 -0.67485183
0.092444569 -0.82581532 -0.69133002
-0.29047841 -0.88515824 -0.47870559
-0.25738221 -0.88668483 -0.49265251
-0.23825668 -0.87806427 -0.51635438
-0.28181654 -0.92417002 -0.48417595
-0.25899258 -0.93162739 -0.49036282
-0.25700369 -0.95747048 -0.48961005
0.24408922 0.25777632 -1.0561631
0.27695763 0.27268255 -1.0777335
0.30135983 0.26194796 -1.0910867
0.2516962 0.23384663 -1.0515609
-0.54245627 0.12724601 -0.57590425
-0.51228988 0.13452336 -0.5904054
-0.48427919 0.13310927 -0.60426682
-0.56550622 0.094058052 -0.55439377
-0.55729055 0.11249383 -0.56122756
-0.4618063 0.08719945 -0.60724634
-0.5617404 0.06717366 -0.54898393
-0.54666531 0.050264627 -0.56519556
-0.46467805 0.050411224 -0.60290205
0.27776247 0.044139624 -1.017517
0.28055578 0.042724788 -1.0365592
-0.53730565 0.01805526 -0.55747038
-0.46828371 0.021753535 -0.60269183
-0.44037586 0.0030291826 -0.60254824
0.27557927 0.013550073 -1.0187649
0.31458238 0.015591934 -1.0363548
0.31414846 0.00055935979 -1.0543466
-0.52315891 -0.013257235 -0.55751526
-0.50037241 -0.032977179 -0.56518841
-0.4607608 -0.025581002 -0.58849192
-0.43490708 -0.0046698451 -0.59300804
0.12940401 -0.023631111 -0.93881923
0.14377543 -0.017028779 -0.95191407
0.27045897 -0.019297764 -1.0263267
0.30394357 -0.024565712 -1.0282115
0.31753132 -0.016579524 -1.0576572
-0.49638924 -0.049636394 -0.58172733
-0.48212567 -0.052499145 -0.59182334
0.062423885 -0.084751219 -0.89144111
0.08843118 -0.078044385 -0.89640206
0.12433338 -0.06749849 -0.9201861
0.16193506 -0.061784416 -0.94123602
0.19543844 -0.0610971 -0.96146178
0.22678158 -0.072191149 -0.98102421
0.27735507 -0.05634892 -1.0270821
0.29983187 -0.068191603 -1.0304003
-0.083145171 -0.12531839 -0.7904433
-0.055264533 -0.11999445 -0.80627507
-0.017570019 -0.11143419 -0.82793081
0.017010748 -0.10142568 -0.85181701
0.049906254 -0.091642514 -0.87104768
0.2412841 -0.10182941 -0.9796986
0.27549455 -0.12285209 -1.0197041
0.29477045 -0.10707825 -1.0265131
-0.36672512 -0.1685214 -0.6324023
-0.34007564 -0.16142143 -0.63356751
-0.3057929 -0.15262628 -0.65363026
-0.26960638 -0.14505723 -0.67268139
-0.23424946 -0.14238334 -0.69885564
-0.1993563 -0.14163396 -0.72216737
-0.16112985 -0.13960111 -0.74308795
-0.12459826 -0.13492745 -0.7605716
-0.094005585 -0.12856047 -0.77787054
0.27602109 -0.14121765 -1.0140467
0.28939822 -0.13193506 -1.0240967
-0.36493072 -0.18676923 -0.61182755
-0.34647965 -0.17086211 -0.61022401
-0.36107928 -0.23110831 -0.60472506
-0.35137439 -0.26055968 -0.60424358
-0.33068416 -0.27859315 -0.61247247
-0.29360747 -0.27661255 -0.62651199
-0.07164976 -0.28283471 -0.75205213
-0.050462663 -0.27597257 -0.78967613
-0.017432839 -0.28160414 -0.79619157
-0.089312136 -0.30760124 -0.73471719
-0.071060985 -0.32393202 -0.75439191
-0.04011479 -0.32358035 -0.77895993
-0.014856935 -0.30824435 -0.79401654
-0.06530717 -0.33536848 -0.75575054
0.40224472 -0.70434403 -0.97101295
0.43297035 -0.70246089 -0.98361754
0.45651406 -0.70210087 -0.99534917
0.36092746 -0.73529243 -0.93721044
0.39762342 -0.72639966 -0.95242321
0.43909207 -0.72394186 -0.96390951
0.46969175 -0.72735012 -0.98970717
0.049697816 -0.77475244 -0.73448014
0.07495293 -0.75686169 -0.7517823
0.10392591 -0.76911485 -0.76602399
0.36386415 -0.76284575 -0.93449515
0.40079913 -0.77039969 -0.94937229
0.44009215 -0.76825196 -0.95952863
0.46904022 -0.76678878 -0.98481679
-0.27095899 -0.83045095 -0.54126835
-0.25036016 -0.82700002 -0.55583721
-0.2161572 -0.82533526 -0.5795325
-0.18097034 -0.82706863 -0.601767
-0.15578343 -0.82919127 -0.62163031
0.053079993 -0.81387663 -0.72524965
0.081090569 -0.82194614 -0.74043947
0.11353132 -0.79647529 -0.76697761
0.40951002 -0.79561412 -0.9584291
0.44306082 -0.80794287 -0.96529555
0.47509369 -0.81480354 -0.9832902
-0.31415468 -0.85482275 -0.5070768
-0.28300372 -0.83672333 -0.52576351
-0.23834597 -0.83447737 -0.53941536
-0.20356379 -0.84948981 -0.55981255
-0.17447405 -0.85533988 -0.59428096
-0.15172321 -0.84698313 -0.61990047
0.073490083 -0.83361411 -0.73555118
0.44633764 -0.84241188 -0.97057462
0.46620136 -0.83980381 -0.9771862
-0.32300007 -0.89288485 -0.4936831
-0.25281301 -0.90505505 -0.51102811
-0.23668177 -0.89601994 -0.53606188
-0.20988515 -0.8860473 -0.56483883
-0.18474352 -0.87872571 -0.59272414
-0.30429345 -0.93028843 -0.49427286
-0.25241601 -0.9237414 -0.51117074
-0.24934074 -0.93395448 -0.52992034
-0.29661724 -0.97568387 -0.49273011
-0.26243174 -0.97476655 -0.49503928
-0.24277569 -0.96862578 -0.52465689
-0.30987537 -1.0002707 -0.4947747
0.2637071 0.28180537 -1.1348939
0.22738549 0.25222823 -1.0941377
0.25491747 0.2721054 -1.1121392
0.28324822 0.26813608 -1.1296179
0.24017635 0.23502088 -1.084419
0.2452957 0.23114671 -1.0912821
-0.56421065 0.12165043 -0.61138678
-0.53490233 0.12996787 -0.62945044
-0.50865483 0.12783915 -0.64046109
-0.57787585 0.087322965 -0.57935888
-0.57851768 0.094697461 -0.60021329
-0.57258183 0.073245406 -0.57132298
-0.56265968 0.070698917 -0.58448261
-0.48926803 0.04394573 -0.63547456
0.24928957 0.031899184 -1.0685616
0.26959538 0.041134059 -1.0790074
-0.54093599 0.00080300868 -0.58277851
-0.53021276 0.0075205863 -0.60431904
-0.48937079 0.0097664893 -0.62916124
0.26180547 -0.0030787587 -1.0454786
-0.54376626 -0.023201168 -0.59666842
-0.53013957 -0.037955359 -0.59934127
-0.47390229 -0.030722752 -0.6303637
-0.46617913 -0.051254496 -0.64738148
0.11061817 -0.029749334 -0.96579587
0.13225001 -0.03459543 -0.98360205
0.16594079 -0.045644879 -1.0121619
0.21546599 -0.043026313 -1.0239313
0.2496601 -0.040698975 -1.0417792
0.30926949 -0.033400685 -1.0768766
-0.51237708 -0.066439256 -0.60503161
-0.48068225 -0.071127594 -0.62131816
-0.46350566 -0.067393854 -0.64875931
0.037540555 -0.089130536 -0.91540265
0.06552735 -0.078808039 -0.93232161
0.10208932 -0.067258641 -0.95830166
0.1404148 -0.057710469 -0.97315258
0.17445183 -0.056493253 -0.99003768
0.22099274 -0.065841526 -1.0134937
0.24792206 -0.076723859 -1.0394764
0.31144214 -0.079779446 -1.0527261
0.31133157 -0.072396636 -1.0732337
-0.14239796 -0.13451116 -0.813344
-0.10877621 -0.12860782 -0.82474774
-0.07513687 -0.12041153 -0.8445195
-0.038900405 -0.11147068 -0.86598027
-0.0021763444 -0.10098369 -0.8892923
0.019844711 -0.095043153 -0.90144712
0.23562208 -0.10642564 -1.0124657
0.25637192 -0.11124216 -1.0400573
0.30751359 -0.11323978 -1.05031
0.30881754 -0.11335237 -1.0754031
-0.38912386 -0.1698651 -0.65754288
-0.36198771 -0.15770268 -0.66955316
-0.32930917 -0.14936176 -0.69081908
-0.29242188 -0.14511465 -0.71257401
-0.25500134 -0.14332703 -0.73191404
-0.21911916 -0.14198372 -0.7563976
-0.18266518 -0.13982168 -0.78064001
-0.14584845 -0.13617593 -0.79399806
0.23782361 -0.15684231 -1.0042727
0.25615087 -0.15261492 -1.0192952
0.2905798 -0.15449552 -1.0471832
0.30229875 -0.14193588 -1.0759982
-0.39418343 -0.1966396 -0.64252782
0.25416452 -0.18608001 -1.0287516
0.26822397 -0.18494084 -1.0512791
-0.38692877 -0.24003461 -0.64130914
-0.059414923 -0.25593999 -0.81427038
-0.37188384 -0.26667956 -0.63949662
-0.35570955 -0.27101761 -0.64380831
-0.073705435 -0.28551468 -0.79443318
-0.057644337 -0.27458173 -0.80520177
-0.025594056 -0.2861906 -0.83918953
-0.10675305 -0.33527088 -0.77058804
-0.081395119 -0.32799855 -0.77754313
-0.038086593 -0.32162443 -0.80208045
-0.021532208 -0.32272401 -0.83654982
-0.021687359 -0.3542949 -0.8415277
0.35255021 -0.71186543 -0.96596813
0.38314909 -0.70793998 -0.98011744
0.41607821 -0.70644164 -0.99580783
0.44940168 -0.70587301 -1.0084934
0.050805449 -0.75610495 -0.80587345
0.066111177 -0.75659668 -0.81807864
0.19460341 -0.74906087 -0.89068234
0.22976339 -0.74080312 -0.90447015
0.26901406 -0.73439676 -0.9186396
0.30997911 -0.72880191 -0.93583792
0.34033275 -0.71798223 -0.95945299
0.3694472 -0.71982861 -0.99618232
0.41481116 -0.72588617 -1.0171432
0.45558739 -0.73376906 -1.0279672
0.47785652 -0.73381716 -1.0270927
-0.011877149 -0.79368341 -0.76561981
0.018857539 -0.77635455 -0.76839566
0.051972002 -0.75851285 -0.78025126
0.091073632 -0.77402306 -0.80863035
0.10267726 -0.77966321 -0.83461225
0.17070818 -0.77253354 -0.87572157
0.19460103 -0.78082752 -0.882608
0.23234901 -0.78089404 -0.89609951
0.27381086 -0.7780422 -0.91045392
0.31445652 -0.77787918 -0.92648923
0.349774 -0.78383958 -0.94329894
0.38349676 -0.78847772 -0.95015287
0.41936561 -0.77457976 -1.012682
0.45849505 -0.77821624 -1.013777
-0.26037994 -0.83255666 -0.58056581
-0.23322773 -0.82648778 -0.6108169
-0.19702406 -0.81643623 -0.63387352
-0.15695091 -0.8155964 -0.65062654
-0.12315905 -0.81749237 -0.67380744
-0.090494305 -0.81884599 -0.70361149
-0.061965823 -0.82076633 -0.7299633
-0.014011979 -0.81216013 -0.76024306
0.0202353 -0.82184684 -0.7562356
0.065517843 -0.83233422 -0.7889002
0.089313328 -0.80484438 -0.80485642
0.26502907 -0.80240351 -0.92390037
0.30496976 -0.80272073 -0.94566405
0.3437801 -0.80101031 -0.96233988
0.38639507 -0.81294322 -0.97350508
0.41914433 -0.82205832 -0.97077489
0.46565616 -0.81021202 -1.0141889
-0.31920233 -0.86571842 -0.53468937
-0.29565454 -0.85672289 -0.55979526
-0.27216974 -0.85828537 -0.59290874
-0.24708074 -0.87323499 -0.61208922
-0.16942149 -0.87605059 -0.6133703
-0.14545098 -0.86453688 -0.63725019
-0.12136151 -0.86100447 -0.67017806
-0.094792396 -0.85450763 -0.69906396
-0.06841597 -0.84185922 -0.72316813
0.031300336 -0.84417975 -0.77284694
0.052992344 -0.8453275 -0.77371281
0.39692757 -0.85020238 -0.98044157
0.42282766 -0.84444058 -0.96552503
-0.3242867 -0.89463615 -0.52212596
-0.29435933 -0.8978312 -0.55081803
-0.26424429 -0.90212977 -0.58106875
-0.22897014 -0.90499485 -0.59808046
-0.18954913 -0.89560932 -0.61741549
-0.1606037 -0.88894904 -0.64686996
-0.14115815 -0.88596785 -0.67218971
-0.32001111 -0.93973637 -0.52611327
-0.29430851 -0.94239765 -0.55715317
-0.26441768 -0.93800437 -0.56963623
-0.31852293 -0.98517549 -0.5215432
-0.28860945 -0.98813009 -0.54650277
-0.26221913 -0.97589409 -0.56495327
-0.3265717 -1.0045973 -0.50982314
0.24045271 0.27559957 -1.1602008
0.25888163 0.27652547 -1.1709175
0.2086443 0.25033063 -1.1330171
0.22402182 0.25566068 -1.1410687
0.27127939 0.25962654 -1.1652687
-0.58507669 0.11521304 -0.64644718
-0.55623674 0.12717241 -0.66679895
-0.53114325 0.12580031 -0.68318146
-0.59000295 0.089718401 -0.64019787
0.25249454 0.072167665 -1.137405
0.27548406 0.077372611 -1.1447059
0.23710874 0.034476221 -1.0888572
0.25046325 0.05095616 -1.114643
0.27974829 0.061087966 -1.1242533
-0.53001505 -0.0026248693 -0.64456344
-0.51308256 -0.0020128191 -0.65331507
-0.55375975 -0.038196966 -0.61771441
-0.54194635 -0.041045576 -0.6396789
-0.50129378 -0.038016453 -0.664873
-0.47666338 -0.057386547 -0.67320359
0.094326705 -0.052302718 -1.0070918
0.11663419 -0.051658317 -1.0177791
0.1529502 -0.047811136 -1.0385525
0.17099556 -0.048287183 -1.0491723
-0.53364259 -0.081897959 -0.6358825
-0.48664677 -0.093236506 -0.64554334
-0.47689846 -0.081103131 -0.67302334
-0.021465689 -0.10129818 -0.94557732
0.0079885721 -0.095923141 -0.94735277
0.046529323 -0.08361353 -0.97136742
0.080911279 -0.067728251 -0.99298948
0.11215296 -0.05971849 -1.0052178
0.30355352 -0.088305458 -1.1024821
-0.52250266 -0.10774937 -0.64942491
-0.49994808 -0.11258018 -0.65559906
-0.48309204 -0.10620822 -0.67805743
-0.24305919 -0.14285727 -0.80599868
-0.20300744 -0.14078334 -0.81902611
-0.16595031 -0.1362029 -0.83972251
-0.13096133 -0.12947509 -0.85985839
-0.09823525 -0.12293732 -0.87717229
-0.063638598 -0.11596623 -0.90294844
-0.027082473 -0.10617612 -0.92486078
0.23982698 -0.12321904 -1.0634961
0.24820966 -0.11650357 -1.0867218
-0.41515204 -0.17035374 -0.68904752
-0.38398033 -0.15537588 -0.70830566
-0.35072744 -0.14856173 -0.72864234
-0.31667233 -0.14611103 -0.75349885
-0.27951968 -0.14535616 -0.77459711
-0.24014659 -0.14356387 -0.78915405
-0.20674469 -0.14091539 -0.79788423
0.23175037 -0.14510205 -1.0544715
0.28315452 -0.17018224 -1.0756438
0.29602507 -0.14569156 -1.0864515
-0.42465124 -0.20335013 -0.678101
0.25214207 -0.198998 -1.0568126
0.26541308 -0.1881074 -1.0637884
-0.40471995 -0.24568081 -0.6773982
-0.37829351 -0.26056564 -0.67141795
-0.068115473 -0.3025547 -0.85553062
-0.033312857 -0.29670039 -0.87987238
-0.070787758 -0.31462896 -0.8589114
-0.042803109 -0.33312833 -0.87447065
-0.071644396 -0.38652194 -0.85900104
-0.03618753 -0.37345043 -0.86860478
-0.01720953 -0.38629287 -0.88410151
-0.075115383 -0.41108871 -0.84092027
-0.034209818 -0.4085364 -0.85627782
-0.0088350773 -0.40858883 -0.87946373
-0.07340169 -0.45215109 -0.83587635
-0.030799061 -0.45046961 -0.85223913
-0.014261693 -0.45430619 -0.87783933
-0.064255387 -0.49554449 -0.8351531
-0.02864477 -0.49453777 -0.84819365
-0.01144442 -0.4963854 -0.87095088
-0.058041036 -0.5376302 -0.83360791
-0.027602285 -0.53609043 -0.8411234
0.00014442205 -0.54229158 -0.86460555
-0.053418875 -0.57903188 -0.82548541
-0.02140969 -0.57874048 -0.8297748
0.0094711185 -0.57895935 -0.85842848
-0.04955411 -0.61579341 -0.82466388
-0.021382868 -0.61672151 -0.82602119
0.014253259 -0.61746168 -0.85293645
-0.040914655 -0.64604592 -0.82343525
-0.017941356 -0.65908533 -0.82457811
0.018786371 -0.65951812 -0.848216
-0.01198402 -0.70144957 -0.82373995
0.023492873 -0.70029432 -0.84279668
-0.0039407909 -0.74863493 -0.81539488
0.029573113 -0.74407732 -0.82895011
0.066065282 -0.75177491 -0.84790474
0.10368308 -0.75380403 -0.87126279
0.14299539 -0.7476241 -0.88910067
0.17816043 -0.74001718 -0.91068578
0.20931309 -0.73451984 -0.93188202
0.24693298 -0.73597991 -0.957111
0.28410092 -0.73778296 -0.97707522
0.32130289 -0.74267173 -0.99655122
0.36158189 -0.7420553 -1.0146346
0.39923754 -0.74057376 -1.0291955
0.43910104 -0.74442899 -1.0400598
-0.1378793 -0.80119014 -0.71731448
-0.11019436 -0.79620671 -0.7368561
-0.071546435 -0.79204619 -0.75918925
-0.038515329 -0.78472292 -0.77799439
-0.010152578 -0.77119339 -0.79075593
0.093770802 -0.76444298 -0.84089774
0.11588329 -0.78058553 -0.85210574
0.14963475 -0.78434944 -0.86914599
0.28668293 -0.80050689 -0.98105234
0.32492593 -0.80400121 -0.98913699
0.358834 -0.80118001 -0.98925364
0.39818799 -0.78320479 -1.0178864
-0.23965737 -0.83947873 -0.63537443
-0.21316631 -0.83354056 -0.66340297
-0.18297611 -0.82341623 -0.69260651
-0.14946811 -0.80662835 -0.70871425
-0.11019652 -0.803514 -0.71011078
-0.054138184 -0.82477987 -0.74085844
-0.030232221 -0.82672316 -0.75737262
-0.004685998 -0.84161866 -0.77006865
0.050130993 -0.82206285 -0.82709515
0.070745766 -0.82031214 -0.83657539
0.10740602 -0.81890893 -0.85876083
0.14413062 -0.81771874 -0.88428193
0.1857264 -0.81376863 -0.89995801
0.21884313 -0.81334829 -0.91770017
0.25576499 -0.81458068 -0.94409961
0.28994992 -0.80822504 -0.96326554
0.33231172 -0.80628186 -0.98365408
0.36868137 -0.81433916 -1.0061294
0.39976525 -0.81886959 -1.0209569
0.43100294 -0.8236022 -1.0279
-0.23988944 -0.86162323 -0.62978399
-0.21141659 -0.86709154 -0.65740848
-0.18003693 -0.86880016 -0.69053078
-0.13874194 -0.87559748 -0.70765573
-0.099891081 -0.87366307 -0.72241485
-0.068326831 -0.8624416 -0.7475369
-0.037900537 -0.8577286 -0.77386355
0.0047711432 -0.85469675 -0.78917921
0.03789717 -0.85573375 -0.80640513
0.38667235 -0.85750794 -0.9967066
0.39396051 -0.85358709 -1.0043466
-0.23294184 -0.90638703 -0.62514347
-0.20710845 -0.90332818 -0.65392697
-0.17543331 -0.89978439 -0.68137133
-0.14511576 -0.89133763 -0.6958676
-0.29114252 -0.94377249 -0.57741678
-0.28267473 -0.95509553 -0.58945245
-0.28733784 -0.97293109 -0.58121681
-0.27545431 -0.98416221 -0.58798748
0.21398258 0.27256054 -1.1876552
0.23853362 0.27540293 -1.2042915
0.18892491 0.24977666 -1.1675689
0.20555517 0.24072656 -1.1718855
0.26038724 0.25997031 -1.2075077
-0.60229808 0.11081314 -0.68065268
-0.57816577 0.12392771 -0.69726264
-0.5438568 0.12429106 -0.71610361
0.22539595 0.10979515 -1.1727619
0.25760797 0.11615223 -1.1864073
0.2757107 0.09882322 -1.2091614
-0.604976 0.086627722 -0.6790387
0.20763958 0.065253943 -1.1372324
0.22682428 0.081563503 -1.1509161
0.26393759 0.092164576 -1.1612132
0.22387037 0.051510692 -1.129734
-0.54515171 -0.060188994 -0.66349334
-0.5279792 -0.053089261 -0.69141752
0.069070846 -0.063416496 -1.0309727
0.10215241 -0.052551314 -1.0413771
0.13746503 -0.045949519 -1.0634031
0.15773928 -0.04583022 -1.0736302
-0.5535233 -0.085660711 -0.67064428
-0.51486468 -0.081692144 -0.69716883
-0.49572635 -0.099728048 -0.7011413
-0.034447849 -0.10373902 -0.96418154
-0.0085038841 -0.097112626 -0.98427373
0.026235133 -0.086248443 -1.0035574
0.052973419 -0.075393349 -1.020854
-0.54194874 -0.11392756 -0.67423081
-0.51825702 -0.13362694 -0.67525989
-0.49079365 -0.12541474 -0.697276
-0.39807484 -0.15057652 -0.76262909
-0.37039801 -0.14708814 -0.76818854
-0.33584869 -0.14639141 -0.78456736
-0.29702622 -0.14599073 -0.80802232
-0.26035589 -0.14271894 -0.82939887
-0.22393073 -0.14078076 -0.84867936
-0.18648912 -0.13642254 -0.87144667
-0.15048739 -0.13049118 -0.89183021
-0.11583871 -0.12328267 -0.91403526
-0.080864996 -0.11678547 -0.93965214
-0.053395182 -0.11312094 -0.95676458
-0.51200885 -0.16610615 -0.68872517
-0.4904663 -0.17295741 -0.70362854
-0.4378697 -0.17154109 -0.71965164
-0.40431261 -0.15370034 -0.74182934
-0.37019798 -0.14862427 -0.75056863
-0.31407326 -0.14687911 -0.77848983
-0.50380421 -0.20474228 -0.69518083
-0.48285806 -0.21146441 -0.70345563
-0.44734085 -0.21236679 -0.70789462
-0.4752132 -0.24721247 -0.70640463
-0.43251288 -0.25336921 -0.71285063
-0.41195625 -0.26772007 -0.73521048
-0.43018618 -0.28591993 -0.72122222
-0.41168529 -0.28783163 -0.73558146
-0.091639787 -0.34962672 -0.89597768
-0.065469861 -0.33863735 -0.89263296
-0.09009546 -0.38071486 -0.87827271
-0.055332929 -0.36928022 -0.88584828
-0.018699914 -0.39229107 -0.91018707
-0.11287969 -0.41747773 -0.8536908
-0.10341743 -0.40171558 -0.86205757
-0.014400005 -0.41917744 -0.91207671
-0.10957015 -0.45874822 -0.84892714
-0.091894418 -0.47271496 -0.83938324
-0.013000607 -0.45991898 -0.90331733
-0.10600343 -0.4914816 -0.85294271
-0.091897845 -0.50483149 -0.84320396
-0.0086423159 -0.49953189 -0.89637297
-0.085948765 -0.54190242 -0.84437621
0.0016379356 -0.54100186 -0.89586365
0.0082193315 -0.56406635 -0.91307181
-0.08068791 -0.58618081 -0.83829772
0.014482498 -0.58292794 -0.88681245
0.013022482 -0.58893383 -0.90605819
-0.069754958 -0.62240303 -0.83748817
0.02073887 -0.61622846 -0.87765872
0.021282881 -0.62397659 -0.89542061
-0.060132444 -0.66289139 -0.83716369
-0.040458918 -0.67540413 -0.82660985
0.027516901 -0.66171533 -0.87088394
0.028003454 -0.66427231 -0.89142025
-0.056179374 -0.70462799 -0.83925331
-0.039620548 -0.70498133 -0.82776272
0.031470656 -0.68975776 -0.86745709
0.036059231 -0.70733124 -0.88199967
-0.050851107 -0.75736225 -0.83171165
-0.035133034 -0.74593925 -0.82700592
0.05188638 -0.73996615 -0.88215935
0.086493909 -0.74948019 -0.90294564
0.12187788 -0.75413084 -0.9254514
0.15803614 -0.75769889 -0.94455916
0.19436181 -0.75850338 -0.96007997
0.23330641 -0.75886905 -0.97668141
0.2699632 -0.76000106 -0.99170572
0.29712397 -0.76386714 -1.0012226
-0.12315136 -0.8026588 -0.76970834
-0.093483299 -0.78927898 -0.79298151
-0.062401652 -0.7756685 -0.81010497
0.15988579 -0.78044283 -0.96177381
0.19573656 -0.78485692 -0.966178
0.23339668 -0.79103649 -0.97318113
0.2742742 -0.79353702 -0.9862867
-0.17416689 -0.83909756 -0.71685869
-0.15699835 -0.82975292 -0.73649788
-0.12857664 -0.83321643 -0.76923096
-0.099329233 -0.84208286 -0.79565573
-0.072247118 -0.84542352 -0.81712747
0.032622933 -0.82693577 -0.84241658
0.057971269 -0.82917023 -0.87155068
0.088307172 -0.83894575 -0.89322376
0.12685013 -0.83443987 -0.91455692
0.16391587 -0.8295939 -0.93181431
0.20271245 -0.82049799 -0.95020783
0.23786336 -0.81793982 -0.96213067
0.31545314 -0.81484067 -1.0087296
0.35165229 -0.82142985 -1.0265605
0.37880239 -0.82677251 -1.0400922
-0.14781091 -0.87556618 -0.72883528
-0.11934668 -0.87868643 -0.75848043
-0.089020252 -0.8736335 -0.7840423
-0.053207129 -0.86969769 -0.80208302
-0.01360184 -0.86956215 -0.81779134
0.019531041 -0.86600471 -0.83224535
0.071500152 -0.85358918 -0.8794716
0.083432943 -0.85854101 -0.89648283
-0.16923364 -0.89513177 -0.7079609
-0.15143141 -0.89688551 -0.72671527
0.19589201 0.26686013 -1.2220501
0.22635216 0.26774642 -1.2401518
0.16887155 0.23829371 -1.1968139
0.18538341 0.22997007 -1.2151666
0.16496092 0.20987311 -1.2111541
0.19497842 0.19292286 -1.2263288
0.22441781 0.18387592 -1.2329369
0.20077586 0.15106511 -1.209388
0.23979074 0.15443388 -1.2182845
-0.61912358 0.10221326 -0.71734655
-0.59628576 0.1176151 -0.74059325
-0.56613547 0.11960515 -0.74871111
0.19531274 0.10752022 -1.1689016
0.20351052 0.12617961 -1.1882502
0.23521259 0.13556367 -1.1976476
-0.61809862 0.084995508 -0.71516711
-0.59270823 0.080709815 -0.73414719
-0.53731257 -0.070414737 -0.71196139
0.023765117 -0.073992133 -1.060814
-0.55636597 -0.10508735 -0.69602305
-0.54065537 -0.094072551 -0.72562677
-0.51507527 -0.10486917 -0.73816186
-0.098199606 -0.11444847 -0.99055749
-0.066761464 -0.1112248 -0.99907804
-0.030246824 -0.097787887 -1.0199882
0.0042006671 -0.086165518 -1.0424075
0.029620469 -0.080098569 -1.0480007
-0.55469877 -0.12752064 -0.70127547
-0.55469131 -0.13708448 -0.71802837
-0.5072816 -0.1377569 -0.73920697
-0.45433074 -0.15867229 -0.78413326
-0.42501855 -0.15144116 -0.78544402
-0.39208391 -0.14632215 -0.79795468
-0.35412213 -0.14458013 -0.82274514
-0.31903619 -0.14331548 -0.84470117
-0.28392565 -0.14244616 -0.86586261
-0.24539283 -0.13987873 -0.88768852
-0.20825496 -0.13646169 -0.90607393
-0.17117992 -0.13177791 -0.93274212
-0.13917288 -0.12650737 -0.94852775
-0.10651967 -0.11886778 -0.96671295
-0.067352653 -0.11451666 -0.9775995
-0.53826344 -0.17688964 -0.70832384
-0.49220428 -0.17824361 -0.73559475
-0.46153423 -0.1733159 -0.75406343
-0.43157467 -0.15555207 -0.76195526
-0.5222857 -0.21896909 -0.71095133
