# .PCD v0.7 - Point Cloud Data file format
VERSION 0.7
FIELDS x y z
SIZE 4 4 4
TYPE F F F
COUNT 1 1 1
WIDTH 1394
HEIGHT 1
VIEWPOINT 0 0 0 1 0 0 0
POINTS 1394
DATA ascii
0.46579078 0.024593897 0.52778679
0.41445044 0.01570905 0.5157209
0.39260072 0.027788259 0.5294503
-0.57711095 0.025869153 0.53099906
-0.62308764 0.026834935 0.52492809
-0.65436786 0.013045818 0.54025745
0.46400404 -0.020458139 0.53772873
0.4271903 -0.024591766 0.51561302
0.38612881 -0.029422387 0.53064072
-0.57401031 -0.022981212 0.52402711
-0.64160556 -0.020045802 0.50762761
-0.65717185 -0.025750175 0.53153163
0.45554429 -0.06140307 0.5446316
0.44107324 -0.075908765 0.52497715
0.36851376 -0.07287316 0.52625418
-0.57783824 -0.073910534 0.52582538
-0.62715143 -0.078706011 0.52106339
-0.65413839 -0.063156411 0.53858829
0.4198882 -0.12229994 0.52752972
0.3677071 -0.12249678 0.53223014
0.34610543 -0.12997405 0.5129261
-0.58077884 -0.10927583 0.54310375
-0.61022305 -0.10753058 0.54175425
0.40383485 -0.1570217 0.5137611
0.37495545 -0.16534638 0.51390731
0.34337553 -0.15570721 0.50430745
0.31479624 -0.28841844 0.52986062
0.27567509 -0.26925313 0.52782089
0.22381058 -0.26450068 0.52852142
0.17327438 -0.26743066 0.52724123
0.12737459 -0.27153572 0.52917898
0.074208491 -0.2777842 0.52541518
0.026647279 -0.28086719 0.53045708
-0.020804901 -0.28266409 0.53089279
-0.070948042 -0.28565869 0.52852142
-0.12430927 -0.28786024 0.52407116
-0.17969292 -0.28860146 0.52617753
-0.22761686 -0.28845516 0.52621096
-0.27756441 -0.2871775 0.52500695
-0.32528228 -0.28318915 0.53072149
-0.3747108 -0.28336793 0.5301224
-0.42509621 -0.2881813 0.52554339
-0.46836865 -0.29561967 0.53053331
0.33188859 -0.30165184 0.53834683
-0.4910937 -0.3069385 0.52404875
-0.50459075 -0.33095154 0.52902859
0.31550652 -0.37960613 0.51195073
0.28167108 -0.39117324 0.51593274
0.24346159 -0.39331678 0.5088703
0.16485892 -0.37841302 0.50455409
0.089235358 -0.36232617 0.54817235
0.025847059 -0.38892132 0.53081095
-0.22009121 -0.39806408 0.54296124
-0.43682405 -0.39647725 0.52313459
-0.48216042 -0.38717103 0.52996689
-0.50343269 -0.36567202 0.52065647
0.023908677 -0.41938758 0.53323251
-0.022961825 -0.43594649 0.52876014
-0.051358595 -0.4374381 0.50893354
-0.18488897 -0.43494141 0.52912301
-0.2272162 -0.42073661 0.52548617
-0.46395996 -0.40137187 0.50887048
0.10593619 -0.49616882 0.54034716
0.079160407 -0.48821869 0.54016578
0.25328627 -0.53561771 0.50495994
0.22140557 -0.52677643 0.51261079
0.17304832 -0.52206784 0.52099848
0.12942331 -0.50886089 0.52863938
0.09608195 -0.50258374 0.54817235
0.023374833 -0.84727252 0.53441662
-0.0054460615 -0.84669793 0.54489684
0.072086968 -0.87654573 0.52559602
0.028482229 -0.85173106 0.52114081
-0.022250064 -0.87443233 0.53001732
-0.051297337 -0.87950277 0.54981232
-0.13229182 -0.88007772 0.53630257
-0.17487064 -0.86958826 0.52526248
-0.22734869 -0.88267088 0.52874851
-0.26287192 -0.89618051 0.51360083
0.076777585 -0.90753114 0.52410275
0.023128046 -0.94131905 0.52695608
-0.01434738 -0.91847098 0.53069222
-0.13529752 -0.92283219 0.53601718
-0.16559331 -0.93756872 0.51997864
-0.23717317 -0.92009491 0.53656542
-0.26402739 -0.92432386 0.51325911
0.062239304 -0.9534865 0.523063
0.046955515 -0.95160586 0.5285213
-0.18885151 -0.9533928 0.53203046
-0.22522756 -0.9629395 0.52711141
-0.26083976 -0.96602726 0.51886803
0.42000374 0.052940138 0.56462127
-0.57839549 0.054231584 0.58345443
-0.60423553 0.053061575 0.56883705
0.45698115 0.022312403 0.57270354
0.42537665 0.032913655 0.58687514
0.38954833 0.0231902 0.5721125
-0.5441795 0.031942107 0.5916453
-0.56158775 0.0246787 0.57486725
-0.62792242 0.030822627 0.578022
-0.65185118 0.0085404664 0.56869406
0.46572089 -0.023563355 0.57834077
0.41061583 -0.029751882 0.59549505
0.38244125 -0.025241159 0.5764094
-0.57847637 -0.02584587 0.58094078
-0.62950504 -0.025223494 0.59386516
-0.65758306 -0.023364596 0.57082784
0.45998234 -0.058199648 0.56045353
0.42703599 -0.072465025 0.57660609
0.37932283 -0.072661728 0.56613481
-0.5650841 -0.074239604 0.57859403
-0.63763094 -0.078492522 0.58345926
-0.65421879 -0.063597508 0.56923854
0.41406432 -0.10759806 0.55782908
0.38551801 -0.10330562 0.55353439
-0.54414558 -0.12791425 0.59304029
-0.57080823 -0.12797634 0.57162732
-0.6165483 -0.11681044 0.57923436
-0.54363239 -0.15243241 0.59843433
-0.56814301 -0.15729611 0.59216684
0.31359044 -0.28541508 0.57913643
0.27449563 -0.2628819 0.57609546
0.22458561 -0.25971884 0.57412779
0.17696261 -0.26257554 0.57940274
0.12361141 -0.2676329 0.57568341
0.077525511 -0.27214813 0.58059943
0.02730489 -0.27601191 0.5776481
-0.023679232 -0.27726772 0.57524008
-0.071212351 -0.27927727 0.57551807
-0.12547335 -0.28007191 0.57733518
-0.17858322 -0.28017172 0.57750356
-0.22815272 -0.27967665 0.57702649
-0.27679268 -0.27779293 0.5739997
-0.32731062 -0.273893 0.58024305
-0.37547913 -0.27440092 0.57883686
-0.4252598 -0.27884954 0.57462472
-0.47087801 -0.29109624 0.57770652
0.32982391 -0.30876857 0.572905
-0.49302164 -0.3278569 0.58129984
-0.50278634 -0.33258086 0.55679578
0.17304146 -0.38358659 0.57563967
0.12433185 -0.37904915 0.57603967
0.073165849 -0.38029236 0.57695156
0.045984503 -0.37937427 0.57244366
-0.19751969 -0.39043435 0.59402347
-0.21288969 -0.39790583 0.57945228
-0.43983352 -0.38412303 0.58206207
-0.47520891 -0.37402421 0.57485503
0.051341176 -0.43200606 0.57496852
0.031602453 -0.43022972 0.57767558
-0.024361497 -0.43074146 0.57805002
-0.069911636 -0.43387175 0.57409072
-0.10916485 -0.43323761 0.5847472
-0.17987117 -0.42930114 0.57968658
-0.21043822 -0.41665506 0.57297552
0.067370497 -0.47668481 0.56314355
0.042644445 -0.46081775 0.5734117
-0.029874172 -0.47854626 0.58401936
-0.072545007 -0.47538242 0.5714556
-0.11001385 -0.47689444 0.58769393
0.11081986 -0.50614202 0.55267882
-0.026288537 -0.5255388 0.58624834
-0.072896652 -0.5234338 0.57159251
-0.10932859 -0.52299905 0.58900917
-0.03096145 -0.57512587 0.58803946
-0.072792448 -0.57723892 0.57867199
-0.10384936 -0.5694173 0.59358752
-0.025506485 -0.62464094 0.58557039
-0.075578041 -0.62259728 0.57894492
-0.1037725 -0.62404573 0.59474742
-0.025118364 -0.67238003 0.5872823
-0.074715495 -0.67290604 0.58274633
-0.10088697 -0.66548634 0.59710443
-0.028281208 -0.72193003 0.59041649
-0.072961427 -0.72247332 0.58945495
-0.029714065 -0.77145314 0.59501886
-0.067720532 -0.77044106 0.59444296
0.023206012 -0.8410067 0.57834816
-0.023542073 -0.83127737 0.58321565
-0.067119792 -0.82926291 0.58991843
-0.12476072 -0.8443619 0.58629704
0.057765733 -0.880463 0.57137579
0.045407064 -0.86672431 0.5810644
-0.03509469 -0.85232091 0.55650187
-0.07142891 -0.87323099 0.55985987
-0.12022994 -0.85881871 0.56348765
-0.17839812 -0.87443197 0.58002961
-0.21296778 -0.89044464 0.56180465
0.021305095 -0.9434225 0.57379943
-0.02439853 -0.93189943 0.57580936
-0.070923075 -0.92320436 0.57669544
-0.12138066 -0.93525136 0.57423151
-0.17804301 -0.93349689 0.57879579
-0.21084036 -0.92972165 0.56060702
0.042042881 -0.95151919 0.55799705
-0.18366034 -0.9534409 0.57235748
-0.21583554 -0.9586634 0.55772269
-0.5360468 0.055815525 0.63263613
-0.56590128 0.057393253 0.62501204
0.45074144 0.014598124 0.60712361
0.44263643 0.014336713 0.60589808
-0.53206766 0.02825354 0.62709057
-0.57501972 0.019507162 0.62952614
-0.61682373 0.018861488 0.62331176
0.4519116 -0.0099646673 0.60712355
0.43643743 -0.023290195 0.60630131
-0.58608085 -0.0037439391 0.61440212
-0.61213857 -0.020144403 0.6082086
-0.57718223 -0.08088167 0.62070018
-0.61269146 -0.076041788 0.61554772
-0.53782648 -0.12835224 0.6268521
-0.56714123 -0.10634023 0.6375196
-0.61070395 -0.12491788 0.6244306
-0.53052431 -0.17193791 0.62734646
-0.57451761 -0.173123 0.62560511
-0.53510958 -0.20474887 0.64269269
-0.55338246 -0.20250425 0.64403182
0.31374118 -0.28335652 0.62632251
0.27582732 -0.25973189 0.62723184
0.22381061 -0.25533745 0.62677544
0.17326511 -0.25866944 0.62422878
0.12775306 -0.26278466 0.62798274
0.074594975 -0.26867118 0.62463307
0.027811248 -0.27039167 0.62677288
-0.022287283 -0.27093709 0.62786424
-0.071213908 -0.27227905 0.63012642
-0.12585391 -0.27301621 0.62923175
-0.17892747 -0.27251822 0.63040859
-0.22737589 -0.27111727 0.62795424
-0.27710617 -0.26929995 0.62415057
-0.32567793 -0.2673924 0.62495387
-0.37604225 -0.26840055 0.62350476
-0.42391711 -0.27172849 0.62654358
-0.46611115 -0.28992715 0.62533098
0.32228637 -0.31290513 0.6187824
-0.47932035 -0.32667589 0.62552369
0.1695336 -0.38150179 0.62084216
0.12562411 -0.38638222 0.62638927
0.08086367 -0.39347246 0.62711561
0.046945177 -0.35879642 0.61432517
-0.18969527 -0.39177778 0.62839264
-0.20310357 -0.3931517 0.60712373
-0.34383151 -0.36858836 0.64345276
-0.35489705 -0.36913252 0.64643079
-0.43292782 -0.3704744 0.6324029
-0.46419841 -0.36441854 0.62224489
0.059236422 -0.40975928 0.62959611
0.028997466 -0.42212653 0.62602103
-0.033559736 -0.43721664 0.6234498
-0.086450696 -0.43736541 0.64228761
-0.12307681 -0.4322623 0.62202775
-0.17758077 -0.41796869 0.62390697
-0.020047246 -0.47575516 0.62681979
-0.090566166 -0.45802149 0.64253455
-0.11914321 -0.47552732 0.62717694
-0.0083083538 -0.52654874 0.62584424
-0.12341585 -0.52574825 0.62414694
-0.0077151759 -0.57864016 0.62448609
-0.11478193 -0.57380247 0.62527162
0.0058639543 -0.62826848 0.63602537
-0.003163673 -0.61844671 0.6107372
-0.11466834 -0.62434381 0.62467903
0.0077309222 -0.67241573 0.63038671
-0.0024789914 -0.67236269 0.60748571
-0.11063076 -0.67431772 0.62433159
0.0078281136 -0.72235644 0.63007045
-0.006030445 -0.7245661 0.60742342
-0.096236326 -0.73458016 0.60569048
-0.10631854 -0.72087902 0.62724757
0.0091596274 -0.7708351 0.6314494
-0.0078345966 -0.77582288 0.60932165
-0.090821311 -0.77424526 0.60889995
-0.10309082 -0.77096605 0.63104331
0.11806738 -0.84072387 0.64686882
0.070904799 -0.8359549 0.64005035
0.025445009 -0.82452661 0.62607437
-0.0090391235 -0.81067055 0.60990244
-0.087134831 -0.81636894 0.61084008
-0.11816818 -0.82979262 0.6296261
0.15503368 -0.85494018 0.64918077
0.12444805 -0.86396688 0.6455183
0.071533091 -0.87466729 0.62829727
0.044028681 -0.89111471 0.61181438
-0.13819493 -0.87698585 0.63498771
-0.16016151 -0.87584728 0.61976892
0.057995792 -0.90368247 0.64397287
0.034657869 -0.91750139 0.6293025
-0.024299286 -0.94224107 0.62091076
-0.074757442 -0.92994863 0.62874341
-0.12165534 -0.93299794 0.62393081
-0.15989488 -0.93472844 0.60778838
-0.49588159 0.053898901 0.69300807
-0.52503008 0.062797859 0.67699945
-0.55594897 0.057538085 0.67045164
-0.4957051 0.041617647 0.69315624
-0.51996869 0.026934646 0.67354751
-0.57576567 0.026429757 0.67568439
-0.60421592 0.019540876 0.65919995
-0.53897089 -0.1375562 0.66909146
-0.57050169 -0.12959608 0.66631639
-0.60151303 -0.14260611 0.65109247
-0.49590841 -0.18927661 0.69342875
-0.51682925 -0.16883132 0.67602211
-0.57697719 -0.17003666 0.67693853
0.20416011 -0.24997467 0.69554567
0.19433478 -0.24983549 0.69554567
-0.49508131 -0.2189417 0.69406766
-0.52379602 -0.22576594 0.6723752
-0.55842942 -0.21011513 0.67698085
0.30871588 -0.28703567 0.67428172
0.27677751 -0.26339108 0.67647767
0.22210023 -0.25184357 0.67542863
0.17522986 -0.25258958 0.67881888
0.12338316 -0.25927112 0.67614001
0.076431341 -0.26471594 0.67589974
0.027304905 -0.26602617 0.67589957
-0.021821579 -0.26573244 0.67589962
-0.07094802 -0.26681089 0.67589951
-0.12406586 -0.26724094 0.67431927
-0.17902637 -0.26590323 0.67589962
-0.22880928 -0.26332679 0.67902982
-0.27674893 -0.26152831 0.677288
-0.32570961 -0.26021987 0.67431319
-0.37426829 -0.26221609 0.67720157
-0.42974898 -0.27041325 0.67523682
-0.47477931 -0.28674859 0.68170941
-0.51779532 -0.27370948 0.68698698
-0.44685045 -0.34893739 0.69554579
-0.46339741 -0.32762709 0.67647481
-0.50928605 -0.32397175 0.6939404
0.10590729 -0.37841302 0.65283614
0.083563395 -0.38825628 0.67928571
-0.14347097 -0.36791617 0.68084204
-0.17661735 -0.38516504 0.67709315
-0.20589836 -0.37188339 0.69572449
-0.33332324 -0.37434947 0.67904258
-0.37516969 -0.38045964 0.67139107
-0.42591548 -0.38313824 0.67543656
-0.46841848 -0.37051183 0.68762571
-0.50326133 -0.35876375 0.69713879
0.068136215 -0.41432038 0.6755957
0.023300059 -0.42646658 0.67840731
-0.024336183 -0.43179905 0.68592083
-0.061892182 -0.43388301 0.67248785
-0.13042882 -0.41921997 0.6781314
-0.16400707 -0.41127235 0.67380267
-0.41483274 -0.40009803 0.69554579
0.0080201011 -0.46233669 0.69501239
-0.027555771 -0.47346014 0.67692745
-0.072351463 -0.47077212 0.67700064
-0.10750619 -0.48421729 0.66273868
-0.01234339 -0.53510952 0.66759115
-0.075977176 -0.52263993 0.69164646
-0.11451874 -0.52549744 0.66425174
-0.014375598 -0.57657558 0.67599094
-0.090538152 -0.5872792 0.69229072
-0.11047099 -0.57516527 0.66725791
0.0041598384 -0.62568325 0.66244602
-0.0069945194 -0.62195778 0.68516529
-0.095192261 -0.62077057 0.69598722
-0.11144292 -0.62442493 0.67315209
0.0061085499 -0.67366302 0.66553283
-0.0039870627 -0.67165411 0.68889529
-0.098720692 -0.67071599 0.69554567
-0.10784823 -0.67348927 0.67515683
0.0076572374 -0.72260165 0.67557257
-0.0023520386 -0.70303822 0.69524372
-0.098341472 -0.72328115 0.68964988
-0.10675065 -0.72301924 0.66948199
0.011709043 -0.77556926 0.67545342
-0.096272327 -0.77142537 0.69063252
-0.10631964 -0.77483636 0.66896594
0.45961767 -0.83037764 0.69980466
0.42531532 -0.82961524 0.6935938
0.3705357 -0.82529438 0.68871427
0.32100621 -0.82341266 0.68487102
0.27226919 -0.82388842 0.68003237
0.22427057 -0.82440501 0.6749112
0.17487276 -0.82629091 0.67048377
0.12525041 -0.82296848 0.67285889
0.078639545 -0.82069534 0.67639554
0.030645052 -0.81131268 0.67525679
-0.035474408 -0.83789742 0.6864683
-0.058163699 -0.83100712 0.69130951
-0.12393086 -0.82180065 0.67549938
-0.16469072 -0.8395443 0.69017607
0.42013365 -0.85765183 0.69481194
0.37144682 -0.86484355 0.68981057
0.32050654 -0.8684901 0.68458748
0.27131739 -0.8747403 0.68006331
0.22365564 -0.8790037 0.67273271
0.17614469 -0.87801707 0.66289532
0.12733828 -0.89156973 0.66006219
0.093356974 -0.89682925 0.65493566
-0.14218262 -0.89342952 0.66198575
-0.17049743 -0.87397945 0.68190098
0.22381069 -0.90180206 0.69554567
0.17115442 -0.90598005 0.69075447
0.12440231 -0.90855479 0.6838457
0.074885085 -0.90911496 0.67510635
0.035139695 -0.92209983 0.67675066
-0.093433335 -0.91403925 0.65851414
-0.12475042 -0.91778338 0.67432868
-0.15654244 -0.90668184 0.69554567
0.35437176 0.15781435 0.74673736
0.32447091 0.16375002 0.74575597
0.29258826 0.15215233 0.74881911
0.36608854 0.12086979 0.7443006
0.32337737 0.12146332 0.73874891
0.28692007 0.11950704 0.74515337
0.40083337 0.067913264 0.74473381
0.3707653 0.074895449 0.73839867
0.32124183 0.077627636 0.73285455
0.2766754 0.070626803 0.74153697
-0.48477775 0.064060584 0.72912478
-0.52438384 0.066209845 0.72486222
0.40185103 0.019886434 0.74009818
0.37579569 0.027468227 0.73283607
0.32206365 0.024423324 0.7275486
0.27138674 0.024424359 0.73859048
0.24346159 0.0096855015 0.74930543
-0.48544014 0.037046053 0.72710842
-0.52336913 0.025269449 0.72709018
-0.56074101 0.0338834 0.71933502
0.40121758 -0.01100985 0.74344301
0.37646031 -0.026932292 0.73383623
0.32206365 -0.024703011 0.72753114
0.27078006 -0.025519021 0.7380541
0.24346158 -0.024703011 0.74851733
0.36365694 -0.064012699 0.74047339
0.32222939 -0.072995096 0.73814929
0.27756512 -0.068711519 0.7422232
-0.48464733 -0.17635603 0.72831935
-0.52699453 -0.16648847 0.72574651
-0.55907607 -0.18226613 0.71480906
0.16575214 -0.24947025 0.72055811
0.14520845 -0.24964604 0.74467731
-0.47942159 -0.22120912 0.72571808
-0.54699814 -0.23419142 0.72666252
-0.55582494 -0.22060832 0.72451466
0.30203062 -0.28998598 0.70481861
0.27467862 -0.27758288 0.72492671
0.22565493 -0.26167172 0.72825015
0.17881767 -0.25139701 0.72588187
0.1270631 -0.25495175 0.72398162
0.077253155 -0.26098919 0.72621948
0.027796134 -0.2611168 0.72678381
-0.02250839 -0.26022398 0.72449923
-0.070533976 -0.26093 0.72535729
-0.12521581 -0.26075947 0.72539681
-0.17862239 -0.25912505 0.72276962
-0.22652465 -0.25676441 0.72346079
-0.27727908 -0.2549209 0.7250247
-0.32640576 -0.25554207 0.72502482
-0.37720546 -0.26010382 0.72499567
-0.43275136 -0.27667665 0.72991765
-0.46986473 -0.27823782 0.72296482
-0.54158193 -0.27695361 0.72327203
-0.44073084 -0.32711837 0.72843415
-0.47104022 -0.32816723 0.71508914
-0.52831101 -0.33039826 0.72241628
0.10902829 -0.3785921 0.73331845
0.096342444 -0.39176679 0.71179765
-0.14611247 -0.39088714 0.74017221
-0.17530079 -0.38431656 0.72516483
-0.22694078 -0.37472478 0.72426409
-0.26966348 -0.37310714 0.73741353
-0.3429189 -0.37892386 0.71210462
-0.37501639 -0.38743314 0.72021127
-0.43106639 -0.39291227 0.73003846
-0.47516927 -0.38823825 0.72214586
-0.51237506 -0.36900294 0.72574306
0.07615184 -0.41268313 0.72546041
0.029677343 -0.42769408 0.72075158
-0.0084543061 -0.40810037 0.70833582
-0.077239215 -0.42859244 0.72425658
-0.12582931 -0.41571254 0.72511774
-0.15665483 -0.4049089 0.70537192
-0.39518335 -0.4004645 0.72011161
-0.41728958 -0.40082973 0.7192927
0.019185133 -0.4697755 0.72164309
-0.021633485 -0.48056561 0.72352487
-0.065037839 -0.46875897 0.72682852
-0.034705441 -0.59522164 0.71259588
-0.080773339 -0.58923829 0.7032339
-0.023906903 -0.62015456 0.71161187
-0.087392263 -0.62442172 0.70656615
-0.015503258 -0.67449474 0.70767909
-0.083278596 -0.67447245 0.7114718
-0.0099097956 -0.72223079 0.71281475
-0.076083675 -0.72278696 0.71714616
0.0019969917 -0.78125048 0.70537204
-0.0093513979 -0.77500862 0.71709061
-0.077924646 -0.77335596 0.72034371
0.47596395 -0.82359147 0.72406846
0.42433402 -0.80869758 0.72395414
0.37143436 -0.8098774 0.72615594
0.32206476 -0.81271601 0.72647071
0.27380559 -0.81759357 0.72684681
0.22355622 -0.82622766 0.7321294
0.17476508 -0.82678992 0.72531235
0.12865335 -0.83108461 0.72379512
0.072191454 -0.83056021 0.72523075
0.026147835 -0.81416619 0.72542101
-0.0096172374 -0.80432618 0.7403909
-0.071728088 -0.8200376 0.73084462
-0.12335238 -0.82288116 0.72380257
-0.18070273 -0.82896477 0.72125274
-0.22552721 -0.83427626 0.73311341
-0.26230437 -0.84076524 0.74489856
0.4740971 -0.8710404 0.72783911
0.42951518 -0.88333082 0.70826191
0.37141505 -0.89211571 0.70941955
0.32215571 -0.8969276 0.72237134
0.27936143 -0.89158678 0.73042554
0.22407854 -0.86281765 0.74369252
0.17922734 -0.86978948 0.73722261
0.12786844 -0.85248363 0.73282617
0.07349097 -0.85041291 0.73880219
-0.033687074 -0.85708487 0.71779883
-0.067888968 -0.85289609 0.73372239
-0.19596902 -0.8855353 0.70484871
-0.22616486 -0.87476456 0.71899474
-0.26817867 -0.87261683 0.74119073
0.46980363 -0.92757231 0.73488283
0.42700076 -0.92836952 0.71791667
0.37576655 -0.92121351 0.72965795
0.32943296 -0.90123671 0.72748125
0.26831371 -0.90246433 0.72271252
0.22381069 -0.90504479 0.72502464
0.17520288 -0.90741754 0.72096235
0.12797208 -0.91001278 0.72159684
0.078708217 -0.91322613 0.71845508
0.040556423 -0.92001981 0.70826167
-0.12657931 -0.92568904 0.7245422
-0.17804371 -0.91479576 0.72460049
-0.22146605 -0.90918058 0.73780984
0.42726547 -0.95715618 0.72875357
0.37937039 -0.96247846 0.74157494
0.31758291 0.3640579 0.79549235
0.28931278 0.36175841 0.79760981
0.36234987 0.32474309 0.79344916
0.32451478 0.32842609 0.78609884
0.27769274 0.32572299 0.7919749
0.37199673 0.27318081 0.78356028
0.32262152 0.27506149 0.77115822
0.27203161 0.27500662 0.78207958
0.24083406 0.26865631 0.79492891
0.40150943 0.21345413 0.79327965
0.37567666 0.22095372 0.77108252
0.32278839 0.22150737 0.75821888
0.27246228 0.2219723 0.77077162
0.23214413 0.21974514 0.79023564
0.40364122 0.17128229 0.78291029
0.3780174 0.17453024 0.75965452
0.31592265 0.18942806 0.75181448
0.27260298 0.1739907 0.76113087
0.22533117 0.17140058 0.78497571
0.40713131 0.12115943 0.77827096
0.390394 0.13127722 0.75443655
0.26321262 0.12714641 0.75646842
0.22436728 0.12326695 0.77685285
0.19290471 0.11802284 0.79522181
0.40928575 0.07430622 0.77252007
0.25470293 0.086882859 0.75349283
0.22403002 0.073865712 0.76855946
0.18679832 0.070646659 0.79062736
-0.44845104 0.058812067 0.79380929
-0.47224578 0.071913198 0.77683765
-0.51623082 0.062887847 0.772129
0.41264036 0.023502231 0.77315331
0.22181866 0.026609331 0.76270002
0.1780626 0.023196355 0.78782821
-0.47349125 0.036429733 0.77556056
-0.52746475 0.035144508 0.7727831
-0.55238807 0.03424792 0.75016075
0.40848109 -0.024431333 0.77436531
0.39486897 -0.042982258 0.75696015
0.21950173 -0.024724118 0.76072741
0.17511691 -0.02612295 0.78435022
0.14520845 -0.039441198 0.7994349
0.4004505 -0.052775472 0.78725797
0.37439141 -0.076683939 0.77472913
0.33231986 -0.096224144 0.76450425
0.26367179 -0.089786001 0.75349367
0.22438039 -0.075558677 0.76344395
0.17508258 -0.073876895 0.78625661
0.14520845 -0.059091382 0.79954398
0.31301543 -0.10378069 0.77808297
0.27266204 -0.11017636 0.77465332
0.22378437 -0.1147298 0.7830537
0.1841879 -0.11011986 0.79208601
-0.44506329 -0.13914002 0.79474485
-0.47372022 -0.12958631 0.78502846
-0.50326139 -0.1476903 0.79380929
-0.44605434 -0.15674828 0.79137772
-0.4645879 -0.16980946 0.76928848
-0.52153552 -0.17196767 0.77368355
-0.0021710251 -0.24943471 0.79380918
-0.14463769 -0.24979949 0.79380912
-0.18448475 -0.24864906 0.78834999
-0.22988661 -0.24800828 0.78167051
-0.27624479 -0.24854024 0.77984518
-0.46431857 -0.22187372 0.77121544
-0.53637135 -0.21982272 0.77424264
-0.55027521 -0.23103471 0.75450379
0.27023476 -0.29197139 0.75333542
0.21889287 -0.2791847 0.76721936
0.17660941 -0.26446891 0.77765357
0.12761967 -0.25575781 0.77355444
0.074554227 -0.25899893 0.77154636
0.026193311 -0.2561644 0.77483124
-0.021677226 -0.25347447 0.77661145
-0.070948005 -0.25514042 0.77415621
-0.12373155 -0.25313485 0.77649581
-0.176053 -0.25192702 0.76927221
-0.22570719 -0.25090292 0.75871259
-0.27947265 -0.25057882 0.75487256
-0.32343015 -0.25338903 0.77531338
-0.37632012 -0.27281773 0.77781737
-0.42312178 -0.28947833 0.76247776
-0.46025586 -0.27518904 0.77678186
-0.53332627 -0.27630788 0.77508408
-0.3966791 -0.30769581 0.79520661
-0.43047678 -0.32171124 0.76872104
-0.46381974 -0.32561839 0.77322596
-0.52190608 -0.32725948 0.77210939
0.12417239 -0.38164327 0.77627206
0.068198793 -0.39806408 0.78139198
-0.13270873 -0.38470986 0.77502155
-0.18880883 -0.3757987 0.76097625
-0.22973435 -0.37732205 0.76983529
-0.27384457 -0.37684262 0.773067
-0.4332484 -0.38185406 0.77373046
-0.47814134 -0.37519306 0.77361375
-0.51108497 -0.36669803 0.76217335
0.10590731 -0.40118131 0.77906954
0.082058884 -0.40766037 0.77290559
0.02155452 -0.43756816 0.77409166
-0.046724238 -0.41771495 0.78398257
-0.076529793 -0.41861963 0.77161467
-0.11351864 -0.40852475 0.77245063
0.01824192 -0.467134 0.76770604
-0.025341488 -0.47150213 0.77288979
-0.061665047 -0.46512666 0.7608465
-0.020593302 -0.7979449 0.78521091
0.47673932 -0.82845449 0.77265465
0.42747185 -0.82400101 0.76793855
0.3697671 -0.82775563 0.76349759
0.32512146 -0.82977605 0.75833046
0.2783806 -0.83293527 0.75416052
0.022171436 -0.82488692 0.77007461
-0.02389314 -0.8138119 0.77720064
-0.067146681 -0.82392126 0.77093303
-0.12628092 -0.83361799 0.76292193
-0.17822237 -0.83143401 0.77626592
-0.22653827 -0.82617944 0.77627271
-0.27827266 -0.83058953 0.7703957
-0.32372642 -0.83578956 0.78362679
-0.35509098 -0.84081602 0.79423398
0.47596678 -0.87015337 0.77376705
0.42373577 -0.87155592 0.78126127
0.36003968 -0.87398481 0.76888353
0.32343942 -0.88048226 0.76160204
0.27740768 -0.88277209 0.75823134
0.22666873 -0.89326662 0.75369537
0.051753055 -0.85002708 0.75450367
0.035403732 -0.85002708 0.76987207
-0.094058476 -0.85002708 0.75450367
-0.12295983 -0.85489058 0.76990306
-0.16376063 -0.85363448 0.78830695
-0.29000187 -0.88079774 0.75696796
-0.3261902 -0.87733114 0.77536511
-0.36333594 -0.8698225 0.7921921
0.47644189 -0.92638218 0.77339828
0.36595857 -0.92955542 0.7742427
0.2743409 -0.90179044 0.75731117
0.23363592 -0.90327591 0.75450373
-0.1416342 -0.92594862 0.76329648
-0.18302764 -0.92142355 0.77655482
-0.22924967 -0.9196794 0.77126116
-0.27316216 -0.91231346 0.77756333
-0.31637394 -0.90606111 0.79129934
0.37119073 -0.9519459 0.77415615
0.32035312 0.51474905 0.84395903
0.27904502 0.51594305 0.84444362
0.35828471 0.46966895 0.84033567
0.32238182 0.47549316 0.83058369
0.27236328 0.47551143 0.83383954
0.23703933 0.46940833 0.8440721
0.36722329 0.42511606 0.83170742
0.32362825 0.42675763 0.81554139
0.27256697 0.42610669 0.81970447
0.22639334 0.42477572 0.83728242
0.19433475 0.40760982 0.84953082
0.37303668 0.37675631 0.82033527
0.32585037 0.38824111 0.80405211
0.2708495 0.37947494 0.8079654
0.22420207 0.37648547 0.82727772
0.18989825 0.37192279 0.84406972
0.40066621 0.30680618 0.84517908
0.38792747 0.33042437 0.8193081
0.25699732 0.34087998 0.80345309
0.22413144 0.32798773 0.81654543
0.18154567 0.32761198 0.83964515
0.4020313 0.27119726 0.82534754
0.39415285 0.28847596 0.80978936
0.21725221 0.27680773 0.80979151
0.17493524 0.27483565 0.8342042
0.14520843 0.25531781 0.84761912
0.40520936 0.22168517 0.82244813
0.20857738 0.22268462 0.80451852
0.17533739 0.22140519 0.82415819
0.14072475 0.21905513 0.84365547
0.40745363 0.16983026 0.82124138
0.39933652 0.15215231 0.84292382
0.20416009 0.19145264 0.80115378
0.17577618 0.17267296 0.81508726
0.13339303 0.17068848 0.83976936
0.40949622 0.12261787 0.81742781
0.1686167 0.12499051 0.81119144
0.12579508 0.12175404 0.83515674
0.09608195 0.10793798 0.84820604
0.40792504 0.073451772 0.81817555
0.39712477 0.063725322 0.82328784
0.16204254 0.077269778 0.806355
0.12559263 0.072634548 0.82610202
0.089892834 0.06864804 0.8439064
-0.43701512 0.067047104 0.82550001
-0.47575256 0.077655986 0.82314283
-0.50699627 0.057734817 0.81752819
0.40911871 0.027989328 0.80984306
0.15440552 0.034939796 0.80324018
0.12617859 0.02383323 0.817159
0.081313811 0.022402212 0.839881
-0.43895495 0.040963382 0.83332938
-0.47296312 0.033688664 0.82349443
-0.51143366 0.040853009 0.81623262
0.40371045 -0.022817448 0.80648601
0.39059272 -0.040062554 0.84204471
0.12344199 -0.021982141 0.81224018
0.076295942 -0.024379827 0.83573425
0.046955481 -0.034528568 0.8486979
-0.43701637 -0.04150755 0.8446492
-0.45644948 -0.042009212 0.84492624
0.3728978 -0.06909319 0.81841505
0.32612824 -0.090913586 0.82446057
0.29493248 -0.095282495 0.84461206
0.12438784 -0.077024236 0.81150186
0.075535871 -0.073677734 0.83533925
0.046955485 -0.068916865 0.84867972
-0.4329474 -0.076101027 0.83121109
-0.47017822 -0.078630999 0.82650143
0.30862123 -0.10388006 0.81200439
0.27284321 -0.1116426 0.8258422
0.22594301 -0.12442392 0.82448423
0.17154081 -0.13074082 0.81992936
0.12644866 -0.12248887 0.82675076
0.083662562 -0.11454713 0.84099126
-0.43733606 -0.1230865 0.82316697
-0.48872802 -0.1119729 0.81790215
-0.50321901 -0.13725559 0.82547599
0.16485897 -0.15055092 0.84292394
-0.44548523 -0.15583798 0.82078362
-0.46661597 -0.18096718 0.83133578
-0.50931859 -0.17359813 0.82337999
0.0076543144 -0.24857162 0.82819277
-0.021002779 -0.24851237 0.82409978
-0.071982235 -0.24847454 0.82896811
-0.12515637 -0.24686918 0.82395869
-0.17902637 -0.24491604 0.82328117
-0.22815271 -0.24575999 0.82328135
-0.27072883 -0.24823372 0.81673372
-0.48026568 -0.21982962 0.82143795
-0.51186901 -0.22006658 0.81685317
0.16806221 -0.28348047 0.81098264
0.12782229 -0.27161473 0.82470286
0.077250987 -0.2655547 0.82863355
0.028712606 -0.26410052 0.82777214
-0.032477397 -0.25063747 0.81437141
-0.068585724 -0.25068352 0.80452776
-0.12007438 -0.25003675 0.80363536
-0.28563276 -0.25399774 0.83240372
-0.32667607 -0.26919407 0.82500958
-0.36432847 -0.28796047 0.80871999
-0.47924224 -0.27504104 0.82615364
-0.50965041 -0.27711153 0.81538934
0.13972041 -0.34893733 0.83801079
-0.38342026 -0.30681694 0.80845827
-0.4752008 -0.32231516 0.81262618
-0.50301069 -0.3082673 0.80909932
0.12665327 -0.37951183 0.82277131
0.088716075 -0.39419678 0.82694685
-0.080587223 -0.39324588 0.84189826
-0.1087494 -0.38496119 0.82327324
-0.26745433 -0.36858833 0.80246156
-0.44257993 -0.36550254 0.81026328
-0.46553642 -0.35993668 0.80363554
0.10590732 -0.40065098 0.8183707
0.092151865 -0.40257436 0.81149656
-0.076842099 -0.40536517 0.81984907
-0.10042384 -0.4028154 0.80854857
0.0076543712 -0.79827273 0.82982773
-0.021512808 -0.79380643 0.82688975
0.020417286 -0.81871462 0.82483107
-0.028451728 -0.83260357 0.82000482
-0.057484038 -0.82472444 0.82256609
-0.19518919 -0.83959484 0.80332094
-0.23198561 -0.83548367 0.81214076
-0.27778149 -0.8330344 0.82509983
-0.32635632 -0.8272472 0.82382739
-0.37568668 -0.83107615 0.82076907
-0.42137396 -0.83590221 0.83570075
-0.45413461 -0.84397614 0.84536391
0.46466401 -0.89123178 0.80707896
0.44731548 -0.89665419 0.8036353
0.020503256 -0.85769796 0.83230954
-0.027709715 -0.85072273 0.83925176
-0.052078027 -0.85054523 0.84011805
-0.19540708 -0.85304737 0.80349123
-0.22291301 -0.85495651 0.81805176
-0.26990393 -0.85481495 0.83981574
-0.38360408 -0.88129151 0.80843014
-0.42383197 -0.87569386 0.82737607
-0.46033365 -0.86733949 0.8440749
0.469558 -0.92420089 0.81136554
0.40369403 -0.93174469 0.81753635
0.37436044 -0.92620939 0.811234
-0.2301717 -0.92108744 0.81189233
-0.2770403 -0.91915351 0.82487518
-0.32761416 -0.91532511 0.82433027
-0.3706474 -0.91022605 0.82943845
-0.41361436 -0.90784127 0.84184253
-0.47827038 -0.93548846 0.84204894
-0.51013064 -0.93849725 0.84268361
-0.47780022 -0.97340822 0.84116417
-0.51026475 -0.96484858 0.84242266
0.31365526 0.61356229 0.88816106
0.27543828 0.61511838 0.88977993
0.23680846 0.60639328 0.89425021
0.35606012 0.56272858 0.88753152
0.3250058 0.57631922 0.87313819
0.27214339 0.57514066 0.87000459
0.22432089 0.57332015 0.88392359
0.18904305 0.56035346 0.89521432
0.36516446 0.52348465 0.87354916
0.32904601 0.53697467 0.85481143
0.26670888 0.53607732 0.85433
0.22453491 0.52608478 0.86663491
0.17847219 0.52338779 0.88786507
0.1452084 0.50586259 0.8983438
0.37755474 0.47851691 0.86942911
0.21626732 0.48067436 0.85700828
0.17478906 0.47664896 0.87658554
0.13659267 0.47156617 0.89313841
0.38825551 0.42870045 0.87437296
0.20421872 0.44192445 0.85278386
0.17460054 0.42720136 0.86389738
0.12679368 0.42603016 0.88662696
0.096081927 0.41252238 0.89789104
0.40000892 0.35848331 0.88222921
0.39360535 0.380364 0.86952084
0.16675369 0.38027322 0.8576051
0.12554006 0.37753594 0.87716639
0.087695658 0.3742587 0.89369059
0.40092614 0.32778573 0.86216426
0.39713469 0.33016336 0.87298071
0.15689652 0.32996941 0.85329819
0.12608673 0.32964522 0.86843872
0.078883938 0.32709396 0.88910025
0.046955455 0.30935675 0.89970201
0.40204495 0.28355467 0.86448425
0.39712083 0.28970629 0.87240279
0.12498582 0.27671388 0.86110175
0.076181978 0.27467328 0.88274944
0.042810149 0.26609102 0.89532548
0.40246385 0.21516521 0.85651976
0.11645172 0.22338665 0.85734057
0.075480506 0.22074361 0.87592816
0.032323904 0.21906617 0.89284426
0.40039587 0.18654031 0.85238129
0.39073259 0.18174502 0.86271065
0.10930535 0.17459828 0.85334074
0.076421611 0.17346615 0.86803967
0.027123068 0.1709089 0.8876909
-0.0046273395 0.15952122 0.89798325
0.075517632 0.12470804 0.86059177
0.027505331 0.12243539 0.8800112
-0.01203461 0.11916266 0.89405483
0.066480778 0.076965779 0.8562938
0.027057849 0.07386978 0.87216902
-0.020125397 0.071920231 0.88940531
-0.053753704 0.061268285 0.89835221
-0.42481065 0.074027941 0.87410796
-0.47338098 0.068251729 0.8714506
0.057747822 0.032597184 0.85274655
0.026804721 0.023877501 0.86449277
-0.021963293 0.025003076 0.88277447
-0.061208826 0.02035661 0.89465058
-0.39876062 0.014598042 0.89205575
-0.41824716 0.025308132 0.86722052
-0.47694257 0.025113016 0.87252682
0.025867619 -0.024110474 0.85875654
-0.022416977 -0.02576822 0.87704599
-0.069306754 -0.024552703 0.89277947
-0.41762796 -0.022960484 0.86866862
-0.46766308 -0.025314264 0.87305099
0.3762463 -0.064003699 0.85275018
0.22381064 -0.099002898 0.88222927
0.024600415 -0.074889503 0.85842317
-0.022017797 -0.073803015 0.87676167
-0.06609714 -0.073375016 0.89288205
-0.4204742 -0.076337792 0.87426668
-0.4842321 -0.071552731 0.8741557
0.25899264 -0.10320482 0.8564201
0.22140324 -0.11218081 0.86565036
0.17730851 -0.12980892 0.87803513
0.12963383 -0.13629413 0.87434137
0.072665103 -0.13173079 0.86756915
0.026639434 -0.12310963 0.87277323
-0.020455368 -0.11881673 0.88770205
-0.056210015 -0.10821803 0.89662933
-0.43822178 -0.11728571 0.86919153
-0.4778024 -0.12250117 0.87566525
-0.50303334 -0.14377737 0.85275036
0.15830874 -0.15084378 0.85602564
-0.4754124 -0.15773422 0.85784596
-0.50359339 -0.15287396 0.85309684
-0.028371735 -0.24968405 0.8527503
-0.07094799 -0.24856044 0.85766339
-0.12677337 -0.2468895 0.8661499
-0.17902629 -0.24659944 0.86380494
-0.2244681 -0.24807194 0.85643512
0.26634124 -0.29890853 0.88804996
0.24552333 -0.29981071 0.89415169
0.11677474 -0.29183337 0.87016726
0.072668634 -0.28553528 0.86934185
0.027250892 -0.27119717 0.87365299
-0.021814575 -0.2640686 0.87660682
-0.07245601 -0.25620148 0.88120192
-0.12284444 -0.26535657 0.88898236
-0.17852281 -0.2636179 0.88716543
-0.22990197 -0.26337418 0.88021761
-0.27317309 -0.27325833 0.87362623
-0.3097235 -0.28221262 0.85768151
0.27444217 -0.32744011 0.87835014
0.22668636 -0.32823578 0.8855384
0.19298126 -0.32885084 0.89205563
0.1326804 -0.33656526 0.86562371
0.27126554 -0.36251229 0.88811195
0.24006774 -0.3596468 0.89390022
0.11779048 -0.37924528 0.87206364
0.076520488 -0.38861704 0.88531792
0.034614403 -0.39186138 0.88952094
-0.041313391 -0.39774236 0.8808822
-0.074566565 -0.38453454 0.87656182
-0.10055462 -0.3742142 0.85301864
-0.041472159 -0.40063125 0.88222927
-0.061122663 -0.40111047 0.86257666
0.013683805 -0.79292488 0.87648302
-0.020857321 -0.78949887 0.87117112
0.030730346 -0.81880969 0.87419426
-0.022103274 -0.82814062 0.87665749
-0.054083895 -0.82397604 0.87267357
-0.29692996 -0.8434822 0.8527503
-0.32982633 -0.83602792 0.86278749
-0.37525627 -0.83178282 0.8762359
-0.42523032 -0.82621127 0.87191242
-0.47317189 -0.83302444 0.87259358
-0.50472885 -0.84200156 0.88774323
0.019784193 -0.85923195 0.87334418
-0.027000757 -0.85764229 0.87470627
-0.051950656 -0.85068464 0.86403549
-0.29645938 -0.8548882 0.85278046
-0.32529742 -0.86102307 0.86942065
-0.36730537 -0.85395432 0.89250624
-0.48106852 -0.87946475 0.86087924
-0.50827998 -0.87109977 0.88298279
-0.29597369 -0.91712892 0.85348809
-0.3300643 -0.91763669 0.86616421
-0.3727366 -0.91766804 0.87498623
-0.4283134 -0.92488158 0.87148106
-0.46896654 -0.9201479 0.85908288
-0.52264392 -0.92838502 0.87258351
-0.44164002 -0.97276354 0.87540215
-0.45414931 -0.97350752 0.85266846
-0.52970839 -0.9742626 0.86909741
0.30293816 0.65295768 0.93782949
0.27365941 0.66199404 0.92977434
0.22543415 0.66307408 0.93504822
0.18488058 0.65561092 0.94380325
0.32513016 0.62477452 0.92143923
0.27164674 0.63963366 0.90664679
0.22124563 0.62756336 0.91234595
0.17560889 0.62425065 0.92930031
0.13550466 0.61293519 0.94173312
0.35976577 0.5741657 0.92257112
0.34629908 0.5951972 0.91760391
0.20434521 0.59408718 0.90198249
0.17092086 0.57813919 0.9106164
0.12517184 0.57500923 0.93097204
0.087403737 0.56371951 0.94334197
0.37741119 0.52576017 0.91330397
0.15819086 0.53905094 0.90240598
0.12500133 0.52613294 0.91424495
0.076940924 0.52500468 0.93500876
0.042044152 0.51077366 0.94475895
0.38482392 0.47443676 0.91167694
0.11534137 0.47999385 0.90538442
0.076393425 0.47639877 0.92151576
0.029690078 0.47265726 0.93890387
-0.0054461253 0.46001133 0.94840908
0.39023596 0.42156395 0.90726811
0.10481152 0.44691092 0.90135384
0.075009413 0.42865318 0.91001683
0.02635747 0.42636245 0.92912269
-0.014942103 0.42281306 0.94328493
0.39629528 0.38795924 0.90188175
0.064739533 0.38322061 0.90510404
0.026928531 0.37700897 0.91883934
-0.022269893 0.37807947 0.93671501
-0.058175132 0.37223864 0.94713676
0.055544738 0.34639382 0.90183997
0.026673445 0.32924622 0.91053003
-0.021837825 0.32751822 0.92794299
-0.067520142 0.32845819 0.9422701
-0.10369902 0.31263185 0.94912446
0.020329051 0.27953848 0.90569764
-0.022051295 0.27452946 0.92008263
-0.071703352 0.27508223 0.93536246
-0.11381129 0.26861835 0.94497299
0.0097915502 0.22570051 0.90225101
-0.023618788 0.22249648 0.91337842
-0.072064996 0.22068924 0.92727989
-0.12427509 0.22052869 0.94007576
-0.16183253 0.20864785 0.94749659
-0.02422831 0.17491774 0.90671736
-0.070854023 0.17170104 0.91960299
-0.12499502 0.17249922 0.93303335
-0.16971572 0.16949236 0.944161
-0.034526475 0.12622648 0.90270668
-0.072480209 0.12375519 0.91303647
-0.12537974 0.12307782 0.92606646
-0.17793414 0.12213399 0.9393819
-0.21095796 0.11039452 0.9475342
-0.044450294 0.093200937 0.90096819
-0.07340692 0.075215593 0.90612918
-0.12500571 0.073362917 0.91899085
-0.17895624 0.074550837 0.93327552
-0.21559012 0.071467131 0.94338042
-0.42607287 0.066058844 0.91959763
-0.4665466 0.057944357 0.91375083
-0.08475735 0.026943907 0.90252137
-0.12512149 0.026039258 0.91313118
-0.17901097 0.023480117 0.92743558
-0.22288202 0.025298119 0.94166076
-0.39812434 0.018170729 0.91081518
-0.40872225 0.030453622 0.93557751
-0.4796232 0.026651263 0.92779142
-0.096229397 -0.017334059 0.90143752
-0.12487601 -0.024323598 0.90942663
-0.17997034 -0.024467617 0.92624098
-0.22230275 -0.024751633 0.94128931
-0.3995373 -0.0050524175 0.9067952
-0.41679883 -0.027545795 0.9287402
-0.47391438 -0.027832732 0.9271
0.12555784 -0.093479328 0.94814628
-0.089372948 -0.080870986 0.90202671
-0.12623733 -0.075239815 0.91434151
-0.17788088 -0.074646667 0.93266606
-0.21261549 -0.064876236 0.94337702
-0.43164632 -0.067028947 0.91204804
-0.46966916 -0.072487652 0.91272604
0.20208956 -0.10330564 0.90188193
0.16725494 -0.11051802 0.90676999
0.1231308 -0.12193419 0.92374843
0.078205571 -0.12680106 0.92725366
0.032464169 -0.14277828 0.91856176
-0.022873428 -0.13857672 0.91916913
-0.072089344 -0.12575032 0.91619706
-0.12185581 -0.1189913 0.92941397
-0.16752954 -0.10894288 0.94166583
0.15503366 -0.17208165 0.9497056
0.12432968 -0.17125531 0.92838991
0.072692275 -0.1727199 0.9329055
0.024090495 -0.15873249 0.93219459
-0.002751474 -0.15305318 0.93167329
0.12492368 -0.22421202 0.92880905
0.075193807 -0.22295731 0.93446231
0.04531797 -0.22448407 0.94724363
0.2704193 -0.29767376 0.92177957
0.22175188 -0.29532105 0.92235184
0.17331403 -0.2907809 0.93331325
0.12969506 -0.27292773 0.91827273
0.075627334 -0.27353781 0.91796279
0.029493781 -0.28282994 0.92471093
-0.025157958 -0.2833457 0.90157169
-0.070307314 -0.27573246 0.9090569
-0.12869874 -0.27812925 0.91161186
-0.17982876 -0.27956492 0.90892446
-0.22064766 -0.27713162 0.90478671
0.30365095 -0.33144554 0.92198265
0.2914671 -0.30837756 0.9154039
0.21102278 -0.32058346 0.90209246
0.17595157 -0.32792461 0.91411203
0.13388905 -0.32629687 0.91363281
0.010929451 -0.30738389 0.94124311
0.30241302 -0.35135198 0.92153472
0.27691472 -0.36710745 0.92428815
0.22302909 -0.36855334 0.9178946
0.17704238 -0.36417437 0.92720562
0.1279473 -0.37780038 0.91969925
0.072952636 -0.3962869 0.92114484
0.029075606 -0.39881966 0.91655213
-0.021923726 -0.38832343 0.92366922
-0.062103909 -0.37627372 0.91014194
0.066606112 -0.40014163 0.92153478
0.02512157 -0.40100688 0.9335447
0.020775774 -0.78637898 0.92404771
-0.019006006 -0.78388935 0.92056865
0.037542928 -0.82329011 0.92251676
-0.033755194 -0.82254624 0.92533904
-0.051085111 -0.82626474 0.90165907
-0.39232627 -0.84228361 0.90435028
-0.42696363 -0.83619565 0.91324133
-0.47286376 -0.83475929 0.92223328
-0.50742686 -0.84128332 0.91807652
0.020867819 -0.86195832 0.91844076
-0.021468095 -0.85996807 0.92490035
-0.39122906 -0.8578788 0.90571368
-0.42864773 -0.86334783 0.92367983
-0.46759698 -0.86730283 0.94143665
-0.51499921 -0.87439764 0.92164969
-0.39009628 -0.91625977 0.90624374
-0.42829815 -0.92947024 0.92460579
-0.48171949 -0.94099212 0.93738389
-0.52113056 -0.92931718 0.92413652
-0.43662217 -0.96240371 0.91699958
-0.48849827 -0.96384704 0.92558098
-0.52976769 -0.96837258 0.92343462
0.21443127 0.70232594 0.9908269
0.17863029 0.70219469 0.99123424
0.30372202 0.65445185 0.96234453
0.27509913 0.6733911 0.97474676
0.22493035 0.68860668 0.96642148
0.17348793 0.67868793 0.96616453
0.12801221 0.67132956 0.97852349
0.081370778 0.6621626 0.98894608
0.042042792 0.65324187 0.99656528
0.32211733 0.62582612 0.97220099
0.28761697 0.6415627 0.99161303
0.15503357 0.64890558 0.9510138
0.11927787 0.63061053 0.9567951
0.07515464 0.62413549 0.97182429
0.029214906 0.62218148 0.98702419
-0.0098075448 0.60847789 0.99406409
0.35615256 0.56901336 0.95139515
0.34858999 0.58692133 0.95347023
0.07125514 0.5797537 0.95565909
0.02668817 0.57524025 0.97008097
-0.022484686 0.57435894 0.98554558
-0.060012303 0.56265247 0.99374104
0.052515548 0.54516375 0.95101368
0.024362169 0.52839696 0.95623308
-0.021572512 0.5248692 0.97043306
-0.071791083 0.52429259 0.98629415
-0.10533656 0.5142771 0.99512947
0.010046788 0.49158347 0.95103329
-0.024122471 0.47706896 0.95860183
-0.072375111 0.47618651 0.97409421
-0.12032285 0.47295904 0.98901379
-0.035282336 0.43333605 0.9519214
-0.071363874 0.42774543 0.96247244
-0.12575279 0.42703867 0.97942775
-0.16536202 0.42065752 0.99292535
-0.077536248 0.38153306 0.95472658
-0.12535404 0.37709284 0.96780217
-0.17686708 0.3762365 0.98599422
-0.2085014 0.35848325 0.99749607
-0.091654673 0.34105843 0.95109743
-0.12712541 0.32839954 0.95878309
-0.17844585 0.32896829 0.97534651
-0.2131912 0.32467973 0.99115646
-0.13747154 0.28066671 0.95286322
-0.17869949 0.2759912 0.9646821
-0.2240303 0.27272886 0.98489791
-0.25762805 0.2504051 0.99923992
-0.14955004 0.24929301 0.95101374
-0.18038982 0.22397287 0.95593089
-0.22806112 0.22211604 0.97579229
-0.25968021 0.21475023 0.9930746
-0.19265562 0.17686291 0.95191193
-0.22814707 0.17306471 0.96593553
-0.26579145 0.17101139 0.98758566
-0.23014745 0.12613836 0.95817578
-0.27123347 0.12193055 0.9827283
-0.23981319 0.076864108 0.95467317
-0.27459574 0.0720516 0.97798055
-0.2455966 0.024423286 0.95223117
-0.27777043 0.023935243 0.97577274
-0.43267772 0.023964196 0.9567886
-0.46171814 0.016927034 0.95512003
-0.24378754 -0.028150439 0.95250893
-0.27592432 -0.024637833 0.97496623
-0.43489018 -0.010094002 0.95470011
-0.46318358 -0.015034437 0.95350456
0.15503366 -0.093479313 0.98812211
0.14012744 -0.094396137 0.9693563
0.09608198 -0.095333934 0.95161736
-0.23268026 -0.078457467 0.95822227
-0.27021399 -0.072186969 0.97954005
0.15854505 -0.12568061 0.97813851
0.14138295 -0.11312512 0.95667511
0.063097812 -0.10774705 0.95393264
0.0065915296 -0.13443238 0.9813534
-0.022728661 -0.12838994 0.97240233
-0.07083749 -0.13294911 0.9746573
-0.126035 -0.13289976 0.97373837
-0.18192779 -0.12249553 0.96634203
-0.22465083 -0.11259703 0.97492415
-0.25787047 -0.10334896 0.98479539
0.16182919 -0.17119314 0.96881515
0.1450976 -0.19138221 0.95116466
0.020295816 -0.17199932 0.96647847
-0.0021710081 -0.15088466 0.95101374
0.16358924 -0.22173655 0.97334266
0.14618088 -0.21595225 0.95106828
0.027981341 -0.22075306 0.96588784
0.25640529 -0.29956168 0.95577592
0.21859138 -0.29565254 0.96815574
0.17348889 -0.27128652 0.97045469
0.076431341 -0.28998601 0.99997789
0.024365811 -0.27491578 0.97071427
0.30301252 -0.33116567 0.95816219
0.28080651 -0.32407743 0.96785039
0.23051308 -0.32303047 0.97939396
0.018854961 -0.32583112 0.96919119
-0.002842061 -0.34893733 0.97006267
0.27356151 -0.36132783 0.96097898
0.22297768 -0.36970332 0.96961164
0.17057344 -0.37915808 0.97125733
0.12597285 -0.3914696 0.9695121
0.077651367 -0.38785702 0.95633274
0.021690512 -0.38712418 0.97450888
-0.0025683956 -0.38825828 0.95802456
0.015514621 -0.40067416 0.95494425
0.050395794 -0.79107565 0.99030238
0.028403347 -0.77993339 0.97210795
-0.017924771 -0.78071129 0.97001576
0.053978752 -0.81437916 0.98144674
0.022992816 -0.82726383 0.96976095
-0.036213435 -0.82287794 0.97235936
0.01941701 -0.85819089 0.97021377
-0.016065128 -0.8611325 0.96997792
-0.48627371 -0.88084412 0.95609945
-0.50351053 -0.88177317 0.95228821
-0.44507003 -0.93567115 0.95368695
-0.47460347 -0.92633665 0.962394
-0.50324756 -0.92634588 0.95165104
0.21491249 0.70376456 1.0110435
0.17298433 0.70886207 1.0246325
0.12706073 0.70665944 1.0275254
0.078347854 0.70400846 1.0404323
0.04695544 0.70113778 1.0492604
0.25814408 0.66617525 1.0051203
0.22623357 0.67844224 1.0211382
0.17851271 0.68063867 1.0431932
0.11813772 0.69416171 1.0045617
0.073837183 0.6860553 1.0137273
0.027178558 0.67620766 1.0220133
-0.020321609 0.66766918 1.0331013
-0.060511012 0.65750933 1.043848
0.31870317 0.61575747 1.0032108
0.2860167 0.6390323 1.003404
0.12358528 0.63643992 1.0486231
0.080794863 0.61449772 1.0488605
0.011676569 0.64068288 1.0006179
-0.02551355 0.62874693 1.0078273
-0.07186529 0.62621295 1.0261124
-0.11504597 0.61513317 1.0421245
0.070751645 0.58320743 1.0408168
0.034718867 0.56631958 1.0456395
-0.044223953 0.59674793 1.0001286
-0.077111296 0.58087552 1.0064567
-0.12470224 0.57477963 1.026884
-0.16496404 0.56771392 1.0456076
0.018158775 0.52754188 1.0390282
-0.013596976 0.5121612 1.0433997
-0.091520749 0.54635799 1.0001287
-0.12964885 0.52823335 1.0105633
-0.1768883 0.5239805 1.0355701
-0.20725463 0.50830883 1.0492646
0.011726281 0.47586131 1.0291018
-0.026865952 0.47665137 1.0393564
-0.05921635 0.4689374 1.0483171
-0.14278916 0.48772746 1.0025783
-0.1767783 0.47553727 1.017761
-0.21486346 0.47268486 1.041139
-0.030574877 0.42691129 1.0299907
-0.069808751 0.42694697 1.0421987
-0.10042389 0.40442103 1.0492604
-0.18665466 0.42995542 1.0076706
-0.22493719 0.42518747 1.0319585
-0.038247108 0.37672809 1.0229661
-0.077153936 0.3729735 1.0350868
-0.114155 0.37750754 1.047724
-0.19712998 0.39144695 1.0011282
-0.22896729 0.37920743 1.0181832
-0.25623846 0.37061903 1.0433875
-0.039459433 0.34865797 1.018015
-0.071066424 0.32342798 1.0254679
-0.12641139 0.32730234 1.0429466
-0.15250129 0.30935678 1.0492604
-0.23644733 0.33204794 1.0077654
-0.26372004 0.32692653 1.0340154
-0.041472208 0.28970626 1.0197812
-0.069273636 0.275437 1.0205069
-0.12628584 0.27349293 1.0354918
-0.17456494 0.27034053 1.0476202
-0.24347204 0.28999817 1.0014664
-0.27136678 0.27371317 1.024174
-0.076850429 0.22043116 1.0139641
-0.12368613 0.22176026 1.026871
-0.17536728 0.22511922 1.0427284
-0.2020807 0.22092994 1.0492604
-0.28227058 0.22206469 1.0218011
-0.07616625 0.17433557 1.0106812
-0.12051627 0.17218725 1.0204532
-0.17929192 0.17344937 1.0359609
-0.20861204 0.17788319 1.0491865
-0.29102319 0.17453538 1.021505
-0.30193105 0.16001232 1.0453297
-0.086570129 0.11694628 1.0053227
-0.1170067 0.12550053 1.0138361
-0.29500946 0.12547919 1.0088329
-0.30513331 0.12104829 1.0380205
-0.11039641 0.093200937 1.0098963
-0.29690036 0.079531461 1.001826
-0.30654034 0.073545054 1.0309399
-0.29972571 0.02687943 1.0001287
-0.30843291 0.024179548 1.0267936
-0.29791719 -0.035379425 1.0017648
-0.3064054 -0.023330167 1.0293885
0.16174665 -0.094434716 1.0181254
-0.18962187 -0.082152344 1.0356575
-0.22003305 -0.067887418 1.0448736
-0.28507486 -0.077489376 1.0260595
-0.30143121 -0.054179072 1.039434
0.17001872 -0.13190135 1.0116169
0.016512852 -0.13106374 1.0276631
-0.0021710019 -0.11468203 1.0080546
-0.080225423 -0.11991172 1.0055068
-0.12863019 -0.11935619 1.0166703
-0.17853561 -0.11783315 1.0267301
-0.2294035 -0.11432905 1.0238804
-0.26336008 -0.10435002 1.0191717
0.16492812 -0.17018878 1.0294669
0.11449345 -0.1817666 1.0306737
0.080936611 -0.1841763 1.0288892
0.024849685 -0.17093442 1.0239494
0.17565687 -0.21988279 1.0254775
0.11212418 -0.20579809 1.0343868
0.065208472 -0.22327647 1.039948
0.031021968 -0.22077325 1.0209415
0.20125337 -0.29981071 1.0001287
0.18480314 -0.2774986 1.0241411
0.076875016 -0.2640872 1.0276669
0.03247897 -0.2708483 1.0118592
0.20393728 -0.318012 1.0016776
0.18612099 -0.31280267 1.0290356
0.032621678 -0.34346843 1.0272168
0.16755925 -0.37805852 1.0223364
0.13697854 -0.38789392 1.0200542
0.058211125 -0.38315171 1.0277343
0.030092381 -0.37801075 1.02169
0.056770135 -0.78817821 1.0280433
0.028473333 -0.76839185 1.0261136
-0.015087509 -0.77873331 1.0252143
0.057715293 -0.81731743 1.0246946
0.023194741 -0.82703489 1.0283169
-0.022154652 -0.82354689 1.0272655
0.022428434 -0.85660732 1.0244088
-0.0093078027 -0.85470307 1.0184391
0.15503357 0.70236862 1.0504174
0.11734285 0.70671719 1.0588381
0.077479407 0.7064808 1.0669955
0.030982617 0.70252657 1.0738977
0.16219939 0.67700744 1.0570421
0.12550279 0.67464507 1.0639284
0.075801075 0.67586303 1.0766587
0.025697349 0.67735022 1.0878239
-0.020640215 0.68711019 1.0805144
-0.072465487 0.66693306 1.0749341
-0.10378759 0.65333039 1.0838604
