# .PCD v0.7 - Point Cloud Data file format
VERSION 0.7
FIELDS x y z
SIZE 4 4 4
TYPE F F F
COUNT 1 1 1
WIDTH 1413
HEIGHT 1
VIEWPOINT 0 0 0 1 0 0 0
POINTS 1413
DATA ascii
-0.02265159 -1.2977204 0.47942191
0.066207789 -1.337966 0.4633106
0.04689287 -1.3385911 0.48722321
-0.032248311 -1.3392611 0.46539307
0.080805957 -1.3967235 0.45658249
0.03069054 -1.3870246 0.46808535
-0.013487344 -1.391656 0.45634612
0.11773708 -1.4531267 0.45162901
0.10458075 -1.4365308 0.43354756
0.0045764931 -1.4480251 0.42750907
-0.0045862836 -1.446272 0.45661509
0.11630235 -1.4807063 0.42636085
0.0099668354 -1.4775858 0.41739178
0.44719994 -0.29379731 0.71930158
0.41617993 -0.26653582 0.70673847
0.37270156 -0.26792228 0.7073946
0.44872257 -0.31486964 0.69947153
0.40727007 -0.32705414 0.69786102
0.38017017 -0.29846951 0.69473505
0.44772127 -0.34574568 0.68109757
0.43275189 -0.34469461 0.67453915
0.39698786 -0.44231933 0.65052336
0.37014237 -0.44191152 0.65633458
0.40621117 -0.48013377 0.66666108
0.35794359 -0.47822595 0.67202199
0.40140796 -0.53331733 0.65994024
0.34985316 -0.53749871 0.65776038
0.35845661 -0.57247394 0.67233652
0.22346358 -0.66970509 0.65352821
0.18821745 -0.66344345 0.64282089
0.13532519 -0.65523165 0.63820481
0.079154089 -0.64684272 0.63965708
0.025131529 -0.6402114 0.64184505
-0.031256653 -0.63449311 0.63943195
-0.082469262 -0.62878799 0.64146996
-0.13221839 -0.62722576 0.6443916
-0.18817793 -0.62452346 0.64384413
-0.24417616 -0.62220144 0.64307731
-0.30132425 -0.62521887 0.641222
-0.35634559 -0.6274156 0.64189684
-0.41178104 -0.62823123 0.64272571
-0.46818277 -0.63219935 0.64299482
-0.52368224 -0.63843447 0.64084959
-0.58094215 -0.65157121 0.63848525
-0.61104774 -0.66626024 0.65076464
0.24928948 -0.69620579 0.63057899
0.20299472 -0.67231399 0.61916888
0.062244508 -0.72513705 0.64803076
0.021557011 -0.72011054 0.64381742
-0.02910855 -0.71572244 0.63363039
-0.086726166 -0.71110308 0.62648249
-0.12982902 -0.70585662 0.62758058
-0.19311008 -0.70108032 0.63130063
-0.24409549 -0.70004034 0.63127649
-0.30245787 -0.70064306 0.62788403
-0.35796356 -0.69988811 0.63206959
-0.40565172 -0.70024103 0.63382304
-0.47044364 -0.7048378 0.62766987
-0.52556437 -0.7113691 0.62929386
-0.59577084 -0.70890296 0.62842393
-0.61101764 -0.69019085 0.63415867
0.25391689 -0.75988907 0.62298316
0.19654264 -0.77270353 0.62800163
0.13532411 -0.75879866 0.62682223
0.081737973 -0.74927974 0.61515838
0.023705535 -0.7439152 0.61109614
-0.03148013 -0.75911909 0.60282093
-0.079110041 -0.77377892 0.60028678
-0.13302243 -0.77276391 0.5968498
-0.19359483 -0.77344257 0.59903955
-0.22353758 -0.77391303 0.60012788
-0.29760444 -0.77411222 0.60449666
-0.35804448 -0.76824749 0.6006
-0.40975508 -0.76797473 0.60243469
-0.47492814 -0.76288772 0.61358154
-0.5173611 -0.74881327 0.62440771
-0.56822973 -0.74984705 0.62085426
0.232458 -0.78837013 0.60666382
0.18235892 -0.79547322 0.61127883
0.13902667 -0.8149693 0.61791116
0.080602691 -0.80810916 0.62278485
0.024939973 -0.81009346 0.62140441
-0.032352842 -0.80976963 0.6206789
-0.081893519 -0.81180954 0.62089038
-0.13467784 -0.81104755 0.61866319
-0.18851936 -0.80564296 0.6160199
-0.24478793 -0.81318581 0.61881447
-0.29929772 -0.80886507 0.61776274
-0.35717624 -0.81321818 0.61590147
-0.41475227 -0.81238562 0.61350077
-0.46838048 -0.81510961 0.61384076
-0.52297586 -0.80327922 0.61328322
0.11691921 -0.83507669 0.60347444
0.074853741 -0.83989501 0.59776735
0.024712685 -0.84127879 0.59930575
-0.032599259 -0.84249306 0.60169971
-0.08343628 -0.8428241 0.60297704
-0.13309309 -0.84414774 0.60293871
-0.18496673 -0.84755325 0.59811985
-0.24418969 -0.84150624 0.60013413
-0.30098131 -0.83684403 0.59602219
-0.35459089 -0.83674884 0.5915525
-0.40825585 -0.83260202 0.59220952
-0.45102867 -0.83097565 0.5906077
0.0180618 -1.2954839 0.52471268
-0.034644533 -1.2842339 0.52690166
-0.06568405 -1.3056035 0.53393757
-0.62397933 -1.308151 0.5488472
0.056665562 -1.3653606 0.48775688
0.029907065 -1.3528819 0.5150649
-0.040128931 -1.3577263 0.51494408
-0.062293109 -1.3360143 0.52828979
-0.59050536 -1.373837 0.53582925
-0.61282134 -1.3740244 0.536892
0.069996677 -1.4164318 0.48596537
0.021468541 -1.4071515 0.50435251
-0.0138426 -1.3965619 0.5024159
-0.58548009 -1.4024158 0.52292645
-0.6165635 -1.4082736 0.5249967
0.11644478 -1.4587142 0.48214403
0.082568325 -1.4451094 0.49999261
0.02557783 -1.4497175 0.50579894
-0.0052121235 -1.4370751 0.48751301
-0.59046966 -1.4443047 0.51780444
-0.61376244 -1.4428875 0.51858121
0.39140913 -0.24529439 0.77317977
0.3802498 -0.24660924 0.77861363
0.44505909 -0.29147613 0.752572
0.41565284 -0.27142769 0.76236022
0.37347835 -0.269815 0.75729376
0.44853604 -0.32336819 0.74765372
0.41833922 -0.31733453 0.74592817
0.39394128 -0.508811 0.69272023
0.36308938 -0.50603616 0.69585454
0.39842317 -0.54499876 0.70423907
0.35445517 -0.54040837 0.71433377
0.32876667 -0.56155455 0.69701797
0.3919239 -0.58847117 0.70448512
0.35779861 -0.60295498 0.69487447
0.32450509 -0.59769386 0.71201921
0.006453997 -0.62531185 0.72006607
-0.033817258 -0.6247949 0.71474606
-0.085419998 -0.62326962 0.70846754
-0.13421683 -0.62308943 0.70810044
-0.19060557 -0.62060356 0.69589478
-0.24460365 -0.61875761 0.69311029
-0.29946283 -0.6188032 0.69389063
-0.35618493 -0.62029356 0.6999439
-0.40994006 -0.62056565 0.70150501
-0.46640867 -0.62236041 0.70577961
-0.50817597 -0.62517035 0.71803808
0.35271308 -0.63878006 0.71488667
0.32446018 -0.63618392 0.72187144
0.23333491 -0.67009979 0.69302684
0.19182979 -0.65348423 0.69131327
0.13489968 -0.64421952 0.69253922
0.080608301 -0.63622743 0.69366682
0.024241226 -0.63156557 0.691962
-0.031239577 -0.6282239 0.68264639
-0.078392506 -0.6253745 0.67896593
-0.13302244 -0.62407458 0.67806196
-0.18881267 -0.65271044 0.69000989
-0.23344575 -0.68307084 0.70731944
-0.30708891 -0.67023802 0.69825077
-0.35866439 -0.64969122 0.68802416
-0.41693467 -0.6372596 0.68266207
-0.47392914 -0.63052917 0.68024999
-0.52519655 -0.6317544 0.69096953
-0.57899636 -0.64541829 0.69096285
-0.61283362 -0.66812879 0.69016379
0.26299194 -0.70105875 0.67908657
0.1805158 -0.7326628 0.69622761
0.13455066 -0.72525281 0.68683028
0.081554338 -0.71880186 0.67892075
0.022852914 -0.7084353 0.68229699
-0.03137102 -0.70179558 0.68054569
-0.080946781 -0.69725931 0.67694187
-0.13574836 -0.69146335 0.68937367
-0.1894577 -0.68843353 0.68546468
-0.24519084 -0.68736768 0.67952883
-0.29976538 -0.68744653 0.67717516
-0.35618484 -0.68828148 0.67760086
-0.4138734 -0.68831176 0.67750996
-0.46933347 -0.68834889 0.68372935
-0.52610111 -0.69746834 0.6825583
-0.57942039 -0.71348292 0.68247777
-0.6092121 -0.69007659 0.67778558
0.25093043 -0.75914854 0.67053133
0.19276564 -0.75556278 0.66924173
0.14774303 -0.73691261 0.6565854
-0.53218818 -0.76510453 0.66729629
-0.5662809 -0.75702608 0.66921163
-0.49047753 -0.79216284 0.64261287
-0.52389318 -0.79274452 0.64455575
-0.035248503 -1.2659992 0.58655596
-0.070936449 -1.2684444 0.5974021
-0.54587317 -1.2736715 0.61033541
-0.58054125 -1.2720212 0.5996154
-0.6214928 -1.2732643 0.60164762
0.0092854099 -1.3069924 0.57281309
-0.019605059 -1.2798678 0.57549411
-0.083912201 -1.3004621 0.57723141
-0.54334205 -1.2918595 0.60332996
-0.57995611 -1.3030709 0.57856542
-0.63982373 -1.3000298 0.57223696
-0.66442996 -1.3068459 0.59499472
0.014924312 -1.3460993 0.56207931
-0.030544002 -1.358914 0.56787759
-0.07275492 -1.3436983 0.5697453
-0.54554939 -1.3806926 0.57783616
-0.57697803 -1.3559865 0.56617838
-0.63284189 -1.3550851 0.56624323
-0.54076612 -1.4133068 0.56471092
-0.5606842 -1.4091892 0.53919119
-0.63816679 -1.4107134 0.55628294
0.027070783 -1.4492371 0.53300059
-0.57100034 -1.4450111 0.53499758
-0.62767822 -1.4467351 0.53204447
0.39996201 -0.24625456 0.82224518
0.37655735 -0.24691665 0.81907922
0.41522828 -0.27966684 0.81115025
0.37381226 -0.26999694 0.81182992
0.44627637 -0.32369453 0.78372258
0.35463864 -0.57035834 0.73962897
0.39076748 -0.60947084 0.74301183
0.35630795 -0.60767418 0.76045132
0.32376844 -0.61347771 0.74667609
0.1682466 -0.6369105 0.77655375
0.1314915 -0.63166302 0.76382369
0.077508792 -0.62657827 0.75596821
0.023801513 -0.62319708 0.7521655
-0.032599252 -0.62158811 0.75370896
-0.082811192 -0.62126893 0.75355679
-0.13446626 -0.62101096 0.75419766
-0.18889429 -0.61978513 0.75302088
-0.24406074 -0.61900437 0.75241214
-0.29960427 -0.61826599 0.75224888
-0.3561849 -0.61816037 0.75200772
-0.41197532 -0.61775452 0.751625
-0.46746963 -0.62095457 0.75383294
-0.52331138 -0.62656462 0.75289905
-0.56210601 -0.63288951 0.76517206
0.38706222 -0.64092249 0.74874568
0.36353555 -0.66529846 0.74664116
0.32018307 -0.66323209 0.75140643
0.24174497 -0.66981673 0.74590248
0.19273339 -0.64567947 0.74752128
0.13962716 -0.63801128 0.73734128
0.090139821 -0.63238597 0.72758788
0.0064540114 -0.69007272 0.77045751
-0.035817891 -0.68813056 0.76283741
-0.083578326 -0.68607223 0.75686717
-0.13564797 -0.68464482 0.74897575
-0.1878442 -0.68232977 0.74201715
-0.24762246 -0.68009824 0.74407184
-0.30120918 -0.67919552 0.74220312
-0.35647717 -0.67847985 0.74276489
-0.41051984 -0.67774582 0.74423444
-0.46886122 -0.678734 0.74624181
-0.523202 -0.67905706 0.74581176
-0.58049256 -0.65155798 0.74677891
-0.61731893 -0.67166853 0.74604321
0.33561823 -0.69333303 0.7621671
0.25562713 -0.72389913 0.73769492
0.19452871 -0.72765315 0.73421425
0.13315906 -0.71306348 0.73624766
0.077789962 -0.70305836 0.74092013
0.018639935 -0.6958943 0.73585188
-0.035539411 -0.69185376 0.73345494
-0.08404734 -0.69030607 0.72347063
-0.12744316 -0.68580925 0.7181679
-0.54133946 -0.72183442 0.73373961
-0.57797307 -0.71715736 0.73576039
-0.61308038 -0.69792855 0.73617887
0.25860742 -0.75170231 0.72040951
0.21063037 -0.74566031 0.70766479
-0.54539222 -0.75302774 0.72507948
-0.56392181 -0.7541815 0.72876805
-0.037328362 -1.2638232 0.63914162
-0.085117742 -1.2588145 0.64126688
-0.11391449 -1.2765601 0.65436947
-0.4812828 -1.2691427 0.65783161
-0.52286077 -1.2630652 0.64062077
-0.57911807 -1.2655693 0.64229882
-0.62419957 -1.2734966 0.62449265
0.0022698846 -1.3241197 0.61216366
-0.020174209 -1.3179011 0.6355989
-0.10007287 -1.3191311 0.62197554
-0.1158034 -1.3072522 0.63893688
-0.48474938 -1.3002701 0.65341502
-0.52345705 -1.3155574 0.62954932
-0.58598083 -1.313517 0.64233041
-0.63511896 -1.3106519 0.61973184
-0.66643775 -1.3062279 0.61054784
0.0021303745 -1.342416 0.60973477
-0.037397217 -1.3471928 0.61371839
-0.077142879 -1.3483709 0.62545919
-0.5459488 -1.3823704 0.60881114
-0.57194161 -1.3643599 0.62945551
-0.63642061 -1.3665576 0.62643802
-0.5382576 -1.4129517 0.60375625
-0.58434242 -1.4125427 0.62458074
-0.63856769 -1.4118766 0.61947614
0.40767562 -0.24766514 0.87623173
0.37585598 -0.24708536 0.87575847
0.41151166 -0.28437167 0.86908352
0.37773451 -0.27287805 0.86865938
0.22422862 -0.64404118 0.82434964
0.1891519 -0.63555861 0.80957377
0.13362764 -0.62648046 0.80844176
0.080207974 -0.61960149 0.80942953
0.021519963 -0.6159628 0.81011629
-0.032054864 -0.61488193 0.81211483
-0.083644971 -0.61477083 0.81209487
-0.13332736 -0.61415136 0.81209153
-0.18939266 -0.61411393 0.81273907
-0.24445169 -0.61314321 0.81248307
-0.30114526 -0.61259705 0.81010783
-0.3561849 -0.6119839 0.81001526
-0.41344199 -0.6115315 0.80922401
-0.46781883 -0.61422896 0.81216699
-0.52450979 -0.62212801 0.80998605
-0.5738129 -0.63391 0.81042296
0.35277694 -0.67469335 0.79545242
0.3132813 -0.67620385 0.79869461
0.24702084 -0.66814625 0.79987323
0.21083096 -0.64552689 0.78402442
0.12821856 -0.69651884 0.81637496
0.08326035 -0.69255334 0.80152702
0.026130615 -0.68678963 0.79771
-0.033681124 -0.68230981 0.80039924
-0.081324607 -0.68176764 0.79726553
-0.1355501 -0.67927331 0.80197585
-0.19009265 -0.67709005 0.80098128
-0.24209611 -0.67493939 0.80033022
-0.30098471 -0.67287147 0.80383581
-0.35618484 -0.67250341 0.79926479
-0.41202247 -0.67185354 0.79735309
-0.46620783 -0.67183262 0.79820877
-0.52652007 -0.67807817 0.80256563
-0.57848668 -0.6824342 0.80278188
-0.61968398 -0.6779843 0.80100405
0.34021479 -0.70222986 0.78874499
0.32074085 -0.70464694 0.80398554
0.25020766 -0.72908062 0.78883827
0.19353424 -0.71557248 0.7931484
0.13965894 -0.7046231 0.78639209
0.096330062 -0.6988157 0.77409846
-0.54011959 -0.73972642 0.79104692
-0.57483232 -0.72273076 0.79040277
-0.6128214 -0.70052493 0.79205596
-0.54587322 -0.75114644 0.76897061
-0.5600785 -0.75506389 0.76851916
-0.085805625 -1.2367471 0.71553296
-0.11535799 -1.237438 0.72103429
-0.43429154 -1.2387344 0.7254113
-0.4593972 -1.2399912 0.72112173
-0.045050938 -1.2734133 0.69109392
-0.076788396 -1.2470014 0.69497824
-0.13004646 -1.2663161 0.69759947
-0.41798505 -1.2680489 0.70813107
-0.46330431 -1.2582297 0.68835819
-0.52152586 -1.262864 0.69751805
-0.55998033 -1.2693315 0.67488915
-0.034914352 -1.3158087 0.68204761
-0.079902142 -1.3320968 0.68566793
-0.12702677 -1.31751 0.68764538
-0.42611074 -1.306183 0.702362
-0.46742859 -1.3183719 0.68458074
-0.5255692 -1.3254375 0.68965203
-0.56375772 -1.3228779 0.66951609
-0.077231959 -1.348335 0.6580044
-0.54711986 -1.348419 0.66176683
-0.56942409 -1.3510935 0.65846002
-0.64655733 -1.4153358 0.64648533
0.41586813 -0.25013584 0.93339342
0.37623778 -0.25296396 0.93201852
0.40733716 -0.29325324 0.92326325
0.38114274 -0.27427056 0.91676611
-0.13860148 -0.60352129 0.89129871
-0.18323393 -0.60379469 0.89125049
-0.252042 -0.60388219 0.89123505
-0.30039403 -0.60222459 0.89152735
-0.35618484 -0.60176468 0.89160854
-0.41476494 -0.60039234 0.89417344
-0.45288819 -0.60039932 0.89169794
0.33561823 -0.65665615 0.88192958
0.32446024 -0.65799892 0.88169283
0.23388842 -0.64492536 0.86541682
0.19150448 -0.62798959 0.86553955
0.13564757 -0.61921161 0.86477697
0.078564212 -0.61258703 0.8679285
0.025439288 -0.60936511 0.86565745
-0.032599237 -0.6079216 0.86914265
-0.082811184 -0.60752428 0.86899424
-0.13216408 -0.60714221 0.86522233
-0.18921131 -0.60689628 0.86689228
-0.24479014 -0.60666358 0.86619371
-0.30039403 -0.60586703 0.86330056
-0.35618487 -0.60555261 0.86314952
-0.41197529 -0.60515261 0.86292475
-0.46997404 -0.60652184 0.86529517
-0.52166492 -0.6133703 0.86816025
-0.57555878 -0.63472849 0.86535317
0.3504065 -0.68314534 0.85498166
0.3038063 -0.68097442 0.8568846
0.26075375 -0.68133289 0.85666221
0.18389279 -0.7006743 0.85952801
0.13603078 -0.69169074 0.8529017
0.083387941 -0.68398732 0.85596031
0.018711505 -0.67752111 0.85965317
-0.032599233 -0.67492247 0.85848027
-0.081803985 -0.67398417 0.85512567
-0.13139357 -0.6723578 0.85924971
-0.18796024 -0.67058963 0.85470319
-0.24530099 -0.66788006 0.86152959
-0.30365509 -0.66705447 0.86175179
-0.35521126 -0.66581649 0.86129886
-0.41129938 -0.66416252 0.86113816
-0.46731386 -0.66515183 0.86015868
-0.52958775 -0.68080747 0.85467482
-0.58121461 -0.69309336 0.85918689
-0.62020236 -0.68671811 0.85292071
0.33441776 -0.71213365 0.85110325
0.31008619 -0.72192311 0.84904683
0.24742596 -0.72459328 0.84716171
0.18777436 -0.72507071 0.85360068
0.16249922 -0.73559952 0.86800975
-0.15533946 -0.73079669 0.87289792
-0.19318087 -0.74082208 0.86601418
-0.2248528 -0.73553061 0.87108362
-0.54038364 -0.73499823 0.8456254
-0.57296777 -0.7360726 0.84663719
-0.62208331 -0.71199775 0.83275896
-0.19104467 -0.80144608 0.86232781
-0.18633331 -0.83481467 0.85594684
-0.089604303 -1.2354294 0.75676453
-0.13368739 -1.2313381 0.76071733
-0.16713955 -1.2429458 0.77924216
-0.36050367 -1.237097 0.77195579
-0.41298357 -1.2353563 0.7592352
-0.45949417 -1.2398622 0.74556774
-0.052437726 -1.2901942 0.73572963
-0.072969899 -1.2806264 0.75771272
-0.15075408 -1.2742859 0.74086738
-0.1696551 -1.2783965 0.76646417
-0.32642278 -1.2723929 0.77443498
-0.35724789 -1.2774934 0.75403816
-0.40395489 -1.2671524 0.74293953
-0.46752658 -1.2768192 0.74888974
-0.49591148 -1.2937604 0.72426522
-0.048841577 -1.3107285 0.72942358
-0.088939801 -1.3169963 0.73228431
-0.13387041 -1.320789 0.74350822
-0.37197188 -1.3104057 0.75751835
-0.41120633 -1.3178442 0.74165249
-0.46616694 -1.3239048 0.74134117
-0.50195956 -1.3164911 0.72282475
0.39140919 -0.23546858 1.0195827
0.44081733 -0.27633533 0.9943161
0.41400886 -0.25542402 0.98708534
0.37716934 -0.25307128 0.98604476
0.44174981 -0.28926104 1.0033684
0.41513312 -0.29696593 0.97651601
0.35442406 -0.58964336 0.95028615
0.32547656 -0.60348207 0.94858539
0.17382568 -0.61206293 0.9464497
0.13245229 -0.60764313 0.94020158
0.076695867 -0.60382825 0.93245083
0.022704523 -0.60051101 0.92773932
-0.03096294 -0.59988099 0.92755407
-0.082811169 -0.59879762 0.92609262
-0.13325541 -0.5978682 0.92611575
-0.18881282 -0.59828347 0.92540604
-0.2446036 -0.59808433 0.92548209
-0.30085188 -0.59741944 0.92387581
-0.35564232 -0.59704494 0.9236204
-0.41127789 -0.59612471 0.92631632
-0.46878701 -0.5974291 0.92618769
-0.51983416 -0.60354412 0.93101615
-0.5549866 -0.61061472 0.94292802
0.35786098 -0.64302725 0.92472166
0.31803405 -0.64546639 0.92470157
0.23702632 -0.64392394 0.92036271
0.19304313 -0.62064195 0.92155445
0.13657701 -0.61229753 0.90930456
0.081461318 -0.61512768 0.90789711
0.025980674 -0.66663331 0.93399477
-0.040037788 -0.66406608 0.93634546
-0.08622063 -0.66279471 0.93452924
-0.13461643 -0.6624155 0.93050647
-0.18602328 -0.66071546 0.93170267
-0.24781886 -0.65981328 0.93074983
-0.29988685 -0.65943545 0.92158675
-0.35913047 -0.65794623 0.91842395
-0.41192663 -0.65710074 0.91337329
-0.46802372 -0.65762681 0.91338611
-0.52965349 -0.6410386 0.91930646
-0.57579505 -0.63919878 0.92050642
0.35618943 -0.69128376 0.90833586
0.30656064 -0.69692433 0.90935844
0.25078309 -0.69803798 0.91311908
0.18614383 -0.70111823 0.9105534
0.14060463 -0.68757516 0.91485924
0.078733265 -0.6745488 0.91372311
0.028130203 -0.67073047 0.91020691
-0.032599166 -0.66755664 0.90910774
-0.085103087 -0.66696751 0.90682727
-0.13443872 -0.66744971 0.90367192
-0.19142665 -0.66980499 0.90228635
-0.24689369 -0.70146793 0.91141421
-0.29872233 -0.68615943 0.92088675
-0.339448 -0.66043282 0.89259493
-0.41197494 -0.66006422 0.89266008
-0.49008235 -0.66053498 0.89257705
-0.53620237 -0.68174237 0.89853972
-0.57583559 -0.6896944 0.90417725
-0.6056174 -0.68808824 0.88771868
0.30963719 -0.72294319 0.88907552
0.24794252 -0.72392982 0.89780849
0.181633 -0.73649561 0.89906365
0.15353218 -0.73590374 0.90118515
-0.15192907 -0.75331479 0.89528805
-0.18579246 -0.74052137 0.90182179
-0.23722456 -0.74159986 0.89999437
-0.53939325 -0.73711979 0.90099537
-0.56995445 -0.73810363 0.900307
-0.14612491 -0.80722159 0.89772063
-0.18501373 -0.79968542 0.88547641
-0.22837031 -0.80400383 0.89108413
-0.13975824 -0.85518974 0.88252699
-0.1883074 -0.85837173 0.86850774
-0.23730882 -0.85356158 0.88064045
-0.14031239 -0.91022366 0.87863719
-0.1907004 -0.90839595 0.86308914
-0.23620589 -0.91090655 0.88241959
-0.14357947 -0.96939194 0.87333745
-0.19092809 -0.96783412 0.86004281
-0.2368052 -0.96886945 0.87611949
-0.14841683 -1.0176222 0.87027228
-0.19015718 -1.0204097 0.85953045
-0.23015951 -1.0166441 0.87172735
-0.15327843 -1.055333 0.8691982
-0.18887873 -1.0706162 0.86124635
-0.22546539 -1.061021 0.86826873
-0.1955076 -1.1055589 0.86495185
-0.1441806 -1.20586 0.84340537
-0.16649684 -1.2093128 0.84113842
-0.096229173 -1.2418131 0.81070012
-0.13323839 -1.217458 0.81543386
-0.18823829 -1.2312671 0.81909865
-0.24685577 -1.2366987 0.83214122
-0.30307436 -1.2299666 0.81829679
-0.35750049 -1.2291311 0.81887919
-0.39847267 -1.2406621 0.79849166
-0.088308387 -1.2782296 0.8038156
-0.12283314 -1.2950759 0.80927056
-0.18950333 -1.2909738 0.80583215
-0.24738392 -1.2797399 0.82338178
-0.30386221 -1.2889138 0.80393535
-0.3595185 -1.2992749 0.81367224
-0.40977135 -1.2868239 0.80056733
-0.44374368 -1.3031898 0.77774173
-0.13950272 -1.3201452 0.79267275
-0.36880815 -1.3173636 0.79543394
-0.41107759 -1.3203609 0.78391224
0.39310646 -0.23891956 1.045139
0.37938467 -0.2390466 1.0438895
0.44484013 -0.28022975 1.0409927
0.41427076 -0.2645838 1.0425559
0.37568456 -0.26600093 1.0451529
0.44477224 -0.30004236 1.0378292
0.42163831 -0.30354145 1.0342646
0.39324471 -0.38689008 1.044143
0.36576971 -0.38592076 1.0430981
0.39656621 -0.43193015 1.0333683
0.35687968 -0.4310649 1.0259111
0.39913929 -0.48485649 1.0177158
0.35326329 -0.48174512 1.004287
0.32865709 -0.50676417 1.0160083
0.39945257 -0.53849983 1.0008967
0.35822284 -0.53460813 0.97712195
0.32438093 -0.5386551 0.99923056
0.39869064 -0.59348714 0.98777544
0.37560543 -0.58192831 0.96259195
0.31951621 -0.59153545 0.98005009
0.1859284 -0.61026704 0.98225629
0.13342431 -0.60090303 0.98400474
0.079466403 -0.5957337 0.98220462
0.024058834 -0.59202635 0.98392326
-0.033255577 -0.58991849 0.98651516
-0.083679937 -0.58852494 0.98574167
-0.13354 -0.58751142 0.9853617
-0.18908715 -0.58797413 0.98555386
-0.24433768 -0.58775413 0.98501223
-0.29915991 -0.58743048 0.98688209
-0.35738984 -0.58762681 0.98485124
-0.41343096 -0.58775872 0.98609006
-0.46525687 -0.58920503 0.98452908
-0.52354574 -0.59780693 0.9830094
-0.55895942 -0.6124711 0.98349977
0.39202225 -0.64399981 0.97304481
0.36068037 -0.66091406 0.99316794
0.31580266 -0.64458162 0.97542137
0.23662774 -0.64882714 0.97417963
0.21273221 -0.62237471 0.97023946
0.12687275 -0.67164558 0.98701686
0.07689704 -0.66526842 0.97516042
0.022921622 -0.66119385 0.97035629
-0.030173535 -0.65778434 0.97212678
-0.083356723 -0.65666246 0.97086656
-0.13200794 -0.65507579 0.97742963
-0.19078186 -0.65353847 0.9779731
-0.24596705 -0.65326834 0.97816652
-0.30294925 -0.65759671 0.97909415
-0.35237584 -0.65417123 0.97627366
-0.41203225 -0.64926147 0.97327095
-0.46609664 -0.64961815 0.97228116
-0.52276379 -0.65367246 0.97369307
-0.57509637 -0.6501199 0.9727838
0.35815307 -0.6877107 0.96136647
0.31835642 -0.69114679 0.95739007
0.24282254 -0.70412707 0.9651655
0.18494987 -0.69614542 0.96713167
0.14126527 -0.69401962 0.96428573
0.092929393 -0.67068219 0.95027798
-0.20455486 -0.71928436 0.96877831
-0.24866588 -0.70638949 0.96372634
-0.29881445 -0.69274932 0.96397787
-0.3333573 -0.68181634 0.98409224
-0.54295212 -0.71280026 0.96903604
-0.56836516 -0.70113504 0.96871996
0.24635334 -0.72397435 0.9380483
0.17587976 -0.73871684 0.95317018
0.14301102 -0.73966956 0.95682275
-0.20448202 -0.74928206 0.95087397
-0.22769421 -0.74281502 0.94704461
-0.53959012 -0.73580724 0.95274442
-0.56242758 -0.73785943 0.9526487
-0.20828325 -0.80435377 0.9305622
-0.22983773 -0.81614488 0.93863499
-0.13235252 -0.86857414 0.91605306
-0.19959046 -0.86559272 0.92157543
-0.24125271 -0.86410522 0.94375294
-0.1302409 -0.92015612 0.91842312
-0.195565 -0.92070311 0.92478085
-0.24967833 -0.92042691 0.92852354
-0.12647527 -0.97326648 0.91735709
-0.19427444 -0.97496212 0.92056501
-0.25276569 -0.97605062 0.91766399
-0.1326095 -1.0281028 0.91140455
-0.18836598 -1.0270035 0.92406476
-0.25317407 -1.0266824 0.90564603
-0.13064453 -1.0750226 0.89600331
-0.24426216 -1.0763088 0.89365256
-0.13807395 -1.1296885 0.89015323
-0.18938515 -1.1313065 0.86663812
-0.24178386 -1.1305844 0.88868266
-0.0982306 -1.209499 0.89465451
-0.13535596 -1.189882 0.88089108
-0.18901494 -1.1862264 0.8651371
-0.24428047 -1.1875981 0.8798247
-0.29686692 -1.20375 0.87440258
-0.05491522 -1.2500373 0.89396983
-0.083546162 -1.2411792 0.87357801
-0.13069272 -1.2346199 0.86664665
-0.18585202 -1.2631971 0.88800162
-0.24584343 -1.2191412 0.85490298
-0.3172051 -1.2401348 0.88061076
-0.34061503 -1.2441758 0.85436618
-0.087638393 -1.2763495 0.86746454
-0.1402881 -1.2886463 0.85807699
-0.18539138 -1.3044804 0.86585021
-0.24596354 -1.3043702 0.85566199
-0.30515558 -1.301142 0.86635673
-0.35105288 -1.2939379 0.84897655
-0.041660585 0.18986934 1.2033356
-0.082811192 0.19507653 1.2030576
-0.12945148 0.19341113 1.2035542
-0.17207561 0.18514805 1.204424
0.0087843388 0.14331169 1.1945399
-0.029503331 0.15495692 1.192831
-0.082811207 0.15377034 1.1896046
-0.13533367 0.15566105 1.1921771
-0.1869313 0.15087022 1.1952535
-0.22675067 0.1389896 1.1963217
0.021858435 0.098057315 1.1836859
-0.034039449 0.097355723 1.1749676
-0.079750672 0.10019568 1.1744969
-0.13302243 0.099081919 1.1784731
-0.19196644 0.098620161 1.1841352
-0.23065604 0.098328352 1.1881018
0.059270132 0.034649014 1.1754063
0.02734234 0.045038372 1.1706067
-0.026945677 0.045622736 1.1635456
-0.083577864 0.045928001 1.1646426
-0.13302241 0.044008508 1.1695249
-0.1887994 0.043222412 1.1754164
-0.22414726 0.045987368 1.1797217
0.064696006 -0.014929384 1.1652517
0.023191126 -0.010594234 1.1579082
-0.032476183 -0.00863415 1.1545489
-0.078856722 -0.0096429288 1.1566442
-0.13531849 -0.0124823 1.161476
-0.18565069 -0.01007247 1.1668909
0.074249908 -0.067237154 1.1544505
0.019360861 -0.064271599 1.1462709
-0.035610873 -0.063643292 1.1450834
-0.081491254 -0.06504865 1.148508
-0.13632369 -0.06651029 1.1545424
-0.18028034 -0.065462992 1.1591372
0.079016037 -0.12263233 1.1438524
0.021596752 -0.11809681 1.1361728
-0.030834557 -0.11824337 1.1367553
-0.083826303 -0.12215262 1.1418965
-0.12823047 -0.11837265 1.1479743
-0.1664969 -0.10058013 1.1541874
0.081409387 -0.17619413 1.1348553
0.023191141 -0.17536481 1.1285138
-0.034228794 -0.17740896 1.1308115
-0.08235307 -0.17448065 1.137061
-0.11349543 -0.16373745 1.1428915
0.39074269 -0.24733756 1.0868952
0.37859395 -0.24720141 1.0930662
0.07733731 -0.23402056 1.1263214
0.021834135 -0.23265876 1.1237824
-0.030269319 -0.22919497 1.1277659
-0.07351286 -0.21777281 1.1334103
0.44418174 -0.28889406 1.0904537
0.41706538 -0.2633273 1.101505
0.36525127 -0.27540067 1.0977352
0.069063388 -0.27044401 1.1229424
0.025670731 -0.27152175 1.1222206
-0.015862208 -0.26529893 1.124495
0.44601044 -0.31525311 1.0938121
0.4185499 -0.32527265 1.0769037
0.35976288 -0.32803416 1.0812589
0.44182888 -0.36907279 1.1025908
0.4218623 -0.37924954 1.0736415
0.34768289 -0.37677801 1.0749105
0.42007732 -0.43994454 1.069533
0.33867791 -0.43710887 1.0664463
0.4099595 -0.48954403 1.0596867
0.34982878 -0.49215087 1.0671546
0.32980147 -0.50966763 1.0324743
0.40561262 -0.54317701 1.0395031
0.35508391 -0.54627681 1.0509155
0.32609278 -0.54749137 1.0299563
0.012033064 -0.57622153 1.066065
-0.0363186 -0.57421917 1.0643859
-0.082481444 -0.57341778 1.0630368
-0.1330224 -0.57206136 1.0616006
-0.18881278 -0.57201606 1.0614952
-0.24460359 -0.57143521 1.060855
-0.30039406 -0.57166332 1.0612221
-0.35618481 -0.57217556 1.061623
-0.41197526 -0.57253218 1.0619932
-0.45517248 -0.57313979 1.0675172
0.39696917 -0.59493625 1.0210857
0.35699704 -0.5982886 1.0259724
0.32515794 -0.59255481 1.016399
0.19331025 -0.60968781 1.0384289
0.13528867 -0.59173656 1.0411251
0.080006912 -0.58571589 1.0417757
0.025239319 -0.58343828 1.0353535
-0.029925214 -0.58056808 1.034725
-0.082811147 -0.57961512 1.032845
-0.13302238 -0.5789094 1.0324676
-0.1900872 -0.57861853 1.0322814
-0.24424322 -0.57818407 1.0319231
-0.30039403 -0.57907242 1.0324583
-0.35615909 -0.57892412 1.0323033
-0.41197526 -0.57952136 1.0327783
-0.47016165 -0.58195174 1.0392662
-0.52297759 -0.59222388 1.04301
-0.55760342 -0.61818308 1.0345867
0.35421395 -0.63354576 1.0093845
0.2301553 -0.65460527 1.027377
0.1921922 -0.67624152 1.0330944
0.134157 -0.66758287 1.0291398
0.080009654 -0.65844715 1.0303513
0.027115474 -0.65214962 1.0292542
-0.029555358 -0.64743543 1.0285181
-0.081137449 -0.64699674 1.0241833
-0.13252138 -0.64462149 1.0286366
-0.19129939 -0.64351821 1.0313262
-0.24165013 -0.64349908 1.0325317
-0.30191427 -0.65671539 1.0334978
-0.35000721 -0.65156567 1.0337672
-0.41188312 -0.63957018 1.0359687
-0.46607447 -0.64027345 1.037375
-0.52725863 -0.64706743 1.0314192
-0.5700047 -0.66015214 1.0291357
0.23228635 -0.69656909 1.0161254
0.18379712 -0.70665079 1.0135866
0.13747329 -0.70912015 1.0217657
-0.19600002 -0.72467756 1.0165242
-0.24427494 -0.70799434 1.0201596
-0.29954982 -0.69565529 1.0201946
-0.33322817 -0.68341488 1.005615
-0.53931004 -0.71820706 1.0194554
-0.56754708 -0.70864975 1.0167085
0.16873726 -0.74033767 0.99984896
0.15058388 -0.73919088 0.99670208
-0.19636104 -0.77210754 1.0274072
-0.22228768 -0.73376322 0.99296016
-0.54587317 -0.73453033 0.99282497
-0.23687853 -0.88912338 0.96624064
-0.24342158 -0.93232262 0.9686861
-0.24697283 -0.98619372 0.966887
-0.18595749 -1.0524318 0.93839461
-0.24491218 -1.0363731 0.96197253
-0.14377782 -1.0859357 0.93538362
-0.19003353 -1.0843619 0.94981796
-0.24042128 -1.0829917 0.94908357
-0.13646291 -1.1437424 0.94004524
-0.19038425 -1.1396542 0.95490444
-0.24502766 -1.1419638 0.94808137
0.33561829 -1.2286687 0.95102084
0.29966444 -1.2231661 0.95330167
0.24538513 -1.2206337 0.94948804
0.189255 -1.2186096 0.9458223
0.1343282 -1.2131815 0.94616091
0.078233734 -1.2123331 0.9408567
0.023653161 -1.2100726 0.9379859
-0.033963062 -1.2070282 0.93422639
-0.084550954 -1.195219 0.93130076
-0.11765786 -1.1795226 0.93601692
-0.20254663 -1.202619 0.95233685
-0.25172332 -1.1867815 0.93839872
-0.29711196 -1.2025584 0.93732166
0.39130834 -1.2531582 0.9466663
0.3575393 -1.2524254 0.94218969
0.3023445 -1.2531738 0.93506747
0.2458007 -1.250532 0.92984605
0.19032124 -1.2514184 0.92402649
0.13351719 -1.247942 0.91803163
0.079696171 -1.2494407 0.91173005
0.025420843 -1.2456506 0.90609604
-0.029128807 -1.2460891 0.90259075
-0.061306112 -1.2236001 0.90467441
-0.14811939 -1.2614055 0.92963326
-0.18646957 -1.243149 0.92116606
-0.2444509 -1.2491236 0.91976315
-0.30270749 -1.247393 0.92366087
0.34513578 -1.3057944 0.93728173
0.30745035 -1.3083287 0.93590629
0.24470346 -1.2918392 0.93470562
0.1905629 -1.2927732 0.93094909
0.13539355 -1.292207 0.92568326
0.078981802 -1.2935454 0.92305964
0.021958109 -1.2936952 0.91996884
-0.0340329 -1.2971088 0.91756618
-0.080830775 -1.294863 0.91393548
-0.12659334 -1.2915622 0.91450089
-0.19710222 -1.2980628 0.90022802
-0.24491823 -1.295592 0.90144789
-0.28130782 -1.2875891 0.89274359
0.34557506 -1.3642546 0.92101979
0.3035911 -1.3602054 0.91789234
0.34419581 -1.4030545 0.91830438
0.31320268 -1.3977573 0.91474307
0.00087491603 0.28186333 1.2740256
-0.034414962 0.30046108 1.267687
-0.083351091 0.31068304 1.2661889
-0.13264219 0.31213126 1.2669125
-0.1881239 0.309093 1.2665486
-0.24473031 0.30349827 1.2707132
-0.29891753 0.29439443 1.2735648
-0.33758843 0.28495818 1.275983
0.017951351 0.24896239 1.255004
-0.030795811 0.25977021 1.2373052
-0.0834269 0.25712493 1.230494
-0.13287397 0.25790018 1.2313954
-0.19044431 0.25916672 1.2363515
-0.24353133 0.25734109 1.2429914
-0.30054462 0.25600144 1.2515471
-0.35622042 0.25372568 1.2620709
-0.40800646 0.24189574 1.266457
0.061349917 0.19093452 1.2531852
0.026379716 0.20394672 1.2298385
-0.026975228 0.21730255 1.2152874
-0.082811192 0.22312284 1.2139577
-0.13866386 0.2227484 1.2152313
-0.19080305 0.20975216 1.214923
-0.24444969 0.2046351 1.2195073
-0.30219373 0.20402546 1.2276844
-0.35733849 0.20178904 1.2368493
-0.41206396 0.20014082 1.2482803
-0.46101162 0.19525501 1.2578037
0.071794905 0.14465386 1.2336285
0.03505858 0.15533668 1.2085153
-0.21112843 0.17376091 1.2047464
-0.25283179 0.15610856 1.2045231
-0.2998445 0.14941858 1.2097316
-0.35426769 0.14799266 1.2183242
-0.40966687 0.1466805 1.2288418
-0.46731907 0.14508075 1.2423788
-0.50316727 0.1285086 1.2475982
0.08167693 0.091802821 1.2155948
0.047503058 0.10959199 1.195976
-0.25845793 0.0942211 1.1922711
-0.29721421 0.096550331 1.1975946
-0.35653025 0.094091296 1.2066489
-0.41498128 0.09277457 1.216459
-0.47107837 0.090444773 1.2265741
-0.51638824 0.087662846 1.2383976
0.11546624 0.031683609 1.2223767
0.088032603 0.042541072 1.1961291
-0.25106359 0.040482253 1.1827589
-0.29656237 0.041127101 1.1878014
-0.35726175 0.039315775 1.1961386
-0.41197529 0.038126528 1.202883
-0.46483448 0.036994636 1.2116119
-0.5221892 0.033374742 1.2251978
0.12385643 -0.020851597 1.2041943
0.093427189 -0.010537982 1.179973
-0.21112841 -0.034910277 1.1672944
-0.24716157 -0.01548335 1.173532
-0.29732934 -0.012712806 1.1790384
-0.35791779 -0.015648633 1.1869267
-0.41197532 -0.016688481 1.1924703
-0.46579099 -0.01859279 1.1999729
-0.52381706 -0.018383265 1.2129375
-0.55498207 -0.029720455 1.22048
0.13254607 -0.073741257 1.189274
0.10164058 -0.062402859 1.166191
-0.20694438 -0.072265998 1.1622833
-0.24558792 -0.068511859 1.16658
-0.30149654 -0.070683569 1.1724622
-0.35350457 -0.070426494 1.179148
-0.41197529 -0.071977705 1.1847448
-0.46283966 -0.073777333 1.1904598
-0.52241945 -0.074910656 1.2013781
-0.5596469 -0.07823588 1.2112305
0.13615641 -0.12756762 1.1759009
0.101298 -0.10625259 1.1542313
-0.1516197 -0.1412304 1.1491144
-0.19220836 -0.12553404 1.1552852
-0.24254078 -0.12170426 1.1609668
-0.30209732 -0.1246333 1.1678433
-0.3561849 -0.12664041 1.1734679
-0.41453993 -0.12734598 1.1784053
-0.46776572 -0.1285421 1.1842529
-0.51955056 -0.12951013 1.1928306
-0.55935466 -0.13212067 1.2017367
0.16698729 -0.20496406 1.1892869
0.1391921 -0.18020408 1.163589
-0.09954869 -0.19963883 1.1376683
-0.13866773 -0.1824256 1.1444514
-0.18604946 -0.17758523 1.1511294
-0.24578744 -0.18277074 1.1569211
-0.29777563 -0.17883818 1.1634021
-0.35596091 -0.18375379 1.1688685
-0.41028154 -0.18075058 1.1727623
-0.4710381 -0.18481295 1.1787337
-0.52646464 -0.18707342 1.187024
-0.55556339 -0.1746414 1.1949651
0.16903207 -0.24120072 1.1777433
0.13874823 -0.23481226 1.149087
-0.04933659 -0.25477216 1.1290585
-0.089298815 -0.2402533 1.1345836
-0.13331038 -0.23246387 1.1414077
-0.18911541 -0.23440129 1.1493924
-0.24576682 -0.23687756 1.1545246
-0.3004151 -0.23512273 1.1610602
-0.3561849 -0.23843278 1.1649034
-0.41458079 -0.24071795 1.1677969
-0.46590558 -0.23818257 1.1743695
-0.51866764 -0.23873219 1.1817726
0.44303334 -0.29958552 1.1261747
0.41036764 -0.28902572 1.1332016
0.37297958 -0.28741074 1.1340928
0.16951664 -0.28886706 1.1647638
0.1362635 -0.28396034 1.1408746
0.088987581 -0.29137349 1.1251211
0.019471787 -0.29705179 1.1225156
-0.033803165 -0.2870428 1.1273909
-0.082090646 -0.282002 1.1337723
-0.13213311 -0.2843039 1.140969
-0.19068997 -0.28966871 1.1480626
-0.24538417 -0.28549889 1.153383
-0.30087712 -0.29192165 1.1598861
-0.35669684 -0.28680989 1.163354
-0.40973574 -0.28571916 1.1666496
-0.46783364 -0.29106683 1.172238
-0.50347167 -0.27947354 1.1771157
0.44482607 -0.33255112 1.1203619
0.41628414 -0.33480835 1.1376576
0.3658267 -0.33549678 1.1340066
0.16895439 -0.33412778 1.1623294
0.13720898 -0.33791602 1.1414837
0.079897873 -0.33473003 1.1256496
0.022145089 -0.33247739 1.1239903
-0.031307969 -0.33577913 1.1293337
-0.083361514 -0.33491838 1.1355087
-0.13280037 -0.33634537 1.1423951
-0.18759844 -0.34000131 1.1494254
-0.24441354 -0.33711165 1.1545849
-0.30126673 -0.34401518 1.1602026
-0.35672602 -0.34082538 1.1635225
-0.41197026 -0.330771 1.1663448
-0.45381802 -0.32149214 1.1700935
0.44121093 -0.36551666 1.1145492
0.41378704 -0.38816345 1.1215025
0.36363068 -0.39007419 1.1222235
0.13151444 -0.3907547 1.147668
0.079683736 -0.39303786 1.1342334
0.02434827 -0.3893806 1.129588
-0.033565212 -0.39295173 1.1345198
-0.081820928 -0.39389712 1.1391186
-0.13428378 -0.39392829 1.1468388
-0.1887138 -0.39712715 1.1519176
-0.24213921 -0.38548103 1.1558131
-0.29146776 -0.37595487 1.1608964
0.39810956 -0.43395111 1.1042442
0.36590677 -0.43967459 1.1029285
0.112456 -0.42860788 1.1510708
0.075918898 -0.43713707 1.1443864
0.023446718 -0.44209617 1.1406507
-0.02958633 -0.44167736 1.1417587
-0.081156768 -0.43997246 1.1452767
-0.12527052 -0.42973724 1.1495309
-0.16649687 -0.4287501 1.151877
0.38024989 -0.47437462 1.0893406
0.12931457 -0.57825613 1.1092941
0.077826075 -0.57410228 1.1019943
0.021842653 -0.56930578 1.1007948
-0.031979319 -0.56452483 1.1030797
-0.08281114 -0.56417882 1.1039915
-0.13330407 -0.56221908 1.1027471
-0.18881279 -0.56085676 1.1018448
-0.24460362 -0.56051636 1.1018054
-0.300394 -0.55823237 1.1050158
-0.35618484 -0.55872381 1.103582
-0.41243076 -0.5610441 1.1021091
-0.46791112 -0.56819302 1.1025736
-0.50768185 -0.57816732 1.1018727
0.18874067 -0.61135679 1.0950963
0.14478484 -0.58634961 1.0845621
0.07898178 -0.62044877 1.1009881
0.026374202 -0.63592374 1.1061902
-0.036635634 -0.63408625 1.1014508
-0.08625067 -0.63221282 1.0961059
-0.13368949 -0.63139278 1.0937111
-0.19124505 -0.63003743 1.0972
-0.24532351 -0.62926769 1.0942507
-0.29999548 -0.62882555 1.0934672
-0.3561849 -0.62948102 1.0926927
-0.41245502 -0.629251 1.0932168
-0.46590757 -0.63223714 1.0927281
-0.52919108 -0.61387515 1.0962889
-0.55644882 -0.63161534 1.0868068
0.22437721 -0.67113614 1.0690743
0.19999975 -0.66711968 1.0874877
0.13489723 -0.66539955 1.085445
0.084600456 -0.66023606 1.084017
0.025914494 -0.64263499 1.0777863
-0.032659564 -0.63968569 1.0706954
-0.079980649 -0.63929623 1.0653154
-0.1358121 -0.63836819 1.0642023
-0.1832339 -0.637348 1.0647165
-0.24993058 -0.68494797 1.0818429
-0.30640793 -0.67285585 1.0860198
-0.33994371 -0.66376555 1.0849576
-0.4845027 -0.63622224 1.0668166
-0.53214765 -0.65604818 1.0814126
-0.56725442 -0.66341853 1.0811362
0.22403723 -0.68995857 1.0573413
0.14079753 -0.71537447 1.0708699
0.10363644 -0.70544332 1.0875851
-0.16367561 -0.72393405 1.0910107
-0.18825981 -0.72417486 1.07411
-0.24107404 -0.71697307 1.0751497
-0.29271516 -0.69780403 1.0740008
-0.5382449 -0.71500134 1.0730274
-0.56377882 -0.70892519 1.0755162
-0.15650854 -0.77989721 1.0666374
-0.18152055 -0.77057439 1.061888
-0.23796122 -0.77519059 1.0599393
-0.19050446 -0.81025553 1.0592058
-0.23409921 -0.80983591 1.0625904
-0.2446043 -1.0458534 0.98899913
-0.15558127 -1.1722571 0.98707396
-0.17477785 -1.1627444 0.99314797
-0.25576171 -1.1722976 0.97475863
-0.2948145 -1.183872 1.0155768
0.39404324 -1.2300808 0.9942171
0.35886532 -1.2252946 0.98664612
0.30286396 -1.2233782 0.98806179
0.24500839 -1.2188843 0.98513609
0.19006602 -1.2176547 0.98265851
0.13477235 -1.2183336 0.98461753
0.077928334 -1.2180552 0.98418283
0.023191221 -1.2178047 0.98333526
-0.034099068 -1.2148862 0.98382246
-0.083659373 -1.2101126 0.9926008
-0.13169461 -1.205981 0.99568194
-0.1832172 -1.2029387 0.98398805
-0.24128883 -1.2059915 0.99208641
-0.30282274 -1.1903096 0.98692042
-0.3520709 -1.2079643 0.99839091
-0.38775808 -1.2250401 1.0092314
0.40764406 -1.2587457 0.97718877
0.36537305 -1.2420863 1.0095147
0.29842469 -1.2420224 1.0091522
0.24433869 -1.2415468 1.0052974
0.19425467 -1.2416315 1.0048605
0.13200751 -1.2644383 1.0012445
0.079390571 -1.2667021 0.9995032
0.025636565 -1.2631282 0.99687451
-0.034055758 -1.2632425 0.98856282
-0.084115565 -1.2613205 0.98287934
-0.1271468 -1.2511299 0.96667385
-0.16637748 -1.2335031 0.96139675
-0.26297092 -1.2397015 0.97205728
-0.29758275 -1.2644594 0.97970676
-0.35260454 -1.2561738 0.98603064
-0.3883127 -1.2415066 1.0062264
0.39681342 -1.3095012 0.98070407
0.36892492 -1.3142593 0.95334452
0.29205516 -1.3176291 0.94513124
0.24907342 -1.319102 0.96921647
0.18760484 -1.308081 0.97621256
0.13523875 -1.3063571 0.97258794
0.078686327 -1.3049949 0.96893656
0.024468636 -1.3065065 0.96307516
-0.030724041 -1.3051394 0.96130645
-0.084915735 -1.2990025 0.95864797
-0.11435582 -1.2924742 0.95109016
0.38735372 -1.3729956 0.97719282
0.37318107 -1.3665559 0.95115894
0.28288987 -1.3717164 0.94041508
0.26688138 -1.3688476 0.96372938
0.3685638 -1.3996868 0.93946391
0.29616362 -1.399413 0.93791115
-0.050452355 0.3274183 1.3296503
-0.082804628 0.33577636 1.3173916
-0.13297279 0.3415508 1.317855
-0.18885398 0.34177899 1.3184313
-0.24414831 0.33814853 1.3176069
-0.30225587 0.33514947 1.3250583
-0.34796426 0.33041722 1.3301269
-0.38965821 0.3237471 1.3380681
0.0084615387 0.28516856 1.3114558
-0.025272965 0.31080836 1.3101271
-0.060835209 0.32776776 1.2951851
-0.20554972 0.32912409 1.287493
-0.25086874 0.32576966 1.2918963
-0.3036193 0.31894529 1.2955999
-0.35903648 0.30736539 1.2989969
-0.41109791 0.30236453 1.3115942
-0.46446252 0.28872871 1.3188009
-0.50127506 0.27633488 1.3300271
0.056201525 0.22271831 1.2998574
0.034241337 0.25076246 1.3017665
-0.095438465 0.22779144 1.31987
-0.13180648 0.23261437 1.3206507
-0.18707116 0.22759362 1.3194156
-0.23519729 0.22240552 1.3203322
-0.37850079 0.27405387 1.2785268
-0.41798007 0.26448888 1.2814598
-0.46837944 0.25042996 1.2876385
-0.51903951 0.24296428 1.3100088
0.066865318 0.18960758 1.289786
0.05055508 0.19498956 1.315678
-0.052152678 0.17466207 1.3114573
-0.080513157 0.18895897 1.3059837
-0.13511699 0.19366163 1.2999179
-0.18591018 0.19049418 1.3003829
-0.24602315 0.18979688 1.3048642
-0.30030113 0.18543552 1.3104308
-0.35410142 0.16822129 1.3114411
-0.4837499 0.20863956 1.2705603
-0.52497691 0.19453536 1.2827754
-0.56118202 0.18341978 1.3045862
0.08314503 0.1378116 1.2858297
-0.037419092 0.1301311 1.2974355
-0.080100693 0.13741893 1.2844448
-0.12758581 0.14301789 1.2793314
-0.19097315 0.14078295 1.28009
-0.24121319 0.13611874 1.2842469
-0.30283883 0.13695315 1.2912564
-0.35481691 0.13304906 1.2966244
-0.40486142 0.1320852 1.3034894
-0.44544902 0.11106353 1.3032928
-0.52921361 0.14324957 1.2635498
-0.57360774 0.13496011 1.2881452
0.11257957 0.064818785 1.2582351
0.098972224 0.086174577 1.2770996
0.0011333087 0.06058006 1.2916842
-0.026115498 0.08044447 1.2824848
-0.084370628 0.081478164 1.2643855
-0.13373385 0.082880691 1.2608631
-0.1893079 0.08494322 1.2647314
-0.24731053 0.085212275 1.2690731
-0.29799801 0.080160886 1.273349
-0.35935304 0.082956851 1.2808015
-0.41384438 0.081113651 1.2896652
-0.45393652 0.069060802 1.2936021
-0.54256988 0.092431054 1.250479
-0.58138072 0.08174403 1.2709973
-0.60572964 0.056586906 1.2909606
0.11908464 0.024933368 1.2612367
0.10438557 0.040565565 1.2863373
0.0078924308 0.022088453 1.2787824
-0.028275792 0.029897347 1.2626114
-0.079863086 0.032765135 1.2493784
-0.13395226 0.031129196 1.2479218
-0.18774721 0.032870457 1.2525365
-0.24553347 0.029111385 1.256688
-0.30317721 0.027831271 1.2612039
-0.35618487 0.027265161 1.2671584
-0.41032782 0.02702108 1.2744095
-0.46592784 0.021763459 1.2832315
-0.54587317 0.05448781 1.2386127
-0.58186895 0.029832572 1.2520311
-0.61100054 0.016434342 1.2788594
0.1323407 -0.025976226 1.2555219
0.018944735 -0.030347347 1.264806
-0.029811971 -0.021905214 1.2451168
-0.082811169 -0.029947534 1.2355378
-0.13537152 -0.021112084 1.2378495
-0.18580288 -0.02656728 1.2425629
-0.24508876 -0.027758762 1.2468717
-0.30349553 -0.025815621 1.2527279
-0.35448602 -0.030692145 1.2558323
-0.41219452 -0.027648062 1.2623971
-0.47126323 -0.031329155 1.271305
-0.50123978 -0.042734712 1.2759291
-0.58489269 -0.023739994 1.2383485
-0.61337811 -0.031213984 1.2641388
0.14504042 -0.079869479 1.2458528
0.10129801 -0.086602241 1.2676848
0.028138479 -0.084483877 1.2526853
-0.032799482 -0.083004966 1.2287761
-0.084670901 -0.079401433 1.2268475
-0.13549602 -0.0775076 1.2298205
-0.18445462 -0.080487728 1.2344636
-0.24460363 -0.08153823 1.2389652
-0.29665768 -0.079270869 1.2443717
-0.35711464 -0.083231285 1.248567
-0.41093996 -0.084306076 1.2528893
-0.47184181 -0.087282643 1.2603683
-0.49821594 -0.083249122 1.2670275
-0.58993763 -0.079023942 1.2267507
-0.61838692 -0.085488737 1.2527306
0.14684623 -0.13544634 1.2411084
0.10861403 -0.13021907 1.2580216
0.03149353 -0.13456476 1.2399274
-0.02587761 -0.13467281 1.2198457
-0.083104804 -0.13564557 1.217775
-0.13154115 -0.13590556 1.2224851
-0.18936859 -0.13340637 1.2279041
-0.24579555 -0.1378175 1.2327983
-0.29862717 -0.13703817 1.2377214
-0.35851723 -0.14107727 1.240891
-0.41384062 -0.13536167 1.2476774
-0.47100192 -0.13984585 1.2521588
-0.50123978 -0.11972329 1.2627536
-0.59139442 -0.13326225 1.2168642
-0.62081683 -0.13868055 1.2417507
0.16888309 -0.19757436 1.2217947
0.15579322 -0.17760211 1.2346665
0.058811624 -0.18803644 1.2457021
0.033522196 -0.190883 1.2278749
-0.027077869 -0.19113016 1.2110534
-0.082378954 -0.18885827 1.2123072
-0.13350755 -0.19124027 1.2175469
-0.19016452 -0.19203043 1.2218732
-0.24762911 -0.18938892 1.2279382
-0.30107519 -0.19420266 1.2307806
-0.35052055 -0.19264075 1.2357286
-0.4135693 -0.19719228 1.2400645
-0.46076992 -0.1920304 1.2447901
-0.58419633 -0.18920241 1.2070565
-0.61974198 -0.19383518 1.2331074
0.17699642 -0.2504594 1.2129549
0.13471663 -0.26239091 1.2348074
0.064490728 -0.25129738 1.2315215
0.025183586 -0.24692589 1.2133852
-0.033758875 -0.23715791 1.2069263
-0.082894996 -0.24457879 1.209082
-0.13505624 -0.2489644 1.2133911
-0.18836094 -0.24601865 1.2188661
-0.24504675 -0.24931291 1.2232879
-0.29806891 -0.24325158 1.2276788
-0.35724527 -0.25103831 1.2314502
-0.40978885 -0.24514347 1.2359072
-0.44544899 -0.21906118 1.2423564
-0.54215342 -0.25176564 1.1869711
-0.57926315 -0.24502233 1.2016091
-0.61800158 -0.24775606 1.2298638
0.1809656 -0.29443124 1.2030501
0.13806914 -0.29833239 1.2284838
0.067220353 -0.29993841 1.2245628
0.024861956 -0.29650348 1.2088894
-0.033827089 -0.29569831 1.2044936
-0.082010955 -0.29358804 1.2089974
-0.13482085 -0.30118817 1.2120005
-0.18834676 -0.29679242 1.2180847
-0.24411844 -0.29853618 1.2222935
-0.29706389 -0.30035362 1.2250878
-0.35584554 -0.28857917 1.230008
-0.49008235 -0.30808079 1.1743532
-0.53076392 -0.29447994 1.1825399
-0.58127671 -0.29679066 1.2007631
-0.61294943 -0.29612854 1.2228631
0.17926672 -0.34818673 1.1950597
0.14031975 -0.34985727 1.217649
0.063079193 -0.34053272 1.2191322
0.030167025 -0.35025606 1.2098204
-0.033434767 -0.35124341 1.2055464
-0.082218379 -0.3473525 1.2093799
-0.13300183 -0.35197926 1.2128983
-0.18811794 -0.34573516 1.2166364
-0.24061041 -0.33453879 1.220372
-0.28923583 -0.32852954 1.2260708
-0.41615963 -0.3592732 1.1674925
-0.46965665 -0.34868893 1.1724458
-0.52365428 -0.34337223 1.180784
-0.57883835 -0.34571907 1.1996672
-0.61089736 -0.34641516 1.2205558
0.17032789 -0.39492059 1.1907305
0.15108329 -0.40696055 1.1805944
0.0093287379 -0.38795459 1.2112345
-0.035174135 -0.39216101 1.2095048
-0.079787768 -0.38680995 1.2106979
-0.11089394 -0.38304147 1.213352
-0.25295612 -0.41346902 1.1601808
-0.30299717 -0.4037348 1.1630791
-0.35664293 -0.39751557 1.1650441
-0.4122408 -0.394187 1.1685829
-0.468624 -0.3996073 1.1725597
-0.52080041 -0.40070939 1.1777871
-0.57934153 -0.40344927 1.1964452
-0.60603815 -0.38295692 1.2134571
0.1347789 -0.45461401 1.1771971
0.085276686 -0.46531633 1.1577888
0.02631999 -0.47379816 1.1510259
-0.035174135 -0.47210303 1.1504059
-0.08445593 -0.46774131 1.1524222
-0.13395223 -0.4585484 1.1549522
-0.18959607 -0.45581752 1.1582475
-0.2428043 -0.45454109 1.1634117
-0.30119982 -0.45575869 1.1678364
-0.35618484 -0.4575035 1.1698313
-0.41166714 -0.4560737 1.1703533
-0.46649793 -0.45601463 1.1702321
-0.52612424 -0.45972872 1.1798537
-0.56507415 -0.45044482 1.1958402
0.11280978 -0.49298096 1.1930966
0.076352686 -0.50041509 1.1765542
0.02469838 -0.511778 1.1701429
-0.03170732 -0.50847554 1.1634731
-0.082257077 -0.50828278 1.1646378
-0.13258603 -0.50668472 1.1667017
-0.18881278 -0.51012772 1.1692729
-0.24408102 -0.51282096 1.170854
-0.30005816 -0.51424062 1.175133
-0.35738555 -0.5158565 1.178079
-0.41275495 -0.51615661 1.1802167
-0.46729884 -0.51020795 1.182353
-0.51623571 -0.49751955 1.188669
0.13278656 -0.58126342 1.1544935
0.080576554 -0.56450725 1.1593459
0.02637095 -0.55443192 1.1565601
-0.033321425 -0.5507443 1.1527437
-0.084231742 -0.5513705 1.1526195
-0.13515002 -0.549061 1.1515412
-0.18851888 -0.54684305 1.1509941
-0.24460359 -0.54691356 1.1451762
-0.30365685 -0.54501176 1.1521499
-0.35524085 -0.54659772 1.1531385
-0.41386139 -0.55007064 1.1563743
-0.46698058 -0.56758988 1.159719
-0.50504136 -0.58490974 1.1507199
0.18196556 -0.62344468 1.1471125
0.13712245 -0.62766051 1.1550741
0.080428153 -0.63503635 1.1455659
0.021702683 -0.6275062 1.1473055
-0.033663239 -0.62335569 1.1505592
-0.082564577 -0.62036979 1.1481242
-0.13302472 -0.61673141 1.1523024
-0.19085595 -0.61561912 1.1498053
-0.24362987 -0.61454505 1.1503538
-0.30248055 -0.61690009 1.1491705
-0.35595036 -0.61616623 1.1506475
-0.41150969 -0.61613137 1.1502949
-0.46802267 -0.62293911 1.1484413
-0.52484202 -0.62205416 1.14703
0.19127229 -0.66530132 1.1399912
0.13718189 -0.66918284 1.1384956
0.092487536 -0.67692411 1.1357112
-0.21505378 -0.70230007 1.1533711
-0.2475774 -0.68998194 1.1380424
-0.30097771 -0.67939556 1.1367803
-0.34056121 -0.66284388 1.1396137
-0.43324202 -0.66166639 1.1611971
-0.46682516 -0.66590875 1.1536684
-0.54089737 -0.68582243 1.1446633
-0.56207669 -0.67598999 1.1304241
0.13920823 -0.72282952 1.1294339
0.10171647 -0.71169829 1.1321776
-0.2020431 -0.72232771 1.1245975
-0.23976547 -0.7200737 1.1254102
-0.27807844 -0.6992501 1.1123604
-0.53863442 -0.71097255 1.1223134
-0.55817765 -0.70694977 1.117987
-0.20337416 -0.79219049 1.0995182
-0.23682974 -0.78442311 1.1111803
-0.2074092 -0.81224597 1.0907409
-0.22507699 -0.8117817 1.0939054
