# .PCD v0.7 - Point Cloud Data file format
VERSION 0.7
FIELDS x y z
SIZE 4 4 4
TYPE F F F
COUNT 1 1 1
WIDTH 1460
HEIGHT 1
VIEWPOINT 0 0 0 1 0 0 0
POINTS 1460
DATA ascii
-0.73155934 -0.22596848 0.87705559
-0.77984029 -0.24069417 0.87015754
-0.81058508 -0.24696717 0.89195949
-0.73105991 -0.26538104 0.88536561
-0.7649495 -0.28122646 0.88484174
-1.2552265 -0.58297372 0.88568741
-1.3060763 -0.59137845 0.87089509
-1.3595772 -0.59852064 0.86772686
-1.4180678 -0.60633624 0.87006217
-1.4818068 -0.61820596 0.86864901
-1.5394256 -0.63537329 0.86758226
-1.5968701 -0.65241486 0.87839746
-1.6385618 -0.65225607 0.89170879
-1.0109571 -0.57531488 0.88650656
-1.0587611 -0.58005261 0.87108964
-1.1210696 -0.58067858 0.86979473
-1.1801575 -0.58269662 0.86906898
-1.2345198 -0.58842397 0.86313903
-1.2884728 -0.59621757 0.85135388
-1.4789006 -0.69145739 0.85101438
-1.5281031 -0.69132918 0.86906463
-1.5781987 -0.69312167 0.88643223
-0.93040961 -0.59646857 0.87470126
-0.98429763 -0.58625281 0.86526018
-1.0314981 -0.58933878 0.84977555
-1.3317108 -0.72210324 0.85743898
-1.3879595 -0.71724516 0.85883284
-1.4520051 -0.70981097 0.86326152
-1.4994282 -0.71498346 0.88109994
-0.91004854 -0.65227079 0.87186569
-0.95407087 -0.68653321 0.85068929
-1.0418974 -0.71158004 0.85957509
-1.0844767 -0.7128278 0.87084478
-1.1423781 -0.71336508 0.86146355
-1.2097561 -0.7216596 0.86417586
-1.2714306 -0.72458899 0.85531032
-1.3310019 -0.73984402 0.87521356
-1.3567766 -0.74377096 0.88032812
-0.9226172 -0.68516594 0.88947386
-0.96251428 -0.69905007 0.87756002
-1.0116068 -0.71094269 0.87604195
-1.2038559 -1.4762752 0.8730517
-1.2475671 -1.4778447 0.86837208
-1.296486 -1.5115676 0.87214708
-1.1938121 -1.5155038 0.87191761
-1.2138532 -1.5534046 0.8708322
-1.3227092 -1.5360783 0.87098134
-1.3527929 -1.5642072 0.8706336
-1.381639 -1.5905111 0.86167151
-1.2400553 -1.5840389 0.86873615
-1.2690593 -1.6214731 0.87024307
-1.2019886 -1.6845897 0.87256652
-1.2659329 -1.6816258 0.86570305
-1.296551 -1.6729504 0.88947392
-1.1969185 -1.6988753 0.89422846
-1.2565123 -1.7168276 0.88023919
-1.2977365 -1.7331284 0.86376572
-0.77774644 -0.14573038 0.95301855
-0.73234123 -0.1599555 0.92749637
-0.80042243 -0.16885889 0.92655063
-0.83426917 -0.20855036 0.93294483
-0.72193539 -0.22213058 0.92898554
-0.75592816 -0.24731077 0.95477831
-0.83761024 -0.25412109 0.92643464
-0.72687775 -0.27608043 0.91810316
-0.75406504 -0.30144346 0.92781866
-0.81176412 -0.30070722 0.9344418
-0.74969047 -0.33508366 0.94647533
-0.781353 -0.33779714 0.95301855
-1.5135443 -0.59086293 0.95301867
-1.5543805 -0.59736896 0.94599873
-1.6100045 -0.60721952 0.93743622
-1.665185 -0.61516351 0.93178457
-1.7196646 -0.63080102 0.94301772
-1.2106212 -0.5712136 0.95301867
-1.2399609 -0.57526624 0.92886502
-1.3028234 -0.57939339 0.92728627
-1.3635402 -0.58357418 0.92673868
-1.4219688 -0.58829635 0.92759478
-1.4829992 -0.59517944 0.92722684
-1.5453733 -0.60778558 0.91484803
-1.5971165 -0.62009132 0.90503103
-1.6618096 -0.66576648 0.90989798
-1.7080239 -0.67581916 0.93997455
-0.95218211 -0.56255245 0.94348758
-0.99612385 -0.56407845 0.9301964
-1.0601643 -0.56625175 0.92746043
-1.1236336 -0.56974721 0.92763186
-1.1792563 -0.57254034 0.92534953
-1.2192049 -0.57657743 0.90641719
-1.4912355 -0.67256981 0.90185279
-1.530664 -0.68090707 0.91499758
-1.5798168 -0.70465946 0.91845751
-1.629431 -0.71177828 0.93085569
-1.6892254 -0.71125263 0.94506723
-0.88759536 -0.58645654 0.9361679
-0.92768681 -0.57358253 0.92267311
-0.96723968 -0.57245302 0.90353936
-1.5844148 -0.73714668 0.92398971
-0.87269479 -0.63846296 0.93305176
-0.88792598 -0.65794933 0.90904915
-1.0234255 -0.70526648 0.92421657
-1.0631584 -0.71511191 0.90492463
-1.1344297 -0.72929442 0.90218186
-0.90841967 -0.68536496 0.93278509
-0.96076006 -0.70238018 0.92610568
-1.0091869 -0.7102192 0.91835684
-1.1997052 -1.4699451 0.92890584
-1.251894 -1.4758221 0.92796916
-1.296796 -1.5122178 0.92749673
-1.189514 -1.5157706 0.92676842
-1.2135321 -1.5543234 0.92760038
-1.3244632 -1.5365883 0.93150216
-1.349251 -1.5635539 0.92828971
-1.3886125 -1.5972188 0.90218192
-1.2388153 -1.5810668 0.92804068
-1.2775584 -1.6224773 0.92738014
-1.120545 -1.6651046 0.95328754
-1.2129545 -1.687968 0.93430406
-1.2596694 -1.6893083 0.92777145
-1.3016044 -1.6746871 0.92616397
-1.1354645 -1.6804274 0.94281626
-1.1864504 -1.6913526 0.92550653
-1.2476364 -1.7262144 0.90563476
-1.275178 -1.7461534 0.90218186
-0.76545614 -0.14250621 0.97841334
-0.78272241 -0.14679982 0.97587168
-0.72362912 -0.16127051 0.99268138
-0.79985565 -0.17289485 0.99709451
-0.8448059 -0.20389777 0.98689991
-0.87457824 -0.22980261 0.98991412
-0.73326224 -0.20512965 0.98377484
-0.78454715 -0.23120943 0.98069978
-0.82460523 -0.2502946 0.98526096
-0.86694342 -0.25827679 0.96917921
-0.76767582 -0.30073208 0.97829902
-0.81620681 -0.31014854 0.97761869
-1.7130969 -0.58254492 1.0165379
-0.74754137 -0.35544682 0.99233931
-0.78918105 -0.35579643 0.9956646
-1.4975988 -0.58146238 0.99334008
-1.5553585 -0.58328676 0.99293226
-1.6128412 -0.58771074 0.99046677
-1.6724864 -0.58998138 0.99083704
-1.7355525 -0.60875404 0.99116689
-1.7739109 -0.64004141 0.99830079
-0.74326128 -0.39184535 1.0166354
-1.205627 -0.57014525 0.99623954
-1.247483 -0.57250094 0.99134457
-1.3110788 -0.57524621 0.9901678
-1.3700526 -0.57775247 0.99059099
-1.4280452 -0.57951689 0.9905352
-1.4706815 -0.58253205 0.9784134
-1.735742 -0.67242074 0.98478448
-1.7508211 -0.68172866 0.97488678
-0.90614069 -0.55025548 1.0165379
-0.94082832 -0.55260539 0.99186045
-0.99658835 -0.55252051 0.99031305
-1.062088 -0.55794442 0.99129373
-1.1282794 -0.56420147 0.99101597
-1.1792132 -0.56829822 0.98953295
-1.6558524 -0.7370851 0.96529698
-1.6798819 -0.74267399 0.97422439
-1.7428662 -0.71694672 0.96570551
-0.87554616 -0.57185805 0.99223942
-0.91534364 -0.5583064 0.97439706
-0.8532877 -0.63659787 0.99084526
-0.87167197 -0.67402411 0.99906397
-0.89888495 -0.68846869 0.98791277
-0.95181906 -0.69951117 0.98861444
-1.1960777 -1.463279 0.99192768
-1.2511393 -1.4713182 0.99230218
-1.3005339 -1.5120186 0.99194825
-1.186592 -1.5145262 0.99270922
-1.2132316 -1.5523899 0.99276453
-1.3246156 -1.5365129 0.98017609
-1.3457099 -1.5574683 0.99148369
-1.2389578 -1.5808551 0.99018264
-1.2721926 -1.6191492 0.99112165
-1.1395046 -1.6689852 1.0097585
-1.195347 -1.6789836 0.99081033
-1.2653024 -1.6778488 0.98787832
-1.2949061 -1.669879 0.9707886
-1.0936617 -1.6669655 0.98243618
-1.126352 -1.6758655 0.9894551
-1.1681637 -1.6835223 0.97205937
-1.9036528 -0.23443854 1.0703846
-1.9388504 -0.25066605 1.0769945
-1.9021549 -0.2697745 1.0781338
-0.75935435 -0.14073201 1.0610162
-0.69698066 -0.1631756 1.0513033
-0.72745454 -0.16755852 1.047256
-0.79228657 -0.18243058 1.04866
-0.82270962 -0.20417258 1.0292025
-0.72523516 -0.1944202 1.0292459
-1.6856368 -0.5694117 1.0543083
-1.7392701 -0.58193702 1.0517813
-1.7792391 -0.59756827 1.0631343
-0.75384712 -0.36851829 1.0388303
-0.78708529 -0.38058612 1.0438821
-1.4521739 -0.57448173 1.0673704
-1.4918576 -0.57441688 1.0486413
-1.558251 -0.57288158 1.0487995
-1.6185489 -0.57226074 1.0487609
-1.6615049 -0.57507682 1.0384389
-1.7455477 -0.63530993 1.046991
-1.7821883 -0.62927812 1.0491661
-0.74325597 -0.40793297 1.0511513
-0.7724961 -0.41186696 1.0549122
-1.1977001 -0.56780756 1.0483081
-1.246547 -0.57105517 1.0495632
-1.31033 -0.57447994 1.0494781
-1.3681473 -0.57544863 1.0489461
-1.4242439 -0.57597053 1.0472353
-1.7710402 -0.66090059 1.054662
-0.90266585 -0.54464483 1.051423
-0.94215369 -0.54327238 1.0470858
-1.0020747 -0.54611242 1.0477669
-1.0609779 -0.55289268 1.0466312
-1.1251194 -0.56048721 1.0478525
-1.171697 -0.5656603 1.0483081
-0.86036336 -0.5651744 1.0483667
-0.83980274 -0.63284916 1.0474536
-0.86807895 -0.67485178 1.0494919
-0.90370435 -0.6962043 1.049479
-0.94622004 -0.70128 1.0496553
-1.1884624 -1.4584131 1.0500121
-1.2526562 -1.4692557 1.0473531
-1.3031303 -1.5135727 1.048308
-1.1822405 -1.5143487 1.0499545
-1.2147382 -1.5535588 1.048308
-1.3382788 -1.546483 1.046014
-1.2412208 -1.5801234 1.048308
-1.2725216 -1.6208026 1.047919
-1.0951679 -1.6584214 1.0576628
-1.1304855 -1.6636974 1.0488964
-1.2013752 -1.6756195 1.048871
-1.2611874 -1.670702 1.048713
-1.0882583 -1.6698656 1.0499779
-1.1149598 -1.6778035 1.0312138
-1.9095556 -0.1838932 1.1086227
-1.9657284 -0.19948059 1.1139716
-1.9950579 -0.2166743 1.1281025
-1.8890996 -0.22585019 1.106137
-1.9597245 -0.2442095 1.08737
-1.9976493 -0.25562838 1.1172099
-1.8939896 -0.2883181 1.1106647
-1.9371651 -0.30481368 1.1097583
-1.982797 -0.30459297 1.122664
-1.9132603 -0.32652941 1.1309109
-0.75246918 -0.13778774 1.1044357
-0.69397932 -0.15765721 1.1049404
-0.72586304 -0.17210428 1.1055508
-0.78467417 -0.17831665 1.1017033
-1.6380912 -0.55982459 1.1182028
-1.6795309 -0.55999255 1.1067456
-1.7433066 -0.57119668 1.1084859
-1.7873063 -0.59327435 1.105974
-1.4519895 -0.57162344 1.1131952
-1.4927629 -0.56942809 1.1052181
-1.558913 -0.56545341 1.1065184
-1.6141968 -0.56344229 1.1018869
-1.795573 -0.63016152 1.1035268
-1.8258438 -0.64554542 1.1118487
-0.74414206 -0.43010303 1.0998396
-0.77292812 -0.43832654 1.1067315
-1.1919229 -0.56540179 1.1070892
-1.2461202 -0.57000577 1.1052729
-1.3092743 -0.57285833 1.1054945
-1.3669763 -0.57380116 1.1054947
-1.4163024 -0.57310104 1.1047939
-0.72995692 -0.4702059 1.1168528
-0.76996046 -0.48176432 1.1206163
-0.89709657 -0.54115033 1.1078389
-0.94071853 -0.53697634 1.1049833
-1.0008276 -0.5416708 1.1057923
-1.0639932 -0.55029535 1.1054946
-1.1230651 -0.5580554 1.1058102
-1.1694053 -0.56369245 1.1000483
-0.7302978 -0.51728868 1.1329755
-0.74960548 -0.53863162 1.1340075
-0.83387434 -0.57858503 1.1114954
-0.86103415 -0.55346227 1.1041447
-0.74650359 -0.59945238 1.1360303
-0.81457454 -0.61363494 1.1198541
-0.83215082 -0.6423583 1.0998076
-0.74923146 -0.64491069 1.1332746
-0.78440952 -0.66091371 1.1355604
-0.85056514 -0.6753099 1.1131294
-0.90137869 -0.69048512 1.1074076
-0.94514054 -0.69646299 1.1084125
-1.2115399 -1.438813 1.1060508
-1.2370703 -1.4461653 1.12238
-1.1777389 -1.4610835 1.1058438
-1.2597927 -1.4695766 1.1042962
-1.3025486 -1.5108345 1.1051338
-0.75486577 -1.4334702 1.1252074
-1.181823 -1.5169404 1.1062466
-1.215453 -1.5546786 1.1060473
-1.3251278 -1.5365696 1.1255653
-1.3413135 -1.5523744 1.1095829
-0.77933478 -1.4554332 1.1309109
-1.2416731 -1.5796976 1.1054946
-1.2695459 -1.6165518 1.1062894
-1.0854222 -1.6540756 1.1050774
-1.1359133 -1.661635 1.1064721
-1.1979059 -1.6695884 1.1076677
-1.2597246 -1.6626277 1.1028807
-1.0814859 -1.6662173 1.1115867
-1.9154321 -0.17931578 1.1687814
-1.9724418 -0.18922785 1.1704992
-2.0017488 -0.21632281 1.1697778
-1.9132258 -0.21873984 1.156284
-1.952841 -0.24067912 1.1681504
-2.0050757 -0.26081708 1.1633219
-1.9053856 -0.30123812 1.1479309
-1.9371997 -0.30790955 1.1685467
-1.9903188 -0.32337508 1.1699395
-1.8992105 -0.32986394 1.149973
-1.9205292 -0.35605255 1.1729722
-1.9709313 -0.36482722 1.1798718
-0.74590641 -0.1369143 1.1614017
-0.69018191 -0.15427971 1.1730452
-0.73111051 -0.16646492 1.1682897
-0.77676433 -0.17752458 1.1655682
-1.631511 -0.55438948 1.1726052
-1.6812036 -0.55201417 1.1669749
-1.7442772 -0.56437904 1.1690222
-1.7920636 -0.58661741 1.1712238
-1.4441159 -0.5680564 1.1719906
-1.4975896 -0.56464636 1.1693099
-1.5628091 -0.55895913 1.1701978
-1.6041671 -0.55804306 1.1608793
-1.7985346 -0.61625975 1.164712
-0.73347455 -0.43720806 1.1721476
-0.77879119 -0.45237076 1.1667571
-1.1871668 -0.56331921 1.1704506
-1.2440357 -0.56749272 1.1698716
-1.3081878 -0.57061279 1.1686448
-1.3665987 -0.57085472 1.1693091
-1.4096805 -0.57014185 1.1662741
-0.70511925 -0.46998483 1.1732215
-0.79307401 -0.4810921 1.1683136
-0.81429362 -0.50243354 1.1761374
-0.88849795 -0.53443849 1.1743925
-0.94059235 -0.53290641 1.1683773
-0.99780166 -0.53752428 1.168848
-1.0684175 -0.54843825 1.1702918
-1.1251526 -0.55704647 1.1662898
-1.1661606 -0.56177282 1.1626704
-0.70970112 -0.52734661 1.1712469
-0.76567912 -0.54283559 1.1441015
-0.8144998 -0.55626982 1.1606017
-0.85898602 -0.54642975 1.1587652
-0.71173251 -0.57886869 1.1763507
-0.71945339 -0.60739118 1.1637511
-0.79904693 -0.6201539 1.1439463
-0.73191696 -0.65104336 1.168766
-0.77806556 -0.68181646 1.1642299
-0.83845568 -0.70259976 1.1710645
-0.90043271 -0.7035042 1.1693726
-0.94285893 -0.69903719 1.1637825
-1.6862471 -1.4903729 1.1937509
-1.7310244 -1.4960685 1.1917559
-1.2030225 -1.4335747 1.169475
-1.2535534 -1.445083 1.1737504
-1.2867624 -1.4598473 1.1944299
-1.6804284 -1.5342679 1.1939428
-1.7178553 -1.5520592 1.1909577
-0.89679921 -1.4197412 1.1944299
-1.1565695 -1.4627836 1.1833103
-1.1673568 -1.4573696 1.1662529
-1.2750467 -1.4682707 1.1579058
-1.3040532 -1.502044 1.1705279
-1.6839961 -1.5860183 1.1964141
-1.7019173 -1.6064049 1.1886386
-0.77337003 -1.431079 1.1668872
-0.8253687 -1.4309131 1.1688889
-0.88730478 -1.4448576 1.1818942
-0.92886698 -1.4545833 1.1952105
-1.1774153 -1.5133142 1.170589
-1.2165916 -1.5557094 1.168533
-1.3182651 -1.5351962 1.1685179
-1.3417057 -1.5487664 1.1667944
-1.6908495 -1.6414429 1.1878452
-0.76564837 -1.4620843 1.1771852
-0.82338113 -1.4780831 1.1686283
-0.86924094 -1.4886819 1.1888907
-1.2411846 -1.5808275 1.1696843
-1.2659085 -1.6158626 1.1695883
-1.0099643 -1.6356245 1.1987669
-1.0981481 -1.6590192 1.1615224
-1.137255 -1.6614161 1.1702735
-1.2000393 -1.662653 1.1688943
-1.2530972 -1.6555551 1.1672345
-0.99833065 -1.6508553 1.1956573
-1.078745 -1.666919 1.1688904
-1.1077268 -1.6635734 1.1690137
-1.9267088 -0.18607682 1.2181025
-1.9597409 -0.19576067 1.2091709
-1.9955171 -0.21586078 1.2021284
-1.9771461 -0.34257156 1.2061372
-1.9284137 -0.36785835 1.2193521
-1.9746684 -0.381423 1.2307248
-0.72582698 -0.13084634 1.2436738
-1.9108945 -0.4125914 1.2378818
-1.9576263 -0.42196614 1.2429399
-0.68784028 -0.14924541 1.2314358
-0.74058688 -0.16524649 1.2312195
-0.76753116 -0.17627065 1.2236403
-1.6222432 -0.54943275 1.2331064
-1.6845315 -0.54709649 1.2321091
-1.7493818 -0.55316895 1.2322203
-1.7995158 -0.58473837 1.2348901
-1.4369974 -0.56489915 1.2352622
-1.4944597 -0.56112641 1.2316296
-1.5634426 -0.55534327 1.2328024
-1.8192289 -0.61558902 1.2424475
-1.823874 -0.61713994 1.2579703
-0.72425377 -0.4218035 1.2358574
-0.76971072 -0.44807786 1.2332132
-1.1543666 -0.55643523 1.2555414
-1.1824592 -0.56040549 1.2314562
-1.242342 -0.56509614 1.2323014
-1.3061515 -0.56783503 1.2332121
-1.368255 -0.56716478 1.2320576
-1.4065424 -0.56679136 1.2277887
-0.70529926 -0.46962637 1.2339956
-0.79288435 -0.47136801 1.230764
-0.82407105 -0.50754309 1.2216516
-0.8849808 -0.53073454 1.2304988
-0.94646227 -0.53089368 1.23282
-0.9998855 -0.53713679 1.2350047
-1.0669713 -0.54685414 1.2331657
-1.1262857 -0.55474675 1.2308967
-0.71479636 -0.5269267 1.2262396
-0.73362488 -0.54374081 1.2520933
-0.84340799 -0.53890789 1.206895
-0.86393255 -0.54718912 1.25457
-0.71390951 -0.57521921 1.2141715
-0.72685397 -0.60313201 1.2368903
-0.73760003 -0.64984494 1.2286108
-0.77829784 -0.67862451 1.2349482
-0.83698565 -0.70313299 1.2273881
-0.8931154 -0.71792722 1.2243409
-0.93130517 -0.72148192 1.2289803
-1.2227381 -0.98884439 1.2594018
-1.2145163 -1.0195284 1.2591848
-1.2029284 -1.1601877 1.2580484
-1.5113829 -1.4547334 1.2554966
-1.5732828 -1.4635195 1.2430071
-1.6266321 -1.4727564 1.2273562
-1.6837435 -1.4753883 1.2302579
-1.734126 -1.4855201 1.2359288
-1.151239 -1.4194787 1.2466171
-1.1984965 -1.42033 1.232218
-1.2640446 -1.4327416 1.2315065
-1.3167237 -1.4558275 1.2375377
-1.3763723 -1.4710933 1.2545044
-1.4372848 -1.4747856 1.2532634
-1.4942377 -1.4905567 1.2456294
-1.5576631 -1.5102842 1.2409474
-1.6137158 -1.5231645 1.2261469
-1.6513327 -1.5441873 1.2129018
-0.91007054 -1.4140521 1.2257081
-0.9564712 -1.4182638 1.2336594
-1.0131825 -1.426548 1.2408586
-1.0779949 -1.4376993 1.2484459
-1.1346182 -1.4508122 1.2265372
-1.1687233 -1.4359311 1.2071378
-1.3245788 -1.5010123 1.222464
-1.3590564 -1.5095115 1.2497259
-1.4949515 -1.5194256 1.2579703
-1.6092182 -1.5546718 1.2579703
-1.6639609 -1.5907701 1.2330316
-0.78579676 -1.4452821 1.2060608
-0.83112228 -1.4361458 1.2213206
-0.88289368 -1.437844 1.2451869
-0.94979882 -1.4744799 1.2192334
-0.99865782 -1.4727744 1.2346555
-1.0637482 -1.481571 1.2488315
-1.1267227 -1.4944828 1.2435198
-1.1729072 -1.5229121 1.2318106
-1.2151304 -1.5586963 1.2332431
-1.6713476 -1.6352491 1.2198461
-1.6753451 -1.6363202 1.2516164
-0.77932489 -1.4572574 1.2090174
-0.81457734 -1.4895524 1.2230762
-0.87068069 -1.5002497 1.2332389
-0.92132372 -1.4971189 1.2403469
-1.2394578 -1.5841339 1.2341962
-1.2614026 -1.6178266 1.2311424
-0.82673824 -1.5339103 1.2387133
-0.83673012 -1.5365875 1.2471166
-0.9799763 -1.6272621 1.216688
-1.0056401 -1.6336184 1.2148702
-1.0939782 -1.6578705 1.2469442
-1.1361955 -1.6561823 1.231357
-1.2028611 -1.6538671 1.2313334
-1.2515228 -1.6484072 1.2318739
-0.98023641 -1.6383755 1.2168534
-1.0198058 -1.6500105 1.2427653
-1.0772129 -1.6671453 1.2334917
-1.1016908 -1.6863729 1.2199059
-1.9715372 -0.40355551 1.2706788
-0.72558075 -0.13176507 1.2802098
-1.9121482 -0.43104082 1.2829986
-1.9610291 -0.43452123 1.2864829
-0.68227357 -0.14740038 1.2917212
-0.73811811 -0.16453168 1.2894185
-0.76635092 -0.16276184 1.2706788
-1.8491436 -0.48299015 1.30856
-1.8893361 -0.47036427 1.294248
-1.9390764 -0.4744907 1.3007392
-1.8261675 -0.52506906 1.3076675
-1.8646127 -0.52276444 1.3135978
-1.5908053 -0.54802299 1.2897408
-1.6241608 -0.54459095 1.2910335
-1.6845204 -0.54395872 1.2895923
-1.7496799 -0.54418784 1.2884865
-1.8121532 -0.5676319 1.2825428
-1.8452117 -0.58161306 1.3092532
-0.70241868 -0.35494447 1.3006899
-0.73725635 -0.36598644 1.2973952
-1.4335563 -0.56285137 1.289741
-1.4920688 -0.55856913 1.2897648
-1.5559232 -0.5519067 1.2895089
-1.8225155 -0.6160934 1.2706788
-1.8232248 -0.61696595 1.2706788
-0.69597 -0.39287877 1.2878468
-0.72800052 -0.41448095 1.2874001
-0.77635515 -0.43677577 1.2941669
-1.1542784 -0.55701572 1.2770327
-1.1811746 -0.55959558 1.2898895
-1.2393417 -0.56263113 1.2891812
-1.3074701 -0.56622839 1.2905033
-1.3675641 -0.56499559 1.2889121
-1.402378 -0.56392062 1.2897408
-0.7301169 -0.46403107 1.2804257
-0.77532917 -0.48508948 1.2936472
-0.8044008 -0.5075224 1.2910968
-0.90258813 -0.54288709 1.2723268
-0.9394086 -0.54365951 1.2899632
-1.0000024 -0.54720968 1.2896782
-1.0624105 -0.55275244 1.2898414
-1.1200216 -0.55678701 1.2923461
-0.76252139 -0.54103827 1.2806675
-0.80543762 -0.54435921 1.3043388
-0.88461745 -0.55621099 1.2870178
-0.90893811 -0.55615318 1.3088028
-0.75536573 -0.60141385 1.2751608
-0.7891311 -0.62163001 1.2986293
-0.8313365 -0.63306767 1.3108793
-0.78918117 -0.66634524 1.2741822
-0.82012212 -0.68719327 1.2723649
-1.2489228 -0.89112163 1.3088028
-1.2629675 -0.88780606 1.3161547
-1.224595 -0.92218626 1.2933662
-1.2673672 -0.93296409 1.296787
-1.2994088 -0.96005487 1.3118998
-1.197853 -0.97433829 1.2875538
-1.2592504 -0.98952389 1.2753509
-1.294975 -1.0028929 1.3027487
-1.1893506 -1.0329365 1.2849019
-1.2441735 -1.0484183 1.272887
-1.2846726 -1.0593102 1.3010808
-1.1835519 -1.0860815 1.2909482
-1.2263873 -1.1019282 1.2696904
-1.275501 -1.1172495 1.2955004
-1.1680089 -1.1512851 1.28881
-1.2110887 -1.1633155 1.2660172
-1.2635405 -1.1780479 1.2930022
-1.1563803 -1.2116575 1.2978622
-1.1904017 -1.2249143 1.2705115
-1.244558 -1.2392111 1.2951957
-1.1478467 -1.2672067 1.3057353
-1.1759192 -1.2807095 1.2775786
-1.2349557 -1.295012 1.2913486
-1.1393878 -1.301964 1.309833
-1.1603951 -1.3343992 1.2898196
-1.2235484 -1.3457888 1.2814525
-1.2704183 -1.3743825 1.2975975
-1.3114828 -1.4028225 1.310077
-1.4511036 -1.4394891 1.2846328
-1.5050373 -1.4521477 1.2903739
-1.5687205 -1.4670315 1.2899419
-1.6249858 -1.4784937 1.2852044
-1.679478 -1.4917355 1.283141
-1.7268426 -1.5053682 1.2822497
-1.1004122 -1.4034183 1.2951428
-1.1421144 -1.3903372 1.2864366
-1.2039528 -1.3952178 1.2720833
-1.2697095 -1.4103569 1.2764429
-1.3313872 -1.4274856 1.2843655
-1.3837305 -1.4378382 1.2836457
-1.4273278 -1.4437966 1.2913495
-1.578154 -1.4789619 1.3088028
-1.6302924 -1.4971471 1.3135738
-1.6789247 -1.5119612 1.3112227
-1.7247049 -1.5260403 1.309966
-0.96322298 -1.4222257 1.2783188
-1.0126905 -1.4189392 1.2934692
-1.0688654 -1.412694 1.2838651
-1.3740588 -1.5286949 1.2821261
-1.419239 -1.527961 1.2850025
-1.4823257 -1.5425546 1.2876749
-1.5431669 -1.556677 1.2879921
-1.5977811 -1.5768332 1.2898661
-1.6504948 -1.601153 1.2876104
-1.6821944 -1.6306996 1.2897409
-0.91003406 -1.4541056 1.2667674
-0.94708693 -1.4600337 1.2809997
-0.99610043 -1.4864879 1.2916268
-1.0585061 -1.5034945 1.2878854
-1.1108927 -1.5191311 1.2904845
-1.1644261 -1.5429699 1.2856975
-1.2045392 -1.5600213 1.2728689
-1.6022072 -1.610146 1.3197436
-1.658242 -1.6306143 1.3109957
-1.6806864 -1.6377516 1.2848312
-0.90455747 -1.4889865 1.260139
-0.92510927 -1.5041418 1.2677348
-1.1847962 -1.5647401 1.3072718
-1.226577 -1.5879415 1.2920284
-1.2553728 -1.6250658 1.2880259
-1.0337597 -1.6330214 1.2963845
-1.0809032 -1.6422619 1.2894872
-1.1384797 -1.646018 1.2895775
-1.2037643 -1.6453896 1.2915006
-1.2462486 -1.6457882 1.2825871
-1.0103685 -1.6511045 1.2827157
-1.9440904 -0.45688891 1.3215113
-0.67339444 -0.14864686 1.3477604
-0.72880375 -0.16036478 1.3453763
-1.838123 -0.47474054 1.3457371
-1.8958365 -0.46950123 1.344735
-1.9495004 -0.49073163 1.3456889
-0.67111301 -0.18824252 1.3696505
-0.69874614 -0.19509396 1.3751413
-1.7734865 -0.53392977 1.3621686
-1.802635 -0.51602775 1.345543
-1.8867466 -0.53782421 1.3268036
-1.9296192 -0.54524952 1.3552754
-0.70565689 -0.29008374 1.3608177
-0.74288881 -0.31001642 1.3606297
-1.5883167 -0.54385877 1.3551111
-1.6238371 -0.53908122 1.3448014
-1.6863124 -0.5368942 1.3492845
-1.7492352 -0.53860044 1.3431431
-1.8642454 -0.59832478 1.341929
-1.9073274 -0.58728343 1.3614975
-0.6933009 -0.34091067 1.348204
-0.75641644 -0.35110134 1.3423133
-0.77832288 -0.38296139 1.3566829
-1.4369069 -0.56092066 1.3477993
-1.4968191 -0.55621624 1.3479025
-1.5529659 -0.54982585 1.3444759
-0.6986317 -0.38551176 1.3357114
-0.73018593 -0.41338903 1.3481913
-0.78724396 -0.43370497 1.3496895
-1.1805727 -0.56022155 1.3463629
-1.2420577 -0.56224048 1.3488357
-1.3115367 -0.56482714 1.3455209
-1.3712692 -0.56374335 1.3470742
-1.4026368 -0.56295502 1.3469231
-0.78282231 -0.46815857 1.3245965
-0.83629137 -0.52250731 1.3442043
-0.87919581 -0.53613728 1.3552195
-0.94281858 -0.55440569 1.3480334
-0.99935746 -0.55606246 1.3465199
-1.0605493 -0.55333602 1.3492944
-1.1231722 -0.55687934 1.3456941
-0.81026071 -0.55642027 1.3472129
-0.89281392 -0.55088979 1.3723221
-0.80694067 -0.61229175 1.3454765
-0.84380633 -0.64488471 1.3487771
-1.2489961 -0.89084792 1.3342192
-1.2776737 -0.88818473 1.3462327
-1.3113462 -0.90365624 1.3647642
-1.2226113 -0.91881144 1.3444759
-1.2769004 -0.9134528 1.3537691
-1.3193787 -0.94549143 1.3500453
-1.1955248 -0.97359502 1.352401
-1.3177963 -1.0039978 1.3469094
-1.1853759 -1.0286653 1.350476
-1.3086141 -1.0650736 1.3485899
-1.1737367 -1.0894698 1.3495737
-1.3023329 -1.1240155 1.3472999
-1.1582762 -1.1475866 1.3472044
-1.2923883 -1.1889865 1.340947
-1.3012427 -1.177606 1.3437502
-1.1501184 -1.2136393 1.3515925
-1.2753108 -1.2376484 1.3341024
-1.285022 -1.2511623 1.357779
-1.143077 -1.266911 1.3473318
-1.1535881 -1.2820894 1.3746381
-1.262551 -1.2955 1.3256027
-1.2715937 -1.3077023 1.3508335
-1.1343178 -1.3180438 1.3352054
-1.1409736 -1.3321484 1.3619994
-1.2843846 -1.3659747 1.3465022
-1.3173499 -1.4031959 1.3472769
-1.1024021 -1.3922358 1.3467857
-1.1286491 -1.3704995 1.3550072
-1.2942231 -1.4094801 1.3722874
-1.343101 -1.4258238 1.3528992
-1.3839616 -1.4438339 1.3472704
-1.4396241 -1.4671717 1.3528734
-1.4981542 -1.484937 1.3516405
-1.5548153 -1.5043433 1.3494333
-1.6099259 -1.5235949 1.3486495
-1.6703695 -1.5389318 1.3366158
-1.7130219 -1.5561091 1.331617
-1.0281932 -1.4314227 1.3419272
-1.0610484 -1.4115739 1.3477362
-1.4290071 -1.549727 1.3271302
-1.4820244 -1.5600501 1.3423499
-1.5293339 -1.5699449 1.3416576
-1.5719382 -1.6003604 1.3215113
-1.7196802 -1.5890017 1.3463637
-1.0157032 -1.465984 1.3376777
-1.0569631 -1.5036445 1.3494997
-1.1128855 -1.5275401 1.3472404
-1.1468905 -1.5430865 1.3519967
-1.4364934 -1.5657432 1.3429587
-1.4774712 -1.5952618 1.3626182
-1.521979 -1.6157376 1.349702
-1.5809885 -1.6287279 1.3338947
-1.6295353 -1.630863 1.3223844
-1.1254889 -1.5481849 1.3767893
-1.1598512 -1.5801358 1.3525348
-1.2084663 -1.6076144 1.3335251
-1.241034 -1.6317643 1.3215113
-1.4776739 -1.6420453 1.3575104
-1.5007399 -1.6494168 1.3548112
-0.98780596 -1.6157632 1.3462822
-1.0308994 -1.6096621 1.3443632
-1.0907499 -1.6155078 1.3512295
-1.1410971 -1.6247785 1.3362226
-1.20342 -1.6366379 1.3287699
-1.0299058 -1.6782212 1.3415401
-1.0433543 -1.6840364 1.3532814
-0.67473465 -0.14929381 1.4086436
-0.72460365 -0.16517276 1.4076144
-1.8300784 -0.46959382 1.4165374
-1.8904514 -0.47598797 1.4115189
-1.9474089 -0.50394803 1.4077529
-0.66417718 -0.20820978 1.4081076
-0.71859801 -0.22308783 1.409132
-0.74476045 -0.25364834 1.4358625
-1.776754 -0.5301888 1.3882071
-1.8084319 -0.51526499 1.4151287
-1.9582374 -0.55064249 1.4065959
-1.9713545 -0.56072831 1.4303809
-0.66988623 -0.25424579 1.4161943
-0.69386321 -0.2760323 1.4037982
-0.75874633 -0.29557091 1.4123831
-0.78269958 -0.32500377 1.4358625
-1.5811411 -0.5397855 1.4128659
-1.6269795 -0.5393219 1.4106424
-1.6853999 -0.54617292 1.4120264
-1.746766 -0.55652457 1.4135302
-1.7984368 -0.57421792 1.4274322
-1.8266388 -0.60472655 1.4231546
-1.9262974 -0.59984767 1.3986064
-1.9597906 -0.58778328 1.4242605
-0.69715589 -0.33210391 1.4073672
-0.74757326 -0.36013567 1.4137473
-0.78811568 -0.37165678 1.4107422
-1.4312456 -0.55867302 1.4088562
-1.5021685 -0.55260313 1.4109095
-1.5490458 -0.54526919 1.4080863
-0.74986166 -0.39568764 1.3934182
-0.78345847 -0.41309214 1.392159
-1.1466141 -0.55325764 1.4080787
-1.1897331 -0.55681515 1.4127997
-1.2473518 -0.56104553 1.4099411
-1.3137491 -0.56228614 1.4109496
-1.3700382 -0.56129354 1.4104463
-0.84775746 -0.53024954 1.38503
-0.88493454 -0.53168893 1.4106796
-0.93722522 -0.55214739 1.4110552
-0.99745178 -0.55670714 1.4128929
-1.0649698 -0.55051363 1.409129
-1.1163083 -0.55142081 1.4104464
-0.82881802 -0.55970681 1.4093716
-0.85177088 -0.54083526 1.4358625
-0.94733024 -0.56676745 1.4129119
-0.98326719 -0.57617652 1.4249427
-0.81854004 -0.61086833 1.4062274
-0.84780794 -0.64711487 1.4110756
-0.90005344 -0.66454822 1.4200587
-1.2950187 -0.8968178 1.3954953
-1.3102735 -0.90765929 1.3977382
-1.2747353 -0.94103003 1.3906279
-1.323368 -0.94614565 1.4007164
-1.2238846 -0.98207235 1.385565
-1.2546412 -0.99038553 1.4054489
-1.306559 -1.0031246 1.4130301
-1.2104441 -1.036854 1.3821849
-1.2397654 -1.0468292 1.4035165
-1.2938633 -1.0625688 1.4238654
-1.1942004 -1.0942497 1.3848478
-1.2239615 -1.1005667 1.404554
-1.2820357 -1.1143203 1.4276688
-1.3127503 -1.1434424 1.4361373
-1.1802689 -1.1484767 1.3847818
-1.2089173 -1.1622249 1.4049637
-1.2634903 -1.1764938 1.4238216
-1.1918859 -1.2243884 1.3975725
-1.2510916 -1.2431982 1.4194672
-1.2909194 -1.2624042 1.3902605
-1.1774441 -1.2775631 1.3994453
-1.2356532 -1.2968644 1.4226398
-1.2761099 -1.3053992 1.4098669
-1.1681718 -1.3391081 1.4054158
-1.2084905 -1.3376951 1.4323825
-1.2714074 -1.3613241 1.4348122
-1.0905281 -1.3981881 1.4135559
-1.1428415 -1.3822645 1.4143637
-1.3260626 -1.4410635 1.3883181
-1.3736423 -1.4674381 1.4043005
-1.4189974 -1.486298 1.3953793
-1.4652121 -1.5076628 1.384553
-1.56314 -1.5349946 1.3839999
-1.0424629 -1.4282148 1.4351439
-1.0533179 -1.4279884 1.4040112
-1.5747464 -1.5407798 1.38503
-1.5933565 -1.5511984 1.3906088
-1.0617076 -1.4840896 1.4085941
-1.1066117 -1.5256579 1.4130234
-1.1420486 -1.5354828 1.38503
-1.4876136 -1.6061335 1.3882071
-1.5052782 -1.6337332 1.3997539
-1.119069 -1.5462347 1.3905722
-1.1596718 -1.5823029 1.4101113
-1.1909571 -1.6026943 1.4347938
-1.5181956 -1.6601696 1.4055175
-1.5477234 -1.6744766 1.4104462
-1.0936685 -1.6188631 1.3859553
-1.1320627 -1.6189709 1.3984618
-1.8041469 -0.40154046 1.4868336
-1.8440145 -0.41521952 1.4879481
-1.8784412 -0.43682742 1.4994032
-0.6854797 -0.17168997 1.4484068
-0.71303517 -0.18068953 1.4542943
-1.7995422 -0.43436864 1.4717911
-1.8346416 -0.46154743 1.4697666
-1.8934146 -0.4712168 1.4778243
-1.9313476 -0.50703561 1.4725741
-0.67588365 -0.20924832 1.4559609
-0.72163069 -0.21901058 1.4759611
-0.75693417 -0.24265575 1.4765007
-1.8396862 -0.51796842 1.4538053
-1.8770132 -0.53080148 1.477703
-1.9388856 -0.54416108 1.4852923
-1.9790078 -0.55921346 1.4766424
-0.6737482 -0.24628022 1.4515024
-0.70144576 -0.27873948 1.4736654
-0.76164985 -0.29912096 1.4763432
-0.78752869 -0.32838646 1.4612788
-1.5813814 -0.5408535 1.4718914
-1.6236042 -0.54690009 1.4807781
-1.6788948 -0.56237531 1.471092
-1.7210407 -0.57842976 1.4522915
-1.8210323 -0.57252824 1.4436865
-1.8626171 -0.5776068 1.4641753
-1.9205645 -0.6015051 1.4821187
-1.958349 -0.63680953 1.4865888
-0.7112509 -0.31910411 1.4488831
-0.75215375 -0.34059852 1.4606858
-0.7913956 -0.35399443 1.4546497
-1.3959486 -0.55707085 1.4803408
-1.4319193 -0.55550504 1.4730254
-1.4980447 -0.54921246 1.473314
-1.546206 -0.54293716 1.473987
-1.6942164 -0.58666575 1.4947864
-1.7145978 -0.59343916 1.4738622
-1.1303596 -0.54756963 1.4765991
-1.1882021 -0.55189419 1.4735435
-1.2480954 -0.55563867 1.4739993
-1.311645 -0.55859655 1.4738685
-1.3647738 -0.559017 1.472059
-0.89310628 -0.53135717 1.4724736
-0.94298476 -0.54161894 1.473505
-1.0012414 -0.55541575 1.4768025
-1.0650214 -0.54464185 1.4723706
-1.1073254 -0.54812068 1.4581019
-0.83374107 -0.57519764 1.4648333
-0.85357022 -0.55445099 1.4809533
-0.95448095 -0.57177842 1.4549203
-0.98684514 -0.58382815 1.475356
-1.0299982 -0.60017657 1.4761643
-0.8281042 -0.60009855 1.4515634
-0.85045594 -0.63397098 1.4740412
-0.90260649 -0.66056335 1.473591
-1.3167739 -1.068853 1.4443997
-1.3378687 -1.0788498 1.4546328
-1.3047776 -1.1147515 1.4425073
-1.3229537 -1.1274402 1.449168
-1.3208141 -1.16284 1.4485707
-1.2254075 -1.3586766 1.4596392
-1.2753643 -1.3767517 1.4748646
-1.314867 -1.3959587 1.4874425
-1.0413126 -1.3940551 1.4850546
-1.0868986 -1.401242 1.4770048
-1.1474764 -1.4022551 1.4733593
-1.1980196 -1.3943615 1.4818513
-1.2895972 -1.4020944 1.4994032
-1.0180157 -1.4204898 1.4743359
-1.0190983 -1.4606161 1.4835049
-1.0597187 -1.491697 1.4736106
-1.105193 -1.5292009 1.4727328
-1.156291 -1.5451233 1.4558202
-1.1259242 -1.5476205 1.4908444
-1.1640004 -1.5736551 1.4781692
-1.2002541 -1.6022097 1.4727869
-1.5269998 -1.6689614 1.4516129
-1.5378566 -1.684989 1.4612787
-1.2189766 -1.6418439 1.4592222
-1.8376122 -0.17384699 1.5511682
-1.8388104 -0.18702641 1.5581294
-1.8141168 -0.34444237 1.5453154
-1.8457296 -0.36000437 1.5497587
-1.8037773 -0.38318834 1.528002
-1.8527786 -0.39973602 1.5321267
-1.8988932 -0.42637128 1.5346384
-1.8080744 -0.42814496 1.5113305
-1.8444957 -0.45031628 1.5231694
-1.8974044 -0.47480732 1.5313636
-1.9243009 -0.50469095 1.5198574
-0.73443586 -0.24191073 1.5047597
-0.75556767 -0.24961229 1.5111758
-1.9021763 -0.51519704 1.5074704
-1.9354197 -0.53970051 1.5077122
-1.9709448 -0.57761788 1.5091622
-0.72515285 -0.26134771 1.5067331
-0.75622559 -0.28379756 1.5120293
-1.579991 -0.54374617 1.5305959
-1.6175164 -0.55116534 1.5263654
-1.6618936 -0.56504542 1.5095686
-1.9331437 -0.62010807 1.5106063
-1.9689971 -0.60077351 1.5114218
-1.3792136 -0.55064017 1.5336491
-1.434103 -0.54960257 1.5327621
-1.4968232 -0.54530573 1.529871
-1.5465833 -0.54219532 1.5320451
-1.6434597 -0.56788504 1.5459998
-1.6724132 -0.58284682 1.5376036
-1.7168275 -0.60161108 1.5301265
-1.0943023 -0.54096204 1.5332916
-1.1290643 -0.5428189 1.531134
-1.1881604 -0.54691267 1.5301909
-1.2481562 -0.55026406 1.5321711
-1.3142754 -0.55154675 1.53092
-1.3532581 -0.55360138 1.517146
-0.9000895 -0.53698349 1.5264332
-0.93970138 -0.53665364 1.5342336
-1.0024058 -0.54658663 1.5290935
-1.0611727 -0.54333323 1.5307748
-0.86570168 -0.57079911 1.5321058
-0.98748994 -0.59035754 1.511873
-1.0243155 -0.60022485 1.5044129
-0.86374956 -0.62785113 1.5298021
-0.91132051 -0.65858364 1.5325902
-1.2802198 -1.3897238 1.5260161
-1.3230293 -1.4029906 1.5301542
-1.0355641 -1.3928678 1.5085548
-1.0594538 -1.4018273 1.5121112
-1.1514003 -1.4238312 1.5080559
-1.2088947 -1.4205722 1.5221521
-1.2490276 -1.4094371 1.5393251
-1.3436841 -1.4254551 1.5246792
-1.3704141 -1.442412 1.5385134
-0.97105581 -1.4095403 1.5344195
-1.0146916 -1.398975 1.5273887
-1.0822102 -1.4168493 1.5346491
-1.1368278 -1.4397219 1.5342895
-1.1873723 -1.4604188 1.5408442
-1.2357664 -1.4759026 1.5510443
-0.96473813 -1.4453061 1.5414411
-1.0000739 -1.4733064 1.5302829
-1.054224 -1.5113007 1.5291681
-1.0923436 -1.5300083 1.5152884
-1.0774723 -1.5347533 1.5518187
-1.1088883 -1.5526565 1.5352582
-1.1552304 -1.5768062 1.5294694
-1.2124485 -1.5894356 1.5309134
-1.8507173 -0.17477992 1.5865574
-1.8918817 -0.18593675 1.5956701
-1.7965226 -0.20218706 1.5966761
-1.836639 -0.2084375 1.5856307
-1.8870633 -0.21493292 1.60393
-1.7828908 -0.26439956 1.6031258
-1.8200992 -0.27773601 1.5908056
-1.8629267 -0.29235804 1.608434
-1.8095179 -0.32614332 1.5863333
-1.8661903 -0.34795925 1.5921088
-1.9001585 -0.3746165 1.60475
-1.8161404 -0.36963704 1.5736929
-1.8585273 -0.39692324 1.5841113
-1.9053025 -0.41621512 1.5832838
-0.85004997 -0.21225376 1.6120112
-0.89866495 -0.22402194 1.6106807
-0.94363046 -0.23657396 1.6165955
-1.9045583 -0.45497823 1.565776
-0.83859676 -0.23944198 1.6132523
-0.89276069 -0.25114858 1.6128401
-1.5843759 -0.54746825 1.5629437
-1.6151909 -0.55521548 1.5629437
-1.3420032 -0.54374075 1.5946925
-1.3743198 -0.54299009 1.5887672
-1.4355551 -0.54347003 1.5874187
-1.5003259 -0.54370272 1.5878558
-1.5641876 -0.54751933 1.5902793
-1.6181613 -0.57317829 1.5946554
-1.6539593 -0.59395498 1.5714527
-1.093075 -0.53967726 1.5755273
-1.1313843 -0.54123688 1.5895705
-1.1943265 -0.54297805 1.5873473
-1.2524784 -0.5456118 1.5886515
-1.3114127 -0.54666299 1.588235
-0.94424117 -0.54748321 1.5775102
-0.99889851 -0.55396479 1.5913738
-1.0634134 -0.55317903 1.5928557
-1.1035523 -0.5499267 1.6137545
-1.2992591 -0.60793269 1.6154191
-1.345556 -0.62045687 1.6148859
-0.89079404 -0.58205312 1.5722089
-0.92668092 -0.58290875 1.6002696
-1.0019221 -0.59005201 1.5943477
-1.0363021 -0.59454417 1.6095908
-0.8787238 -0.62103796 1.5749247
-0.91564894 -0.64154285 1.5900846
-0.94976294 -0.65858209 1.6076066
-1.295401 -1.3966683 1.5742748
-1.3350978 -1.4015584 1.5909144
-1.3716391 -1.4190717 1.6061273
-1.2712462 -1.4282796 1.5887525
-1.3554808 -1.4257634 1.5630667
-1.3870834 -1.4426639 1.5860662
-1.4294294 -1.4749422 1.5997409
-1.4729797 -1.5032244 1.6137545
-0.92159897 -1.4001006 1.6010534
-0.95763516 -1.396813 1.5818344
-1.0209183 -1.4067351 1.587007
-1.0793792 -1.4370245 1.5898936
-1.1263161 -1.4658098 1.5848601
-1.1819721 -1.4846871 1.5701463
-1.2517115 -1.4817333 1.5753096
-1.3066797 -1.4966273 1.6000952
-1.3426583 -1.5225669 1.6077477
-0.91254699 -1.432525 1.6083937
-0.94582188 -1.4556432 1.5885583
-0.9925859 -1.4942256 1.5869584
-1.0363544 -1.5148952 1.5662246
-1.141765 -1.4867709 1.6057265
-1.1726004 -1.497319 1.5987061
-1.2254454 -1.5101863 1.5926574
-1.014865 -1.5182543 1.6100084
-1.0535791 -1.5370754 1.5929639
-1.0961572 -1.573495 1.5853784
-1.2271087 -1.6094744 1.5702072
-1.2510647 -1.6225247 1.5756466
-1.8615246 -0.17959303 1.6350722
-1.8942244 -0.18807507 1.6384226
-0.92194778 0.011842862 1.6772269
-0.96505433 0.013018757 1.6759473
-1.0038617 -0.012604594 1.6772376
-1.7979658 -0.21575028 1.6305254
-1.8365989 -0.20895168 1.6535958
-1.9035318 -0.22703871 1.65486
-1.9217546 -0.25748622 1.6730593
-0.90137345 -0.031042531 1.6718575
-0.95079374 -0.039959013 1.6630994
-1.0109007 -0.057351977 1.6698923
-1.0523041 -0.083747774 1.6768934
-1.7873436 -0.25218362 1.6295966
-1.8214926 -0.27557844 1.6530299
-1.8889573 -0.29562584 1.6502711
-1.9143789 -0.3101989 1.6702024
-0.88189244 -0.083661854 1.6648766
-0.93663776 -0.0943131 1.6505569
-0.99687833 -0.11272173 1.656912
-1.0517741 -0.12722182 1.6691325
-1.0901585 -0.14736842 1.6766161
-1.825357 -0.31458518 1.6324465
-1.8736169 -0.34150392 1.6436822
-1.9064642 -0.35413066 1.6431757
-0.86307591 -0.13569862 1.6603093
-0.91959143 -0.15166792 1.6389759
-0.98194689 -0.16870034 1.6433113
-1.0374573 -0.18270218 1.6559111
-1.0900223 -0.19913277 1.6702454
-1.1266162 -0.22731467 1.6775086
-1.9051864 -0.38907123 1.6264845
-0.81267649 -0.20223507 1.652914
-0.84331864 -0.1848575 1.6437993
-0.91132253 -0.19460917 1.6260482
-0.97012967 -0.22895513 1.6299821
-1.021342 -0.24326162 1.6438979
-1.0767565 -0.25978237 1.6606276
-1.1339588 -0.27555653 1.6727905
-1.1737708 -0.30962223 1.6771709
-0.80259562 -0.23911579 1.6532065
-0.8211506 -0.26226172 1.6393203
-0.88983816 -0.27343625 1.6349388
-0.95153642 -0.28486747 1.6455929
-1.0078818 -0.29773194 1.6531129
-1.0587871 -0.3139236 1.6628195
-1.1220999 -0.32140976 1.6722012
-1.1632124 -0.3348552 1.676222
-0.82957262 -0.29226869 1.6576661
-0.87842339 -0.31393352 1.6568199
-0.93914694 -0.33724001 1.6606519
-0.99217999 -0.35358244 1.6647187
-1.0368353 -0.35583144 1.6726992
-1.3783209 -0.54667199 1.6442839
-1.4329488 -0.54801434 1.652703
-1.4986172 -0.5475685 1.6533768
-1.5629342 -0.55393469 1.6526312
-1.6102347 -0.58321601 1.6516769
-1.6404072 -0.60744488 1.6772521
-1.1454778 -0.54955178 1.6348172
-1.1909157 -0.55337238 1.646971
-1.2474965 -0.55769241 1.6550921
-1.3127182 -0.55855107 1.6533104
-1.3595356 -0.59353179 1.6626656
-1.4016317 -0.60879636 1.6679631
-1.0070688 -0.57130724 1.6305517
-1.0582777 -0.57511181 1.631372
-1.120422 -0.58494651 1.6513608
-1.176069 -0.59453964 1.6660566
-1.2314055 -0.59954345 1.6716137
-1.3069235 -0.60856044 1.6280406
-1.3628262 -0.62823015 1.6482829
-1.385854 -0.63218731 1.6751431
-0.95095408 -0.59898412 1.6245068
-0.98620486 -0.60260785 1.645932
-1.0416502 -0.60836029 1.660447
-1.1141779 -0.61114705 1.6539247
-1.1456635 -0.61958361 1.6517994
-0.96949536 -0.64114404 1.637092
-1.0356901 -0.65589166 1.6789434
-1.341603 -1.4000692 1.6486491
-1.38736 -1.4153056 1.6560348
-1.4189156 -1.4350257 1.6772954
-1.2899514 -1.4278142 1.6252593
-1.3082744 -1.4417036 1.6535137
-1.4032851 -1.4380064 1.6374252
-1.4366924 -1.4669473 1.6525367
-1.472151 -1.5012569 1.6518792
-0.86355627 -1.390873 1.675643
-0.90054035 -1.3898745 1.6503307
-0.96255326 -1.3991156 1.6528803
-1.015155 -1.4256492 1.6522424
-1.0653372 -1.453027 1.6423893
-1.1057734 -1.4744619 1.6264629
-1.3241669 -1.4862099 1.6459562
-1.3594301 -1.5191555 1.6547247
-1.3924395 -1.5437901 1.672147
-0.85751164 -1.4175713 1.6768616
-0.89090586 -1.4431233 1.652383
-0.93365967 -1.4804729 1.6469995
-0.97104657 -1.4957334 1.6289307
-1.0737201 -1.4702743 1.6659952
-1.12475 -1.4890041 1.6370691
-1.1616889 -1.5044823 1.6350131
-1.3686541 -1.5491288 1.6495112
-1.4064972 -1.5745351 1.666296
-0.94843918 -1.5011026 1.6687295
-0.9915235 -1.5222784 1.6554866
-1.0394446 -1.5581526 1.6466284
-1.0731416 -1.5867777 1.6233943
-0.98302692 0.24399005 1.737489
-1.0215782 0.23512186 1.7365396
-1.0658027 0.21742567 1.7388951
-0.95992738 0.20230398 1.7293707
-1.0136236 0.19517757 1.7247429
-1.0710298 0.17212927 1.7302651
-1.1149634 0.14724821 1.7363975
-0.91061759 0.15376738 1.7344964
-0.94045854 0.15230614 1.716478
-0.99820936 0.13673472 1.7087141
-1.0615968 0.11995307 1.7170591
-1.1157627 0.104662 1.7279696
-1.1585966 0.083292782 1.734358
-1.208046 0.060916692 1.7389059
-0.8955875 0.10767683 1.7288467
-0.92344874 0.097394973 1.7042347
-0.9823581 0.078465283 1.6930847
-1.0431173 0.065588981 1.7010753
-1.0988538 0.050742686 1.7132834
-1.1555601 0.035469532 1.7236904
-1.2106512 0.014742911 1.7322017
-1.2609735 -0.011523217 1.7376481
-0.87624353 0.045892477 1.7190982
-0.90414292 0.041480362 1.6925733
-0.97381383 0.039815694 1.6835952
-1.0330144 0.0078077614 1.6881301
-1.0828888 -0.010996282 1.6980308
-1.1397922 -0.024576247 1.7088015
-1.1996003 -0.043130428 1.7196493
-1.2608769 -0.059016973 1.728597
-1.3106807 -0.07825017 1.7340106
-1.3618547 -0.10965398 1.737901
-1.4236875 -0.12841454 1.7391391
-1.4819943 -0.1440378 1.7386403
-1.5188196 -0.15390511 1.7391769
-1.5976408 -0.17064019 1.73883
-1.8596319 -0.23207049 1.6839529
-1.8946555 -0.23595276 1.6951717
-1.930088 -0.26035243 1.702806
-0.86059076 -0.019392043 1.7133874
-0.87705916 -0.016148895 1.6910124
-1.0429811 -0.039559484 1.6826735
-1.0752248 -0.064784557 1.6869986
-1.1226794 -0.086117327 1.6952752
-1.1814756 -0.10404928 1.7069077
-1.2434988 -0.11959663 1.7160692
-1.3027927 -0.13227934 1.7254744
-1.3540199 -0.15248846 1.7305903
-1.4166919 -0.17151268 1.7315168
-1.4710349 -0.18430099 1.7311343
-1.527366 -0.1956602 1.7330146
-1.5887246 -0.21210118 1.7339622
-1.6206129 -0.24037814 1.7354686
-1.8530544 -0.25661802 1.680635
-1.8883356 -0.28513363 1.6947731
-1.9233717 -0.29302377 1.6961567
-0.84671831 -0.072478682 1.7105187
-0.85799754 -0.071115941 1.6875565
-1.1190538 -0.13857323 1.6863048
-1.1679475 -0.15778698 1.6964054
-1.2268001 -0.17519727 1.7060145
-1.2852052 -0.19037458 1.7155741
-1.3422128 -0.20399572 1.722893
-1.4012702 -0.21967605 1.7247479
-1.4606482 -0.23418131 1.7252171
-1.5130378 -0.24596624 1.7260488
-1.5754151 -0.26535729 1.7271862
-1.6157725 -0.27948588 1.7361643
-0.8342765 -0.1258164 1.7045934
-0.83539712 -0.13428064 1.7190506
-1.1186703 -0.18262057 1.6813724
-1.159606 -0.21090387 1.6875693
-1.2156501 -0.22991119 1.6983175
-1.2688148 -0.24651372 1.7078847
-1.3258744 -0.26006851 1.7152759
-1.387583 -0.27973849 1.7170705
-1.4427292 -0.29481691 1.7172352
-1.4953662 -0.30833974 1.7175088
-1.5607587 -0.32321286 1.725538
-1.6008803 -0.31402093 1.7358156
-0.81771666 -0.18754457 1.7068111
-0.82216585 -0.18711394 1.7208658
-1.1632338 -0.26581743 1.6821584
-1.2026736 -0.28929427 1.6887919
-1.2546897 -0.30507201 1.6981078
-1.310981 -0.32400754 1.7035338
-1.3708475 -0.33789122 1.7092738
-1.4280219 -0.35587454 1.7124281
-1.4824307 -0.36777005 1.7210333
-1.5310416 -0.36092505 1.730911
-0.80642891 -0.23240972 1.6940262
-0.81826186 -0.25530431 1.7143503
-1.0749667 -0.33754119 1.6841264
-1.1219009 -0.34633926 1.6952703
-1.1834756 -0.34913933 1.701484
-1.2373378 -0.36156178 1.7047849
-1.2959751 -0.38071987 1.7091186
-1.3549006 -0.40070561 1.714071
-1.4141294 -0.41084701 1.7193367
-1.4512906 -0.41262189 1.7319328
-0.83323836 -0.29165474 1.7065634
-0.87554389 -0.31971779 1.7121588
-0.9306162 -0.35211253 1.7086031
-0.98875302 -0.37771708 1.709106
-1.0475699 -0.38493139 1.705
-1.1060686 -0.38468033 1.7157569
-1.152698 -0.37841111 1.7313302
-1.4049146 -0.43935058 1.7242129
-1.4337519 -0.44683161 1.7338097
-1.4407228 -0.56331575 1.690624
-1.4924418 -0.57126468 1.6969947
-1.5563166 -0.58337235 1.7000773
-1.6079402 -0.59742928 1.7037419
-1.6399335 -0.60954845 1.7027115
-1.2588315 -0.58413148 1.6862843
-1.3120606 -0.58367229 1.6937567
-1.3642948 -0.58929312 1.7013673
-1.4230986 -0.59562927 1.7026699
-1.4814942 -0.60878265 1.7182115
-1.5396806 -0.60706526 1.7095581
-1.1266595 -0.60158265 1.7160856
-1.1762646 -0.60592878 1.7100351
-1.2227769 -0.60879976 1.7103117
-1.2867708 -0.60128713 1.7123272
-1.3368596 -0.61819547 1.726393
-1.4166318 -0.64406347 1.7017242
-1.0612212 -0.62634706 1.7002704
-1.1006358 -0.62810266 1.7185031
-1.160074 -0.62652683 1.7085272
-1.2055728 -0.63563627 1.7226195
-1.0498933 -0.66034627 1.7005776
-1.0831462 -0.67518461 1.7365854
-1.3551964 -1.4052541 1.7085735
-1.397488 -1.4045053 1.7112743
-1.4273027 -1.4283756 1.7140335
-1.336308 -1.4462814 1.7059742
-1.3512264 -1.4744524 1.7255473
-1.4484519 -1.4607847 1.706381
-1.4783622 -1.494426 1.7115549
-0.84952521 -1.3858521 1.7100824
-0.90666926 -1.3871872 1.7074441
-0.9600572 -1.4113724 1.7101115
-0.9979279 -1.4346976 1.7003111
-1.3409467 -1.4805075 1.6963575
-1.3692321 -1.5079056 1.7072442
-1.400565 -1.5389904 1.7124628
-0.83962029 -1.4262302 1.7129569
-0.87843835 -1.464747 1.7036287
-0.9181183 -1.4874787 1.6900034
-1.0084301 -1.4522963 1.7090507
-1.0611575 -1.4738699 1.6940848
-1.4187149 -1.5762346 1.7055519
-1.4458913 -1.6108398 1.7151295
-0.89360386 -1.4862123 1.7260053
-0.93292874 -1.5057406 1.710824
-0.98016107 -1.5441568 1.7081667
-1.0144064 -1.5709243 1.6901408
-1.4397701 -1.6386434 1.7201679
-0.97776824 -1.5743786 1.7334844
-1.0258201 0.42386791 1.7945238
-1.0726383 0.41895914 1.7920295
-1.1249415 0.39709869 1.7938985
-1.1670736 0.37445989 1.7984779
-0.96845686 0.37126052 1.7929045
-1.0020751 0.38016954 1.7831666
-1.0594944 0.36337245 1.7736777
-1.1214304 0.34854943 1.7812526
-1.1726092 0.33160666 1.7893609
-1.2204947 0.30648634 1.7940178
-1.2711291 0.28409201 1.7981961
-0.95041686 0.33221388 1.7861398
-0.98754817 0.32490724 1.7659291
-1.0447203 0.30868596 1.7577385
-1.1047277 0.29321563 1.7649233
-1.1604317 0.27764073 1.774452
-1.2177203 0.26201811 1.7832004
-1.2775046 0.24736243 1.791093
-1.3315843 0.21863905 1.7935163
-1.3860691 0.20001662 1.7982394
-0.92883676 0.28127754 1.7809371
-0.969836 0.2710582 1.7504741
-1.033326 0.25908911 1.743867
-1.091264 0.23830625 1.7496998
-1.1463202 0.2208021 1.7586766
-1.2006966 0.20592263 1.7678559
-1.2606298 0.19227344 1.7768499
-1.3225592 0.17167687 1.7822839
-1.3797902 0.16357741 1.7892014
-1.4332521 0.14303175 1.792366
-1.4935426 0.12001222 1.7939707
-1.5489724 0.10790089 1.7933036
-1.6046141 0.091180623 1.7929071
-1.6381882 0.070632458 1.7968081
-0.91067988 0.21682346 1.7715478
-0.93978143 0.21895236 1.7439903
-1.097644 0.19370416 1.7415602
-1.1340313 0.16295078 1.7440662
-1.1850971 0.14630643 1.7533257
-1.2459096 0.13124499 1.7621896
-1.3078624 0.11216143 1.7684122
-1.3628248 0.10127625 1.7746921
-1.4189111 0.08411935 1.7780069
-1.4789342 0.065493345 1.7811586
-1.5342392 0.050942034 1.7808369
-1.5896484 0.03678143 1.7793998
-1.6440408 0.018611819 1.7877681
-0.89380926 0.1661011 1.7669429
-0.92000633 0.17756169 1.7408359
-1.1769167 0.099577904 1.7423408
-1.2322241 0.076818436 1.7474589
-1.2917278 0.057442307 1.7542397
-1.3472787 0.044728309 1.7605084
-1.4030261 0.029707372 1.7659621
-1.4626054 0.0075824857 1.7689756
-1.519706 -0.0082399845 1.7687637
-1.5751064 -0.019704849 1.7672189
-1.6377387 -0.034474611 1.7752337
-1.6731429 -0.054495275 1.7928365
-0.88456506 0.10652155 1.7660581
-1.2403269 0.032963961 1.7412541
-1.2813141 0.0043120384 1.7437513
-1.3319713 -0.011938453 1.7491932
-1.3877428 -0.028431654 1.7547868
-1.4493454 -0.047628373 1.7569286
-1.5045363 -0.063284993 1.7568303
-1.5593992 -0.075622469 1.7557819
-1.6236818 -0.09052366 1.7596158
-1.6709913 -0.1074183 1.7836999
-0.87561893 0.048725024 1.7634822
-0.88163638 0.03875269 1.7895287
-1.3343325 -0.058082074 1.7412943
-1.3723176 -0.085578501 1.7435533
-1.4338691 -0.10457996 1.7451965
-1.4889585 -0.11804694 1.7455039
-1.5451112 -0.13847283 1.7438134
-1.6082966 -0.14890477 1.7441319
-1.6664002 -0.16750181 1.7711523
-1.6952901 -0.19461273 1.7916467
-0.8630777 -0.01458317 1.754326
-0.87101942 -0.02541627 1.7822545
-1.6228647 -0.19493888 1.7408359
-1.6511868 -0.22756223 1.7546462
-1.6862894 -0.24006233 1.7834495
-0.84961879 -0.071375415 1.7464606
-0.8620075 -0.079235047 1.7787821
-1.642354 -0.28625685 1.7513444
-1.6745181 -0.29239127 1.7812353
-0.8420223 -0.10223348 1.7408359
-0.85492218 -0.1352696 1.7717764
-1.5766289 -0.35255063 1.7412623
-1.6211046 -0.34208691 1.7639798
-1.659283 -0.33084801 1.7901039
-0.84563196 -0.1961509 1.7657816
-0.88364369 -0.21923612 1.7905326
-1.4980549 -0.39707902 1.7418913
-1.5440761 -0.38655761 1.7610724
-1.5926201 -0.37549263 1.7795966
-0.84296685 -0.2528916 1.7534432
-0.89382017 -0.26983479 1.7753204
-0.92024052 -0.30127317 1.7916467
-1.1815115 -0.35661793 1.7418365
-1.2355133 -0.37947178 1.7532874
-1.2914273 -0.39385766 1.7634569
-1.3446742 -0.41265777 1.7691454
-1.3997371 -0.43261334 1.7821184
-1.474647 -0.43417397 1.7648981
-1.5071814 -0.42576158 1.7850884
-0.88595361 -0.30803829 1.7529207
-0.93719965 -0.33426988 1.763202
-0.9832601 -0.3624658 1.7619346
-1.0459386 -0.38495809 1.7567002
-1.0950426 -0.40628341 1.7651254
-1.1694905 -0.40415573 1.7655777
-1.2164752 -0.41058299 1.786647
-1.4078623 -0.44046393 1.7641857
-1.446748 -0.4513945 1.7699132
-1.0623282 -0.40925857 1.7408359
-1.1026592 -0.42565334 1.7697591
-1.1560854 -0.45199764 1.7864232
-1.1920642 -0.47415662 1.7953898
-1.1599844 -0.53572106 1.7981236
-1.1874112 -0.54624057 1.7892774
-1.2251108 -0.56946063 1.788238
-1.4894484 -0.63012844 1.7447584
-1.5205659 -0.6269471 1.751063
-1.1348873 -0.59016037 1.7684184
