# .PCD v0.7 - Point Cloud Data file format
VERSION 0.7
FIELDS x y z
SIZE 4 4 4
TYPE F F F
COUNT 1 1 1
WIDTH 1431
HEIGHT 1
VIEWPOINT 0 0 0 1 0 0 0
POINTS 1431
DATA ascii
-0.067256659 -0.36388353 1.0190403
-0.11579672 -0.36331043 0.98392105
-0.16253629 -0.36118382 0.95295548
-0.50129521 -0.36328864 0.7673955
-0.54471409 -0.36970928 0.75995612
-0.59396148 -0.39385962 0.73265636
0.21820116 -0.45561922 1.2012343
0.20831031 -0.42665237 1.1866536
-0.54878229 -0.44204471 0.75245136
-0.60284412 -0.44598898 0.7306084
-0.61608458 -0.45321357 0.69960433
0.2258735 -0.48661417 1.1828457
-0.22050115 -0.7114749 0.92204267
-0.13505465 -0.77046949 0.97258353
-0.14105645 -0.77830994 0.96167153
-0.24538018 -0.74759239 0.92565948
-0.26323044 -0.76714063 0.93269479
-0.14327991 -0.80780369 0.99727237
-0.15940842 -0.82379258 0.95169455
-0.23050243 -0.80992925 0.93562061
-0.27220455 -0.78947812 0.95044357
-0.15063116 -0.86779457 1.0021112
-0.16114867 -0.86591536 0.95900577
-0.23831077 -0.86569589 0.92979234
-0.26939473 -0.88999897 0.9456169
-0.15914127 -0.92690271 1.0058035
-0.16543725 -0.93104678 0.96137863
-0.23447253 -0.93047482 0.92952013
-0.27115422 -0.92350453 0.94847041
-0.098599136 -1.0160509 1.0307993
-0.14173374 -1.001767 1.0054893
-0.1649943 -0.99117023 0.96108317
-0.23144554 -0.99142176 0.92637891
-0.28481182 -1.0033092 0.91944969
-0.33601385 -1.0130688 0.88628846
-0.37760919 -1.0161563 0.84825772
-0.41687074 -1.0184315 0.80758941
0.13889256 -1.0751855 1.1292639
0.083277017 -1.0663183 1.113607
0.028083175 -1.0517097 1.0935012
-0.0250763 -1.0332016 1.0620607
-0.070239753 -1.027017 1.0302068
-0.11252609 -1.0280389 0.98328918
-0.2723428 -1.0303273 0.88737565
-0.32711729 -1.0298238 0.8666243
-0.39879844 -1.0315372 0.86051404
-0.44655254 -1.0451223 0.82744604
-0.49062368 -1.0529482 0.78937232
-0.53743744 -1.0608225 0.74958819
-0.58041328 -1.0693241 0.714369
-0.60907817 -1.0798688 0.68928009
0.18309727 -1.0985932 1.1499283
0.13601643 -1.1089094 1.1328387
0.085830152 -1.1156015 1.1157455
0.027993649 -1.1174288 1.0926766
-0.022626013 -1.1279037 1.0627534
-0.077436715 -1.1200311 1.0254681
-0.12631547 -1.1107596 0.99585915
-0.17132214 -1.1041777 0.95968401
-0.23443268 -1.1083568 0.94092405
-0.28418183 -1.1126822 0.91036719
-0.3326723 -1.1085031 0.87923384
-0.38555509 -1.1123793 0.85218918
-0.436021 -1.1102459 0.8179763
-0.4853453 -1.1068524 0.77981842
-0.53360814 -1.0975109 0.74383265
-0.57805783 -1.0899789 0.71095753
0.089623451 -1.1412709 1.0948546
-0.63415372 -1.1888775 0.68526322
-0.68001592 -1.193058 0.6494028
0.24382314 -1.216525 1.1833153
0.20646098 -1.2129418 1.1640322
-0.66780567 -1.2059807 0.67931008
-0.69111031 -1.2038547 0.65833342
0.20294809 0.070523635 1.2932032
0.22974473 0.018620007 1.305068
0.21280885 0.038606223 1.2957501
-0.63035512 0.027434008 0.78638268
-0.68331438 0.031481031 0.75646526
-0.70957667 0.016940158 0.71897036
0.246521 -0.031677425 1.3152359
-0.64502841 -0.00063243025 0.77388769
-0.67361748 -0.0050697583 0.74341476
-0.69839013 -0.0061081564 0.71483988
0.25357974 -0.07802286 1.3216628
-0.68952787 -0.1081787 0.71693391
-0.7262975 -0.1026379 0.70473778
-0.74640745 -0.092542298 0.68374956
-0.68981695 -0.17519261 0.71743459
-0.72084612 -0.15426362 0.71975464
-0.68001294 -0.21367036 0.73988366
-0.71268636 -0.2064756 0.72304612
-0.65640438 -0.29525721 0.78021783
-0.6782819 -0.27060905 0.75475687
-0.70599353 -0.25018275 0.73500431
0.038184166 -0.35610932 1.184319
-0.0031706095 -0.35474858 1.1471382
-0.053877503 -0.35245168 1.1133993
-0.10697392 -0.35098469 1.0802481
-0.15914804 -0.35004932 1.0492018
-0.20976603 -0.34825337 1.0251867
-0.26549733 -0.34501103 0.99755681
-0.31584716 -0.3428596 0.96384269
-0.36481053 -0.34292889 0.93608022
-0.41813335 -0.3426246 0.90476626
-0.47098932 -0.34419447 0.87680149
-0.52525508 -0.35237244 0.84221232
-0.56356144 -0.35861889 0.8338207
-0.6532172 -0.32692683 0.78765011
-0.67312825 -0.32307449 0.76715487
0.15351969 -0.39249429 1.23464
0.10055465 -0.3685849 1.2044322
0.065120995 -0.36376902 1.1667123
0.033544928 -0.36092401 1.139866
-0.58286959 -0.37264714 0.8125639
-0.61069053 -0.39705977 0.79083014
0.19107518 -0.43912685 1.2533648
0.19346109 -0.42090672 1.2202863
-0.57943606 -0.42464337 0.8055023
-0.61416698 -0.42743453 0.77730763
-0.27138117 -0.75772053 0.97667807
-0.26740956 -0.81139857 0.98375636
-0.16278228 -0.87637246 1.0459296
-0.22695577 -0.86918384 1.0196327
-0.26373905 -0.87052226 0.99115819
-0.17542404 -0.92601752 1.0433354
-0.193124 -0.95034003 1.0405301
-0.27298719 -0.92935485 0.99736834
-0.28116801 -0.93886179 0.96461552
-0.12765601 -1.0157241 1.0616713
-0.15989777 -0.9928441 1.0539788
-0.2173062 -0.9979955 1.0392172
-0.26774496 -0.97283232 1.0142637
-0.31302032 -0.99369115 0.96554214
-0.33816653 -1.0135332 0.93086362
-0.0068637133 -1.0711027 1.1122794
-0.048470616 -1.0636187 1.0978296
-0.10714015 -1.0467623 1.0856873
-0.21671677 -1.0315708 1.0415691
-0.2677635 -1.0734888 0.99478149
-0.32317954 -1.0670863 0.96710724
-0.3611477 -1.0483488 0.93300653
-0.40617272 -1.0563585 0.89110011
-0.4450995 -1.0614046 0.8586399
-0.0096426308 -1.0910368 1.1029801
-0.038401008 -1.0972751 1.0993005
-0.10393164 -1.1223606 1.0677724
-0.13336653 -1.1145729 1.0424966
-0.26268095 -1.0914961 0.97637498
-0.30538726 -1.0981984 0.94894713
-0.35133785 -1.095068 0.91689956
-0.38760811 -1.0910368 0.88646388
0.14399225 0.45584834 1.3283049
0.12492901 0.43907583 1.3099697
0.1690383 0.36984819 1.3407677
0.11610383 0.38988104 1.3024167
0.19770747 0.3199949 1.3530411
0.16897905 0.32915813 1.3334758
0.11309832 0.32652682 1.3004754
0.21197164 0.26813474 1.3483425
0.17324406 0.27343345 1.3244435
0.12236309 0.2704432 1.3006033
0.26198381 0.18929885 1.3717961
0.22995126 0.20886225 1.3436331
0.17556721 0.21043314 1.3149061
0.13132733 0.21134742 1.2974607
0.27571058 0.14840329 1.3714931
0.23045796 0.14889082 1.3282562
0.18087727 0.1451938 1.3047713
0.13848311 0.15029353 1.3050152
0.28447634 0.091036081 1.3696491
0.23617405 0.089521468 1.3254534
0.17839265 0.091660365 1.2997218
0.1299358 0.09242104 1.3108913
-0.65969354 0.060712576 0.85140765
0.29897213 0.01964256 1.4100881
0.28976625 0.030424079 1.3649621
0.24516547 0.037343379 1.3267961
0.17899269 0.030615406 1.3035666
0.12764174 0.029452696 1.3041505
-0.621629 0.035443161 0.86061507
-0.65298504 0.033514205 0.83595794
-0.69460118 0.029637769 0.80489361
0.30445939 -0.028552944 1.4065489
0.29341829 -0.029854039 1.361734
0.23044026 -0.028981479 1.3167971
0.18258089 -0.027981918 1.3034513
0.12780899 -0.032647707 1.2992009
0.30791652 -0.09421093 1.4059039
0.29134136 -0.090406083 1.3588448
0.23265678 -0.096529543 1.319124
0.18101728 -0.091855042 1.3021877
0.12284321 -0.09162236 1.2978516
0.31510651 -0.15432963 1.402873
0.29036951 -0.15135345 1.3605959
0.23665053 -0.15110783 1.3251112
0.17939764 -0.15480435 1.3091583
0.12524617 -0.15062766 1.3034663
0.32082039 -0.20665133 1.4065731
0.28701192 -0.20815304 1.3639506
0.22453165 -0.20794946 1.339643
0.17116356 -0.19282159 1.3279202
0.13114429 -0.19073421 1.3136401
0.31995839 -0.2685551 1.4083059
0.27975857 -0.26942375 1.3732347
0.22434753 -0.26900771 1.3473563
-0.66863585 -0.29804972 0.7989521
-0.69515747 -0.28831092 0.78503752
0.31371647 -0.3260648 1.4120864
0.27351725 -0.32733589 1.3834502
0.22104156 -0.32959101 1.354116
0.059300125 -0.35541338 1.2468621
0.023353398 -0.34946558 1.2247162
-0.030764461 -0.34437072 1.1954283
-0.081665277 -0.34162432 1.1617438
-0.13392425 -0.34028608 1.1285858
-0.18671161 -0.34057039 1.0995755
-0.23537788 -0.33939779 1.0697293
-0.29368266 -0.33596879 1.0460815
-0.34646374 -0.33424455 1.0165257
-0.39437577 -0.33470801 0.9867391
-0.44565004 -0.33593568 0.95348907
-0.50078869 -0.34146872 0.92090631
-0.55278271 -0.350337 0.88961399
-0.58038408 -0.35537556 0.87385768
-0.66344219 -0.33874896 0.82661176
-0.69863158 -0.33137301 0.80463338
0.30642021 -0.38322759 1.4141945
0.27311456 -0.38905719 1.387465
0.22998554 -0.38709709 1.3588923
0.1243977 -0.39178091 1.2831061
0.085731804 -0.36472315 1.2592435
-0.61319983 -0.38632259 0.86001509
-0.65479213 -0.37913725 0.84058142
-0.68970299 -0.36828935 0.81854486
0.29922193 -0.42649078 1.4168428
0.2692259 -0.44687074 1.3872013
0.23724866 -0.44582316 1.3660021
0.16472805 -0.43086705 1.294081
0.13756067 -0.42090672 1.3123262
-0.59900045 -0.42060816 0.87586182
0.2641052 -0.50822049 1.386709
0.23515487 -0.50857252 1.3717141
0.25844985 -0.57128817 1.383209
0.22929877 -0.57430869 1.3688834
0.24574691 -0.61077648 1.3866072
0.2243188 -0.63855749 1.3628689
0.22546846 -0.67342073 1.3668656
-0.26409411 -0.84532267 1.0306435
-0.19395313 -0.91415375 1.0861725
-0.25637862 -0.93839675 1.0362792
-0.16521591 -1.0111141 1.1282822
-0.1842519 -0.99380207 1.1032703
-0.24942398 -0.99935836 1.0748396
-0.28114781 -0.98630732 1.0455453
-0.34721673 -0.99841082 1.0101879
-0.15148029 -1.0490651 1.1229736
-0.24496317 -1.0349594 1.0601848
-0.29554293 -1.0646936 1.0403243
-0.34960693 -1.0554316 1.0097446
-0.37847084 -1.0329795 1.0080156
-0.12012297 -1.0848229 1.1156361
0.13096082 0.5592556 1.3839519
0.083627641 0.56496322 1.3555696
0.048187494 0.55450666 1.3421062
0.22048783 0.48975217 1.4362321
0.18577051 0.50291884 1.4059048
0.14892679 0.51118231 1.3673892
0.094157696 0.5104661 1.3347296
0.053529561 0.50915414 1.3389902
0.22281247 0.46518809 1.435248
0.18919921 0.45185864 1.4051011
0.15922225 0.44986427 1.3528678
0.091987193 0.45478752 1.3176606
0.055628896 0.44747171 1.3363914
0.21121985 0.37037754 1.4360056
0.19391716 0.38841507 1.3977199
0.15784132 0.39502582 1.3445174
0.087900996 0.38548917 1.3136816
0.055185139 0.38883522 1.3359237
0.21633589 0.32461441 1.436705
0.20500368 0.32965684 1.3929896
0.13846654 0.34602132 1.328748
0.089724362 0.32984456 1.3198254
0.047009051 0.32621315 1.3362242
0.21967572 0.26915723 1.4330318
0.21643889 0.27394998 1.3933722
0.081046641 0.27060971 1.3188368
0.044068933 0.27250168 1.3312867
0.23866254 0.20212825 1.4183658
0.22513717 0.2239712 1.395474
0.088943303 0.20990479 1.3212492
0.040623307 0.20902856 1.3269619
0.26041943 0.15548073 1.4305241
0.093628824 0.14793698 1.317717
0.038852215 0.14814247 1.322768
0.28260881 0.072757274 1.4332588
0.27720499 0.097837985 1.4329246
0.092724264 0.094306529 1.3125826
0.038692713 0.092236385 1.3176601
-0.64682436 0.064055085 0.92153567
-0.66694796 0.062158838 0.8890186
0.28886205 0.029727809 1.4362574
0.27026451 0.058711849 1.4433011
0.089179277 0.033777595 1.3076721
0.036807179 0.031036271 1.3136579
0.0023512244 0.0035091024 1.3153054
-0.61804241 0.047093716 0.95194614
-0.63155079 0.035857189 0.91321564
-0.6865173 0.036597975 0.88580084
-0.70039994 0.032159392 0.8460865
0.29189837 -0.033047739 1.4396601
0.088734806 -0.028400967 1.3028517
0.04217422 -0.030183712 1.3084577
-0.0011770129 -0.032478411 1.3139066
0.29060918 -0.089230284 1.4469539
0.22751045 -0.11587284 1.434494
0.19893187 -0.119348 1.4174328
0.085256398 -0.091425456 1.3006335
0.040559113 -0.091752931 1.3051554
-0.0020608306 -0.090941839 1.3124615
0.29715449 -0.15089831 1.4525592
0.22476184 -0.1518278 1.4335804
0.19016832 -0.15461139 1.4154975
0.089249849 -0.16068792 1.3042848
0.041675568 -0.15265828 1.3067731
-0.0018240809 -0.15111424 1.3124479
0.29934776 -0.20981047 1.4627569
0.23398483 -0.21236505 1.4411691
0.19754297 -0.20599496 1.3940048
0.14776546 -0.2153821 1.3696835
0.094609082 -0.2152563 1.3343453
0.036868334 -0.20374718 1.3188709
0.29824024 -0.27287686 1.4624865
0.23383254 -0.26955724 1.4412507
0.20963901 -0.27170476 1.3914487
0.31529433 -0.33278942 1.4601126
0.22723198 -0.32770532 1.4433299
0.20208508 -0.33191496 1.3973429
0.032494068 -0.35612833 1.2802844
-0.0085591078 -0.34734505 1.2789218
-0.06399104 -0.33644581 1.2477927
-0.11362851 -0.33127615 1.215505
-0.1651282 -0.32974365 1.1832157
-0.21851858 -0.32913524 1.1522603
-0.26674321 -0.32818949 1.1238739
-0.3217161 -0.32533872 1.0987779
-0.37479693 -0.32584426 1.0653136
-0.42068598 -0.32851121 1.0349851
-0.47464463 -0.3316865 1.0063885
-0.53344816 -0.34010035 0.97335708
-0.57759404 -0.35196668 0.94375753
-0.64895749 -0.35178673 0.92203313
-0.68610805 -0.34475586 0.88570112
-0.71052909 -0.34526375 0.84993607
0.30878943 -0.39082184 1.4588816
0.22150958 -0.39350024 1.4357636
0.20914233 -0.38519961 1.396161
0.089848042 -0.39517957 1.3179555
0.04242301 -0.37493017 1.3115898
-0.60334933 -0.36455816 0.95848662
-0.62869364 -0.37951607 0.90649289
-0.68715012 -0.39005625 0.88442504
-0.70760572 -0.36423758 0.8596189
0.29969144 -0.44899583 1.4511569
0.2333259 -0.45282644 1.4298556
0.22434747 -0.44575962 1.3934444
-0.63444459 -0.42685491 0.91890055
-0.67368633 -0.42085469 0.91639614
0.28275913 -0.50730544 1.4565378
0.25009286 -0.51251906 1.4259417
0.22475868 -0.51000035 1.3957593
0.26835364 -0.54823112 1.4585633
0.25443381 -0.57071549 1.430892
0.21657383 -0.57377529 1.3990084
0.25139862 -0.63180983 1.4271985
0.22327888 -0.63360953 1.3837557
0.26796532 -0.69042444 1.4671345
0.25263691 -0.69057333 1.425192
0.22865397 -0.67499757 1.3825438
0.24324638 -0.72720164 1.4459364
-0.14579636 -1.0020626 1.2256387
-0.1687493 -0.98947877 1.1864135
-0.20820409 -0.9722262 1.1557178
-0.28536373 -1.0022763 1.1183785
-0.32209846 -0.9877854 1.0965612
-0.37446541 -0.9819417 1.0628482
-0.41995785 -0.99945974 1.0476065
-0.14919636 -1.0240242 1.2278093
-0.17376769 -1.0391904 1.188298
-0.20674336 -1.0498457 1.1580243
-0.28987706 -1.0316839 1.1191336
-0.31550765 -1.0488584 1.0960016
-0.37669396 -1.0661125 1.0674915
-0.41956833 -1.0496038 1.0446348
-0.41777742 -1.0800631 1.0727439
0.13199931 0.6624729 1.4607666
0.10520756 0.67538959 1.4346781
0.053311646 0.67234552 1.4086882
0.0043833852 0.66677785 1.3805925
0.18301153 0.6006031 1.4840995
0.15368116 0.62387103 1.4574614
0.11407644 0.62834942 1.4210716
0.066887856 0.63178211 1.3865509
0.011485994 0.62989259 1.3662448
0.21153653 0.56755304 1.4814719
0.1639064 0.57217765 1.4526503
0.13224655 0.58231539 1.4080851
0.071928144 0.59329146 1.3650558
0.016478837 0.57319862 1.3619591
0.23597008 0.50834179 1.5146751
0.22775835 0.51419872 1.4754765
0.17972451 0.53217024 1.433681
0.012009919 0.51252687 1.3606989
-0.031807125 0.49399763 1.3621899
0.23957235 0.42626131 1.5183618
0.22869134 0.44675699 1.4774112
0.19966394 0.43909511 1.4377966
0.014478981 0.45158133 1.3533729
-0.035560727 0.44697285 1.3557732
0.25370276 0.38410679 1.5087509
0.23323131 0.39090195 1.4642571
0.19943327 0.41675738 1.4333165
0.013763249 0.3899321 1.345964
-0.038293898 0.38805655 1.3501809
0.26264822 0.32864103 1.5054071
0.2402063 0.32900172 1.460937
0.012399852 0.32876414 1.3398247
-0.039265811 0.32710892 1.3436468
0.26283419 0.27083153 1.507226
0.24090338 0.27296862 1.4657745
0.19009328 0.2462831 1.4494939
0.0085313916 0.27314562 1.3349214
-0.04249531 0.27046362 1.3394263
0.25825775 0.21290845 1.5090916
0.22707319 0.20887335 1.4677422
0.19181335 0.23805578 1.4494195
0.006989181 0.21013364 1.330063
-0.041252434 0.20938669 1.3352245
0.2505095 0.16328761 1.5108429
0.23014581 0.16127217 1.4833864
0.0042893291 0.15490432 1.32687
-0.04113239 0.14814077 1.3319557
-0.079922557 0.14870517 1.3363974
0.0059615374 0.10402929 1.3216671
-0.033853233 0.092339285 1.3274806
-0.078297853 0.094291411 1.3329718
-0.63457954 0.067518376 0.99696416
-0.66124576 0.068140514 0.97062594
0.0066223145 0.05935356 1.3205225
-0.036181331 0.031542413 1.324048
-0.083333075 0.03039844 1.3294346
-0.62525308 0.041059449 0.99406993
-0.66960835 0.034413546 0.96772677
-0.69216871 0.044866949 0.93734562
-0.036375761 -0.028369913 1.3203348
-0.084243059 -0.031226395 1.3237078
-0.038805187 -0.092117503 1.3172848
-0.087863624 -0.093079217 1.3217946
0.26484013 -0.1461038 1.4928302
0.20796448 -0.17357376 1.4558305
0.17937678 -0.17481203 1.4376047
0.1227091 -0.17481415 1.4075787
-0.03640157 -0.1541598 1.3161521
-0.089914322 -0.152854 1.319443
0.27644598 -0.21411669 1.4919915
0.21360838 -0.20699988 1.4797561
0.16960067 -0.18672906 1.4642913
0.11785012 -0.20442489 1.4003752
0.063175082 -0.21776791 1.3937082
0.015512168 -0.23039824 1.3374342
-0.036066413 -0.21302012 1.3262856
-0.085926175 -0.20537652 1.325137
0.26297379 -0.25451842 1.5002003
0.23081738 -0.27321362 1.485193
0.045818806 -0.24267942 1.3842418
0.0093464255 -0.24773754 1.3682501
-0.041236818 -0.24234338 1.3516526
-0.081186414 -0.24220514 1.3385864
-0.63967627 -0.2902135 1.0100065
-0.66715324 -0.2886588 0.99331814
0.25841188 -0.35234761 1.4998126
0.23815751 -0.3289046 1.4820882
-0.03864944 -0.35406411 1.3130088
-0.091565937 -0.34743848 1.2982752
-0.14384305 -0.33256176 1.2711226
-0.19735652 -0.3209818 1.2401226
-0.24962577 -0.31869921 1.2060671
-0.29689142 -0.31773102 1.1762261
-0.35147595 -0.31637898 1.1477779
-0.40460232 -0.31914505 1.114876
-0.45303947 -0.32271633 1.0937039
-0.51128554 -0.33011588 1.0579243
-0.55796301 -0.34674147 1.0282428
-0.6338219 -0.33344468 0.99996144
-0.6653142 -0.33313137 0.96859473
-0.70852709 -0.34760892 0.94078219
0.29803836 -0.39856854 1.5247145
0.26696604 -0.39250687 1.5048933
0.2393052 -0.38708314 1.4800059
0.0046583414 -0.37971801 1.3305696
-0.034007072 -0.37233236 1.3294734
-0.083206117 -0.36569393 1.3292015
-0.45428288 -0.37597108 1.1054953
-0.53446794 -0.38722509 1.0585494
-0.57542753 -0.37774199 1.0370497
-0.61455423 -0.38351884 0.99828905
-0.66970092 -0.39583325 0.9638254
-0.7161274 -0.38514093 0.93761522
0.26340944 -0.44618055 1.5042013
0.24072814 -0.45434698 1.4783649
-0.67098874 -0.42582205 0.94492799
0.26484627 -0.51041001 1.5055063
0.22135937 -0.50692666 1.4746106
0.24850488 -0.55978179 1.5092189
0.22461712 -0.57352114 1.4759545
0.24104631 -0.610502 1.5176059
0.22235799 -0.62642765 1.477079
0.25978613 -0.69296575 1.4913008
0.24249798 -0.67244714 1.4915696
0.25877124 -0.72269613 1.4851118
0.24089634 -0.73435521 1.475067
-0.17487136 -0.95920169 1.2774758
-0.18104878 -0.95703763 1.2621818
-0.12792256 -0.99051785 1.3063318
-0.1457321 -0.98886597 1.2681465
-0.17498261 -0.97308612 1.2320845
-0.22699293 -0.98014843 1.1941992
-0.30642027 -1.0117524 1.1589097
-0.3602328 -1.0023721 1.1386964
-0.40300411 -0.97430342 1.1221943
-0.45651299 -0.97743672 1.0842825
-0.49648649 -0.99798644 1.0768726
-0.15359959 -1.036074 1.265296
-0.18496284 -1.0514307 1.2303143
-0.21126586 -1.0463624 1.2048713
-0.30992672 -1.0294701 1.1539953
-0.34709159 -1.0331913 1.1427407
-0.41386646 -1.0549613 1.1130557
-0.45558435 -1.0635283 1.0860965
-0.4940432 -1.0374584 1.0775806
-0.43303424 -1.0810926 1.0768332
0.030661583 0.73611408 1.4437457
-0.020697534 0.73823619 1.4244244
-0.063761532 0.72633916 1.4126453
0.12090737 0.66775131 1.4913505
0.090185046 0.69758683 1.4694322
0.044692755 0.70228237 1.4236925
-0.015154719 0.69636589 1.3993185
-0.06716615 0.68955177 1.3916391
-0.10998833 0.7015633 1.3884727
0.16983503 0.61153913 1.5172995
0.1481567 0.63702685 1.5004987
-0.026655912 0.62634999 1.3847136
-0.068694949 0.626881 1.3940923
-0.10970241 0.60662848 1.3879775
0.22117883 0.55001849 1.5498196
0.1996091 0.57854235 1.5324929
-0.024005055 0.57789016 1.3810303
-0.066553354 0.57243699 1.3792734
-0.11558264 0.5664773 1.3762453
0.22949994 0.51427561 1.5401504
0.20519626 0.4903447 1.5572531
-0.064053178 0.51473016 1.3656883
-0.12168089 0.50946629 1.3652043
0.22832358 0.44325548 1.5350646
0.21457165 0.46735674 1.5403786
-0.068826139 0.45279691 1.3577923
-0.12426084 0.45031971 1.3593823
-0.16880605 0.42792624 1.3563191
0.2434988 0.39076698 1.5517582
-0.072400391 0.3949948 1.3521419
-0.12340137 0.38783494 1.3544649
-0.16798171 0.38883525 1.3548912
0.2565158 0.325894 1.5602527
-0.075424016 0.33187157 1.3468964
-0.11941686 0.32711253 1.3499115
-0.16854391 0.32581103 1.3496554
0.25716996 0.27215916 1.5599229
-0.08146894 0.28273115 1.3442999
-0.11854222 0.27020392 1.3460751
-0.17311594 0.27258459 1.3448254
0.25130004 0.20793672 1.56304
-0.082629919 0.23805577 1.3436296
-0.11357242 0.20920523 1.3415074
-0.17295781 0.20902848 1.3415377
0.24927026 0.15957922 1.5547341
-0.11771005 0.14939566 1.3376467
-0.17689303 0.14808373 1.3369911
-0.11931664 0.093381748 1.3346279
-0.18013915 0.092577174 1.3338046
-0.61649913 0.069112524 1.0825791
-0.6426568 0.070913129 1.0476325
-0.676449 0.067602947 1.0193325
-0.12034279 0.032043163 1.3309634
-0.17833367 0.030850731 1.3302817
-0.2163285 0.031431943 1.3269414
-0.61427212 0.050365422 1.0824845
-0.63789654 0.037456218 1.0465978
-0.68693435 0.045371477 1.0190835
-0.12394622 -0.030272281 1.3268507
-0.17723837 -0.029688807 1.3247086
-0.21779451 -0.03620135 1.3228608
-0.12486032 -0.087871775 1.3228576
-0.17165592 -0.092019573 1.3217723
-0.21917903 -0.090697393 1.3194798
-0.62380362 -0.11934808 1.0945284
-0.64269471 -0.11934808 1.0825726
-0.12609729 -0.15417811 1.3210003
-0.17160919 -0.15285397 1.3196985
-0.22181877 -0.15285401 1.3181946
-0.61688799 -0.15533686 1.0891633
-0.64947581 -0.15690593 1.0636766
-0.67898065 -0.17519259 1.0509186
0.19254959 -0.21038117 1.5220648
0.17205375 -0.18636064 1.4882171
0.031561494 -0.2080933 1.4113188
-0.010217786 -0.22365315 1.4082506
-0.062596977 -0.23197827 1.4074879
-0.12212935 -0.21654701 1.3296795
-0.17538181 -0.21099579 1.3253573
-0.21908963 -0.20088175 1.3204269
-0.61971205 -0.1969845 1.0861875
-0.63866532 -0.21097416 1.0495442
-0.68242222 -0.21581322 1.0330775
0.19314778 -0.27176547 1.5307646
-0.016422629 -0.24998878 1.3931353
-0.065958738 -0.25461364 1.3807598
-0.11964691 -0.2514962 1.3571758
-0.17481777 -0.24436863 1.342952
-0.63351345 -0.26760349 1.0475712
-0.68862212 -0.26919967 1.0169276
0.23488408 -0.33654469 1.5349361
0.19335163 -0.33315539 1.5304617
-0.12887901 -0.35415369 1.3198477
-0.17414349 -0.34648091 1.3113778
-0.2253468 -0.32720536 1.2895631
-0.27899396 -0.31016329 1.2564478
-0.32668683 -0.30942583 1.2301064
-0.38383484 -0.31382787 1.197603
-0.43341452 -0.31521586 1.1697785
-0.48432362 -0.32017666 1.1379817
-0.53630358 -0.33890426 1.109081
-0.56214643 -0.35222104 1.073572
-0.64089751 -0.33211744 1.0464412
-0.70697451 -0.3313452 1.0100492
-0.71168786 -0.3542259 0.98274851
0.24780035 -0.39384386 1.5399299
0.19415653 -0.38594407 1.5336081
-0.1152592 -0.36665767 1.3294417
-0.1571196 -0.36506227 1.3284075
-0.40162879 -0.36506227 1.1788027
-0.44080079 -0.36794174 1.1712965
-0.45369387 -0.37605843 1.1343315
-0.54798883 -0.37513182 1.1146522
-0.57135981 -0.37254226 1.0741767
-0.65789396 -0.3825382 1.0396119
-0.69888008 -0.3823958 1.0328953
-0.72742915 -0.37710074 0.98548299
0.28145778 -0.46148637 1.5821044
0.25748885 -0.44445708 1.5453929
0.1956318 -0.45012876 1.5377152
0.062869012 -0.45633817 1.475843
0.036407411 -0.44056332 1.4527968
-0.64018452 -0.42090678 1.020454
-0.68083262 -0.42089152 1.0369403
0.27173162 -0.49731654 1.5911324
0.26341528 -0.5167824 1.5590847
0.17524225 -0.50546199 1.5184104
0.23725152 -0.56949425 1.5536304
0.17661446 -0.56722736 1.5209422
0.15885997 -0.57575035 1.5077126
0.1948089 -0.63800931 1.5064611
-0.14566559 -0.95515805 1.3616209
-0.17977467 -0.95332932 1.3312532
-0.48996228 -0.95822483 1.1307051
-0.52460241 -0.95807964 1.1304458
-0.12884188 -0.98824596 1.3460186
-0.15946665 -0.97107697 1.3107673
-0.39203131 -1.012856 1.1621795
-0.43258977 -0.98975432 1.1676502
-0.4721145 -0.9645834 1.1502862
-0.540281 -0.98489672 1.1033431
-0.57969469 -1.0072711 1.1132982
-0.13621411 -1.0251628 1.3499012
-0.14821973 -1.0330656 1.3089858
-0.39124966 -1.0240242 1.1608256
-0.42448574 -1.03219 1.170234
-0.48297974 -1.0493563 1.1419446
-0.53622162 -1.0454057 1.1098814
0.041615307 0.72174853 1.505627
0.0039271712 0.73910767 1.4894934
-0.049040139 0.75901961 1.4600638
-0.095163822 0.75136471 1.4277989
-0.1503132 0.74828911 1.407131
-0.20939484 0.73983449 1.3836058
-0.26237205 0.73243284 1.3572402
0.10096085 0.66825259 1.5235943
0.059661508 0.6992209 1.5146562
0.012052059 0.71245438 1.5219373
-0.10098153 0.67086148 1.4038916
-0.14806795 0.68958819 1.3951591
-0.20994493 0.68984735 1.3826804
-0.26162818 0.6877721 1.348822
-0.31027555 0.68202102 1.3243502
-0.34758592 0.6624729 1.3196158
0.1459704 0.61001456 1.5669438
0.12186283 0.63922304 1.5402251
-0.10045749 0.64473581 1.40213
-0.14592904 0.62903965 1.3932964
-0.21120527 0.62856525 1.3878164
-0.27342227 0.63527858 1.3603048
-0.31761965 0.63235098 1.3207548
-0.36018994 0.62931097 1.2999636
0.20283026 0.54852515 1.5793574
0.17411375 0.58490103 1.5722977
-0.14932576 0.57710344 1.3776573
-0.20365784 0.57337499 1.3747029
-0.25882095 0.5686217 1.3654242
-0.34168553 0.58929765 1.3221375
-0.36857694 0.57504314 1.2979501
-0.40278101 0.55800599 1.2874849
0.20619971 0.50610787 1.5829492
-0.15762582 0.51625538 1.3662312
-0.19844392 0.51224649 1.362709
-0.26328087 0.51211309 1.3536311
-0.30458698 0.49809369 1.3452865
-0.38275665 0.51690233 1.2970662
-0.41684917 0.51239181 1.2618659
-0.46112478 0.50291729 1.2414033
0.20295972 0.47444186 1.5806279
-0.19486094 0.45116934 1.3560028
-0.26195282 0.45109794 1.3470305
-0.31233945 0.4463937 1.3371844
-0.41993812 0.45101905 1.2627114
-0.46321607 0.44769847 1.2248366
-0.19527763 0.38777298 1.3525176
-0.25496531 0.38895649 1.3441142
-0.31600398 0.38683844 1.3321197
-0.4268176 0.38892809 1.2588499
-0.46364123 0.38910079 1.2153475
0.24453205 0.31910202 1.5969849
-0.20104784 0.32642159 1.3469746
-0.25610134 0.32731655 1.3402622
-0.32043239 0.32603496 1.3275999
-0.43065357 0.32786527 1.2581284
-0.46745881 0.3273311 1.2182063
-0.20433059 0.27287626 1.3427162
-0.2535021 0.27055198 1.3370848
-0.31842768 0.27190068 1.325416
-0.35147813 0.26737398 1.3185133
-0.43635955 0.27262601 1.2583307
-0.46494511 0.27153876 1.2155638
-0.50278413 0.25760123 1.2267874
0.24310321 0.21571818 1.5961599
-0.20421952 0.21390492 1.3395767
-0.24993682 0.20957942 1.3334639
-0.31356436 0.21040528 1.3239791
-0.35450777 0.20687431 1.3159952
-0.44116792 0.21338688 1.2582941
-0.46372956 0.21083124 1.2174395
-0.50421894 0.2246531 1.225891
0.23624283 0.15987387 1.5921111
-0.20849377 0.1530861 1.3356528
-0.24952063 0.14845987 1.331774
-0.31348521 0.1487546 1.3218728
-0.36247268 0.15002371 1.3105599
-0.448116 0.15580601 1.2609776
-0.46817297 0.14710437 1.2308786
-0.50663149 0.14551498 1.2281497
-0.211528 0.098444894 1.3336787
-0.24991244 0.092446126 1.327217
-0.31481278 0.092025019 1.3182297
-0.36427981 0.091232091 1.3079916
-0.47102106 0.094124086 1.2354771
-0.50820041 0.089137778 1.2240345
-0.62956947 0.066268384 1.1141546
-0.6610322 0.066937946 1.0914415
-0.2481055 0.031064192 1.3231586
-0.3093366 0.031884894 1.3155024
-0.36883405 0.030059403 1.3018736
-0.47793001 0.033425577 1.2334622
-0.50951713 0.032607082 1.2181628
-0.62288457 0.03397784 1.1333475
-0.6668812 0.038027361 1.1064364
-0.68962425 0.055630784 1.0619488
-0.25188014 -0.029581426 1.3200886
-0.30704141 -0.031596668 1.3126099
-0.3685613 -0.028709194 1.2986943
-0.40059903 -0.043399032 1.2897745
-0.49127978 -0.026743054 1.2306892
-0.51250613 -0.032375347 1.2149397
-0.62384826 -0.032505069 1.13844
-0.67213839 -0.031134265 1.1184577
-0.25541601 -0.091169707 1.3162174
-0.30974266 -0.0920927 1.308409
-0.36610332 -0.090927385 1.2958869
-0.40314853 -0.088614956 1.2879661
-0.50058866 -0.067226306 1.2323068
-0.51625574 -0.09364482 1.2192972
-0.61907208 -0.091173992 1.1303596
-0.67206126 -0.091076463 1.0959027
-0.25833905 -0.152854 1.3150424
-0.30921897 -0.15283118 1.3065745
-0.36826393 -0.1534593 1.2961334
-0.40110034 -0.13725024 1.2895557
-0.52367765 -0.15338571 1.2145785
-0.6195429 -0.15273915 1.127164
-0.69239801 -0.14555785 1.0877168
-0.69668609 -0.1686769 1.0815181
0.14989144 -0.21986696 1.5432723
0.10401577 -0.22864677 1.5509071
0.069134653 -0.23873405 1.5473113
-0.095248699 -0.23084785 1.4204714
-0.25210279 -0.21665765 1.3241494
-0.31199497 -0.21169685 1.3155469
-0.36372986 -0.2006427 1.3053813
-0.53450072 -0.20475443 1.2073313
-0.63281751 -0.20914233 1.1247232
-0.68301743 -0.23253055 1.1274436
-0.70642555 -0.20949957 1.0796015
0.1538462 -0.26914474 1.5467402
0.11308342 -0.27191058 1.5425447
0.056883693 -0.26828456 1.5405017
-0.10950369 -0.26752728 1.4246693
-0.14965326 -0.28034183 1.394062
-0.20308301 -0.26616725 1.3723638
-0.26106459 -0.24831225 1.3547539
-0.30917028 -0.24375656 1.3342235
-0.54209244 -0.25894827 1.2060204
-0.6416707 -0.24592793 1.1175807
-0.66924518 -0.26916179 1.1094328
-0.71397817 -0.26978394 1.0728362
0.11422408 -0.3298654 1.5395179
0.053739309 -0.32914951 1.5340842
-0.11543065 -0.33149853 1.4403228
-0.15784624 -0.3321785 1.4146706
-0.19072762 -0.30921775 1.4101781
-0.25598642 -0.3389799 1.3243299
-0.30693039 -0.3337613 1.310528
-0.36081004 -0.32598168 1.2854558
-0.41311467 -0.32620132 1.2543075
-0.46580726 -0.31869251 1.2220068
-0.51306778 -0.33374715 1.1925544
-0.56034172 -0.34089544 1.1735789
-0.67070949 -0.32799658 1.088245
-0.7143091 -0.33224726 1.0602498
0.14993852 -0.39082471 1.543012
0.11558199 -0.38676077 1.5377551
0.058274508 -0.38771909 1.5347693
-0.10720801 -0.38840449 1.4382299
-0.15130168 -0.38351288 1.4061029
-0.20141861 -0.37737232 1.4034729
-0.43305358 -0.36977947 1.2538935
-0.46169358 -0.37094063 1.2218882
-0.52715021 -0.38005495 1.1901709
-0.56078053 -0.3718951 1.1679809
-0.6793893 -0.36981198 1.0677489
-0.70891452 -0.36921582 1.0511594
0.28646904 -0.46872744 1.6251214
0.1511423 -0.4488287 1.544396
0.1102829 -0.44865063 1.5334256
0.060116947 -0.44785157 1.5219723
0.0048303008 -0.43497223 1.4887393
-0.045428872 -0.43233573 1.466261
-0.098404229 -0.42698202 1.4575177
0.2740193 -0.49539554 1.6162223
0.14951909 -0.51996034 1.5422888
0.1202296 -0.51039791 1.5386022
0.071652293 -0.49227634 1.5120822
0.22764891 -0.58483565 1.6004449
0.14867365 -0.55666983 1.5489221
0.12133354 -0.55435574 1.5596823
0.20930398 -0.62340391 1.5940871
-0.13415912 -0.9500097 1.3808922
-0.18419072 -0.93937302 1.3494618
-0.52300298 -0.9574666 1.1678843
-0.56772971 -0.9534061 1.1664042
-0.61346263 -0.95715332 1.1663834
-0.11311537 -0.99354911 1.4305825
-0.12091637 -0.99098366 1.3945593
-0.46879786 -1.0012925 1.1944584
-0.51043963 -0.98424947 1.2005317
-0.57619053 -0.96596831 1.1314573
-0.60996312 -0.98816937 1.1373686
-0.11961043 -1.0240242 1.4346197
-0.13087404 -1.0243627 1.3977908
-0.45652372 -1.0245019 1.1939948
-0.50601935 -1.0353898 1.1778513
-0.56626546 -1.0464303 1.1585568
-0.61002535 -1.0354979 1.1422387
-0.031890392 0.73393679 1.5168787
-0.075846791 0.75909752 1.5078808
-0.1274187 0.76788706 1.4892391
-0.1823799 0.76467234 1.4551243
-0.23085046 0.74908215 1.4263413
-0.28861633 0.73803246 1.3924674
0.0037930012 0.71273148 1.5332144
-0.23919454 0.6624729 1.3888867
-0.27544141 0.67663842 1.3846544
-0.33657259 0.69231075 1.3647094
-0.37605682 0.66439748 1.3469318
-0.23885146 0.65130287 1.3882924
-0.27576962 0.63191658 1.375451
-0.31742525 0.61495578 1.3512567
-0.39564812 0.6409778 1.3236654
-0.44097736 0.61908025 1.3183186
-0.2903676 0.58148319 1.3640373
-0.33001664 0.57192355 1.3476044
-0.36400035 0.56184727 1.3219106
-0.43893772 0.57265073 1.2959321
-0.48582172 0.56542933 1.2877188
-0.33220178 0.51392478 1.342885
-0.37358442 0.50519675 1.3225206
-0.42784217 0.53961384 1.280048
-0.48910666 0.5154947 1.2746227
-0.3411071 0.45770961 1.3326728
-0.38237023 0.44965258 1.3209457
-0.40595797 0.44072816 1.297338
-0.49375451 0.45055202 1.276953
-0.34549668 0.39441964 1.3272932
-0.3790791 0.39111218 1.3214009
-0.41087544 0.38883513 1.2956508
-0.49751335 0.38912553 1.276878
-0.37685603 0.3276242 1.3167704
-0.41691187 0.32713684 1.2941349
-0.50986338 0.32853997 1.2663442
-0.5304113 0.30506891 1.2785516
-0.3822681 0.27052224 1.3130461
-0.42322361 0.27135843 1.2919503
-0.50749016 0.29390001 1.2401929
-0.52741575 0.26981691 1.2539805
-0.38586515 0.21172404 1.307891
-0.4272638 0.20936176 1.2902771
-0.53678936 0.2085211 1.2446734
-0.39381233 0.14870514 1.3033863
-0.43189466 0.14811148 1.2877235
-0.5448634 0.15024769 1.2387667
-0.38974187 0.095342517 1.3021663
-0.4309864 0.09337794 1.2867308
-0.45921099 0.070523582 1.2641712
-0.55067384 0.093354575 1.234567
-0.39327803 0.059353527 1.2983638
-0.42973164 0.031519923 1.2883078
-0.46995556 0.027866842 1.2628807
-0.55158263 0.034564681 1.2301028
-0.5786742 0.015383916 1.2379702
-0.64506686 0.029796416 1.1863027
-0.69298559 0.022391766 1.1552498
-0.43308353 -0.029830452 1.2840322
-0.48155928 -0.034396853 1.2622806
-0.54583019 -0.028539743 1.2252597
-0.57779461 -0.029996524 1.2340688
-0.62631941 -0.030832661 1.1933593
-0.71100008 -0.027114652 1.1473522
-0.43805242 -0.092263624 1.2817755
-0.48853937 -0.091048658 1.2621233
-0.54888242 -0.091160759 1.2231588
-0.58063173 -0.094768137 1.2331047
-0.64451748 -0.090906829 1.1940814
-0.71590453 -0.091254264 1.1439619
-0.4369688 -0.15291652 1.2865567
-0.49666712 -0.15517774 1.2716056
-0.53865045 -0.15462145 1.2261827
-0.58221567 -0.15169223 1.2321686
-0.65135384 -0.15147965 1.1735632
-0.71552366 -0.15247391 1.1423036
-0.71617615 -0.17519259 1.1197081
0.069210112 -0.23436132 1.5849485
0.048565328 -0.23843239 1.5773543
-0.23890406 -0.2324954 1.4198599
-0.28929305 -0.22836007 1.4043303
-0.34174815 -0.23303492 1.3671023
-0.38992888 -0.22617558 1.3252929
-0.43919665 -0.20400055 1.305914
-0.50817949 -0.20290689 1.2844099
-0.53180546 -0.21109386 1.2372967
-0.58120096 -0.20686652 1.2321835
-0.65811729 -0.19299363 1.1585869
-0.69364768 -0.2027014 1.1411874
-0.71686786 -0.20311388 1.1193087
0.04848516 -0.24240749 1.6059141
0.022535384 -0.25423974 1.5662296
-0.011255503 -0.27088687 1.5582321
-0.13123387 -0.28211936 1.4845936
-0.22581682 -0.26855889 1.4268856
-0.28987396 -0.25454998 1.3887697
-0.33816811 -0.25203067 1.3680743
-0.38471705 -0.24315459 1.3538302
-0.5265221 -0.24220519 1.2818645
-0.54117155 -0.27035263 1.2455053
-0.57742834 -0.27159786 1.2229638
-0.68811321 -0.2422052 1.1277333
0.016213179 -0.33232155 1.5453796
-0.0065926313 -0.3320992 1.5654559
-0.122145 -0.33005393 1.4954946
-0.22201833 -0.33097836 1.4272513
-0.38704678 -0.34164232 1.310189
-0.43914431 -0.34219304 1.2875713
-0.48336154 -0.34417397 1.2596207
-0.55241901 -0.33062446 1.2371695
-0.59240407 -0.32876009 1.2124736
0.011646211 -0.389943 1.5618699
-0.012828946 -0.36479157 1.5777373
-0.11398685 -0.40415263 1.5189744
-0.11340052 -0.38514161 1.4946458
-0.22819373 -0.37910515 1.4209917
-0.40685701 -0.39094958 1.348563
-0.43883377 -0.37200573 1.3119881
-0.49379709 -0.37481385 1.2754674
-0.53759223 -0.38628674 1.2460893
-0.59178704 -0.39103439 1.2179096
0.013518095 -0.44117326 1.5652988
-0.022048414 -0.45793766 1.5346259
-0.080666721 -0.43977448 1.5151683
-0.094501019 -0.42090672 1.4786325
-0.56125444 -0.4239254 1.2390068
-0.5840084 -0.42090678 1.2480109
0.014186561 -0.48688146 1.5754222
-0.020912051 -0.48249638 1.5469153
-0.60414386 -0.95053941 1.2078627
-0.64648306 -0.94913357 1.1892527
-0.11798513 -1.0037584 1.4708242
-0.55179191 -0.9859302 1.2253932
-0.58540589 -0.98418856 1.2323843
-0.66147178 -0.98726606 1.1730492
-0.69045484 -1.00396 1.1890743
-0.1149109 -1.0240242 1.4823549
-0.54226536 -1.0240242 1.2183657
-0.60101789 -1.0357904 1.2148982
-0.65002263 -1.038314 1.1834992
-0.68982118 -1.0297394 1.186349
-0.1554876 0.76332414 1.5088218
-0.20392293 0.75344461 1.4829288
-0.25792438 0.74462402 1.4656349
-0.30832201 0.7313751 1.4374434
-0.33844891 0.71828026 1.4471463
-0.37049052 0.70121765 1.4146303
-0.41865292 0.68238991 1.3871899
-0.46172991 0.66950566 1.3680049
-0.42337897 0.654746 1.3532449
-0.47821 0.64150649 1.3451726
-0.52352905 0.61994296 1.3357627
-0.52881163 0.57577384 1.3150698
-0.5291729 0.51241153 1.3265331
-0.48818085 0.4344804 1.3290598
-0.52207041 0.45128936 1.3273169
-0.56403089 0.42792621 1.3365078
-0.48820409 0.41609749 1.3289803
-0.51798344 0.38910794 1.3220134
-0.56600612 0.38203681 1.3247603
-0.52384037 0.33727491 1.3082865
-0.56638336 0.32266477 1.31296
-0.56942248 0.27228317 1.2991766
-0.58210135 0.21037592 1.2949574
-0.59146971 0.14948048 1.2908266
-0.5933134 0.097118616 1.2809867
-0.61587703 0.082505636 1.3037627
-0.59280586 0.052373432 1.2699367
-0.60670078 0.029527985 1.283443
-0.67357689 0.017028062 1.2185658
-0.71149063 0.014960102 1.1997941
-0.59763324 -0.033901744 1.3140891
-0.60316086 -0.027605951 1.2773099
-0.66920769 -0.025967065 1.2244506
-0.72667241 -0.023050141 1.1978383
-0.5986554 -0.087193325 1.3140056
-0.60584819 -0.094788998 1.2749529
-0.6746093 -0.084753372 1.2116717
-0.73091203 -0.087733455 1.1866351
-0.59749347 -0.15959647 1.3169461
-0.61335951 -0.15199795 1.2801645
-0.72351521 -0.12566032 1.1778814
-0.31817004 -0.22297783 1.4139873
-0.36848241 -0.22013105 1.3949467
-0.41952863 -0.2149715 1.3826344
-0.47303355 -0.21519251 1.3601419
-0.50826776 -0.22041637 1.321293
-0.58801848 -0.19089654 1.3221053
-0.61474085 -0.20830296 1.278317
-0.0038325787 -0.26033425 1.6230993
-0.039355695 -0.28053698 1.6067842
-0.1634289 -0.29372114 1.5030851
-0.22416601 -0.28529814 1.4813933
-0.22781804 -0.27347785 1.4655007
-0.37539458 -0.24220517 1.3790778
-0.3957673 -0.24301982 1.3703063
-0.50716686 -0.28645003 1.3645207
-0.51770228 -0.26733601 1.3244815
-0.54612744 -0.28856131 1.2883168
-0.61639291 -0.2688188 1.2767649
-0.033621609 -0.33549207 1.6302146
-0.02582109 -0.32949412 1.5986019
-0.15423781 -0.3375136 1.5086558
-0.20222473 -0.33034235 1.4962097
-0.23596027 -0.33248746 1.4683874
-0.50227332 -0.33323982 1.3620236
-0.52099931 -0.33173001 1.3248737
-0.56804579 -0.33703026 1.2910664
-0.61520308 -0.33244908 1.2719679
-0.031173885 -0.3832114 1.6167582
-0.030990124 -0.38971305 1.6091642
-0.11967027 -0.40179509 1.5851123
-0.1446746 -0.39010638 1.5156574
-0.20435956 -0.38825136 1.4962777
-0.24105042 -0.3871775 1.4671817
-0.3868047 -0.40141004 1.4142497
-0.41817933 -0.38649207 1.3849506
-0.47011766 -0.37623721 1.3573955
-0.51695621 -0.37716642 1.3074332
-0.57317442 -0.39039582 1.292648
-0.60321683 -0.38626954 1.2566131
-0.021543682 -0.46291044 1.6037842
-0.037010252 -0.44190279 1.6155417
-0.11170983 -0.44815075 1.5684816
-0.13017046 -0.42090672 1.5329399
-0.19988397 -0.42090082 1.4882843
-0.23357698 -0.42090672 1.4685059
-0.3551195 -0.43010303 1.4571229
-0.36446285 -0.42090675 1.4459471
-0.57467169 -0.42090678 1.3303643
0.017400146 -0.53185046 1.6600766
-0.0056747198 -0.50454003 1.6329092
-0.63793737 -0.95550984 1.2427429
-0.67992508 -0.94501847 1.2354835
-0.71914262 -0.9492535 1.2230265
-0.63113266 -0.98940766 1.2546111
-0.6791079 -0.99012858 1.2605585
-0.72321439 -0.99055868 1.2130396
-0.64381647 -1.0333174 1.2477205
-0.68326855 -1.0509518 1.2379421
-0.73274869 -1.051164 1.207569
-0.77539378 -1.0687 1.2144774
-0.71080208 -1.1006684 1.2472476
-0.73966181 -1.1009272 1.2229192
-0.77595335 -1.1022062 1.2141544
-0.34962726 0.72081345 1.4796408
-0.35835049 0.71471453 1.4942271
-0.40505821 0.71148568 1.4684221
-0.45570987 0.68691319 1.4440271
-0.49100912 0.66898817 1.4191897
-0.47854477 0.65084678 1.4489503
-0.51475233 0.64890486 1.4106483
-0.55353272 0.62710768 1.3808548
-0.5639568 0.57528102 1.3807447
-0.56731826 0.5139159 1.36944
-0.59181237 0.48377052 1.3849585
-0.56601787 0.46515694 1.3502909
-0.58992088 0.44748142 1.3632793
-0.59423536 0.38935193 1.3572307
-0.60487759 0.32763925 1.3513566
-0.61601985 0.27057019 1.3463644
-0.62281585 0.21172507 1.3382595
-0.64280862 0.1869587 1.3499755
-0.61799908 0.16434136 1.3191805
-0.64346409 0.14718726 1.330176
-0.64340544 0.094964758 1.3249359
-0.62309849 0.0019336164 1.3501897
-0.64016426 0.030277235 1.3315235
-0.61007261 -0.015620755 1.3467963
-0.60270685 -0.095148377 1.3185933
-0.51706088 -0.17519256 1.4140846
-0.6026023 -0.15099066 1.3228465
-0.61838126 -0.16402316 1.3085109
-0.47458148 -0.22208132 1.4530855
-0.51065975 -0.2059311 1.40747
-0.60148835 -0.21833895 1.3279883
-0.62054598 -0.20869811 1.3122603
-0.049921095 -0.28709117 1.6582853
-0.08369416 -0.28142819 1.6455201
-0.12990385 -0.28388876 1.6122936
-0.24990317 -0.29246461 1.5861344
-0.46891603 -0.27222115 1.4522823
-0.50600243 -0.26787925 1.4091424
-0.60500526 -0.27177316 1.3377775
-0.62423098 -0.27151597 1.313161
-0.046521723 -0.32710004 1.6636138
-0.089022756 -0.3295984 1.6465576
-0.13728172 -0.32908562 1.6046848
-0.18076164 -0.33413345 1.6028271
-0.23899037 -0.3472504 1.5897406
-0.46326938 -0.33052155 1.4486276
-0.49587673 -0.32975134 1.4047389
-0.6092788 -0.32869217 1.3495318
-0.62266147 -0.3161718 1.3084791
-0.050645053 -0.37281531 1.6587073
-0.083845794 -0.39089584 1.6458951
-0.13368487 -0.38427114 1.6027888
-0.18989474 -0.38664809 1.5888897
-0.23752731 -0.38801205 1.5761166
-0.36692756 -0.41927132 1.4761016
-0.40474263 -0.41291937 1.4554018
-0.45289537 -0.39246947 1.4443824
-0.48854142 -0.37916851 1.408334
-0.60297507 -0.38524377 1.3488408
-0.079094648 -0.44955751 1.6349018
-0.1360997 -0.45307809 1.6091044
-0.19680858 -0.44661236 1.5913162
-0.2322017 -0.44298935 1.5878052
-0.36176679 -0.43265906 1.4961712
-0.39465263 -0.42480931 1.479427
-0.58855098 -0.4250235 1.3595837
-0.039218843 -0.51624709 1.6584282
-0.083136499 -0.49984556 1.6495577
-0.11794591 -0.49071974 1.619719
-0.21925062 -0.48284715 1.6000571
-0.24678391 -0.48791939 1.5841608
-0.71027488 -0.9534632 1.2691605
-0.73880595 -0.95383751 1.2585469
-0.71383816 -0.99057031 1.2785996
-0.75286579 -0.99019623 1.2602704
-0.71966803 -1.0518323 1.2855448
-0.77204823 -1.0344728 1.2617176
-0.79679388 -1.0637579 1.2378337
-0.71172673 -1.0933744 1.2930808
-0.80330312 -1.1019531 1.2330735
-0.3894327 0.70790225 1.5166521
-0.42081043 0.70583951 1.5054278
-0.45568064 0.69106495 1.4759927
-0.52765709 0.63960862 1.4343147
-0.55927622 0.6201213 1.4157318
-0.55427718 0.57152605 1.4451002
-0.56224591 0.56610924 1.4216115
-0.55966204 0.51620615 1.4530106
-0.58344829 0.50902748 1.4255857
-0.59952432 0.46323439 1.4426683
-0.61540347 0.44698071 1.4067187
-0.63089997 0.38794535 1.4016727
-0.64521873 0.32833388 1.3910718
-0.64488149 0.27779955 1.3715998
-0.66842616 0.27036732 1.3873843
-0.64831609 0.22688688 1.3652341
-0.67260003 0.20847422 1.3792634
-0.69193614 0.14980005 1.3660837
-0.72909796 0.12636805 1.3701867
-0.68948859 0.095450237 1.3701895
-0.73144293 0.10948719 1.3700949
-0.64284015 0.016966062 1.3977704
-0.67830479 0.028999729 1.3810399
-0.62598348 -0.013130698 1.3932599
-0.61116201 -0.094406568 1.4378039
-0.62968683 -0.093033805 1.4305564
-0.61788058 -0.13610029 1.4416726
-0.45528704 -0.23103514 1.5245904
-0.46456951 -0.22176474 1.4825598
-0.50210035 -0.19951719 1.4467022
-0.26831028 -0.27404416 1.5901295
-0.31487322 -0.27635393 1.5887485
-0.41486731 -0.27012745 1.5591357
-0.44714057 -0.27037793 1.5284775
-0.45684999 -0.26924413 1.4867306
-0.59950036 -0.29804966 1.3874972
-0.21419418 -0.35224569 1.6217465
-0.2692771 -0.32729709 1.5872098
-0.31533155 -0.33438224 1.5926235
-0.44530332 -0.33418828 1.52408
-0.45380664 -0.32945293 1.4838202
-0.59234899 -0.30921778 1.3975136
-0.21032697 -0.36083061 1.6181072
-0.2769461 -0.39086565 1.581812
-0.321915 -0.38810241 1.5845881
-0.43759391 -0.39049977 1.5209484
-0.44971052 -0.38468066 1.4827383
-0.609321 -0.38181546 1.3852386
-0.23194391 -0.46558124 1.6056267
-0.27205378 -0.45198578 1.6005689
-0.3259773 -0.45011362 1.5931153
-0.37578097 -0.44698745 1.5489762
-0.42017651 -0.43222356 1.5231616
-0.22297704 -0.48791939 1.6065114
-0.26791936 -0.4857823 1.5956224
-0.74831074 -1.0694153 1.309626
-0.78986001 -1.0638484 1.3018554
-0.82032275 -1.0733148 1.2795941
-0.70002866 -1.1142242 1.3787051
-0.73427236 -1.0950366 1.332194
-0.7974937 -1.0911998 1.3221081
-0.83228076 -1.0901284 1.2838895
-0.61379713 0.44063047 1.4567394
-0.63430613 0.43146786 1.4465262
-0.62506068 0.39613593 1.4707143
-0.65119773 0.3858906 1.4519711
-0.63945687 0.33411488 1.4820414
-0.66740376 0.32662854 1.4534993
-0.68195218 0.27428171 1.461625
-0.69387764 0.26206511 1.4299543
-0.68695378 0.22909059 1.4714339
-0.71176755 0.20837082 1.4251516
-0.73268777 0.14873102 1.4166753
-0.74019855 0.1249931 1.3917238
-0.71585864 0.079013124 1.3915132
-0.75755686 0.092032798 1.3998654
-0.66359842 0.0091347983 1.4396008
-0.72423309 0.017053505 1.4031886
-0.7516824 0.043742191 1.4043409
-0.66150635 -0.029029055 1.450376
-0.71805346 -0.025493955 1.4301453
-0.62429112 -0.075492516 1.4513297
-0.66235071 -0.086372785 1.4422979
-0.72315574 -0.092233934 1.4347246
-0.62511539 -0.15445748 1.4577873
-0.65583163 -0.15296106 1.4439998
-0.72075564 -0.15335652 1.4272226
-0.75725043 -0.14918621 1.415104
-0.43961194 -0.23178998 1.5570346
-0.62821305 -0.20254616 1.4718552
-0.66538209 -0.20794791 1.4589915
-0.72192895 -0.20866969 1.4309005
-0.34713197 -0.28067786 1.6354672
-0.4125303 -0.27503583 1.5929731
-0.43590328 -0.26541594 1.5536851
-0.63610744 -0.26781052 1.4798826
-0.67179585 -0.27018487 1.4710484
-0.72209388 -0.26832241 1.4423945
-0.35054645 -0.33393264 1.6346481
-0.40984231 -0.3320334 1.6010932
-0.43271813 -0.3300457 1.5574242
-0.63697451 -0.33542821 1.4849343
-0.66448015 -0.3275491 1.4797978
-0.72428954 -0.31467795 1.4497679
-0.36821365 -0.38738912 1.6238235
-0.40769103 -0.38636857 1.604956
-0.42685211 -0.38496476 1.5578859
-0.63727927 -0.38461351 1.4927721
-0.65696466 -0.37663829 1.4890275
-0.35035709 -0.44659957 1.6375719
-0.39726242 -0.44442195 1.6071063
-0.41869983 -0.42090675 1.5622931
-0.63897264 -0.45197356 1.4992899
-0.34886393 -0.48735112 1.6349307
-0.39674735 -0.48083046 1.639436
-0.62822485 -0.52296901 1.4917486
-0.62655628 -0.55114335 1.4932919
-0.73229808 -1.0799909 1.3941355
-0.71948493 -1.1052319 1.3994316
-0.7508077 -1.093457 1.4052798
-0.83290231 -1.0912932 1.322669
-0.84134549 -1.0909462 1.3186253
-0.68332911 0.25843713 1.4881083
-0.71171433 0.24876522 1.4701685
-0.69633973 0.21546717 1.4830406
-0.72281861 0.20411754 1.4686778
-0.71030837 0.16443683 1.4891453
-0.73813987 0.14651375 1.4725522
-0.75693154 0.099912368 1.4717261
-0.77723634 0.086217619 1.4410747
-0.76492679 0.027166149 1.469866
-0.77331769 0.042836953 1.4448268
-0.76473254 -0.027269816 1.4693242
-0.77026772 -0.088797599 1.4672589
-0.76668179 -0.1583492 1.4536897
-0.76744616 -0.21041425 1.4656433
-0.78291887 -0.1915378 1.459473
-0.35673738 -0.29389459 1.7110698
-0.35934448 -0.28707898 1.6846697
-0.42302784 -0.28650889 1.6475661
-0.69805223 -0.29246467 1.4688451
-0.76082402 -0.26855496 1.46772
-0.35801202 -0.33328506 1.7120149
-0.35970867 -0.33219561 1.6868842
-0.42312476 -0.33134919 1.6614708
-0.6936087 -0.33737195 1.4765526
-0.74046981 -0.33458194 1.4708207
-0.38336211 -0.39235422 1.6754369
-0.41518945 -0.36871091 1.6705528
-0.64996582 -0.39298359 1.4972459
-0.68683761 -0.39056087 1.4871851
-0.73288703 -0.38339043 1.488835
-0.34069973 -0.44980353 1.6996695
-0.3902193 -0.44761142 1.6770887
-0.39993516 -0.47675124 1.6477863
-0.65162647 -0.45201245 1.5054593
-0.69600832 -0.44817513 1.4989268
-0.7320205 -0.42622608 1.5038503
-0.3410463 -0.49972564 1.7081811
-0.36658791 -0.49423152 1.6803893
-0.41671568 -0.49013436 1.6769197
-0.64876062 -0.51076943 1.5099012
-0.69170719 -0.50928581 1.5130358
-0.65374845 -0.56240898 1.5289613
-0.68596017 -0.5480535 1.5323268
-0.78297818 -1.0896271 1.4388229
-0.75888103 0.0032212122 1.5075188
-0.76884252 -0.037593298 1.5152081
-0.73980659 -0.087416671 1.5404341
-0.776169 -0.088119358 1.5179775
-0.78629977 -0.14816828 1.5115144
-0.77794063 -0.21093328 1.5142365
-0.37747294 -0.29261678 1.7540579
-0.77070266 -0.27341664 1.5217819
-0.37276149 -0.32601833 1.7568107
-0.43992925 -0.35944679 1.6918931
-0.75857019 -0.34272414 1.5595179
-0.76565248 -0.32942662 1.5274254
-0.42448476 -0.40657851 1.7069824
-0.43741107 -0.38482571 1.7029489
-0.75664037 -0.39410096 1.5619966
-0.75797355 -0.38509709 1.5294435
-0.42420363 -0.44640338 1.7154083
-0.74444711 -0.45792729 1.5481676
-0.7507965 -0.42911154 1.5346677
-0.72802299 -0.51147318 1.5553532
-0.68402201 -0.58006507 1.5724648
-0.70608187 -0.5549053 1.560645
-0.68044698 -0.60074735 1.5723772
-0.40209395 -0.2848146 1.7823546
-0.43283829 -0.29344451 1.7954364
-0.39810115 -0.34291914 1.7964416
-0.44190922 -0.32931143 1.7980583
-0.40387759 -0.38447949 1.8273745
-0.43882883 -0.36629489 1.8196676
-0.76627344 -0.39112318 1.5800667
-0.39293844 -0.43192887 1.8414844
-0.74897027 -0.45480531 1.5801017
-0.73029572 -0.51105124 1.5886813
-0.46256506 -0.29818881 1.8206809
-0.45909005 -0.3538942 1.8144333
-0.43132159 -0.40532646 1.8396144
-0.47232848 -0.39135915 1.8328928
-0.51687288 -0.40973672 1.8474996
-0.42087829 -0.45275661 1.8579516
-0.47682476 -0.44875848 1.840467
-0.43014473 -0.48678008 1.8859782
-0.48000559 -0.48867491 1.8566167
-0.51960826 -0.41557911 1.8522372
-0.41898674 -0.4765943 1.9232292
-0.51591706 -0.42090675 1.8543684
-0.52100921 -0.42090675 1.8546638
-0.46101165 -0.49480745 1.9157319
-0.48879579 -0.499387 1.899564
-0.49511307 -0.49349675 1.9484541
