# .PCD v0.7 - Point Cloud Data file format
VERSION 0.7
FIELDS x y z
SIZE 4 4 4
TYPE F F F
COUNT 1 1 1
WIDTH 1474
HEIGHT 1
VIEWPOINT 0 0 0 1 0 0 0
POINTS 1474
DATA ascii
-1.252986 -2.7623353 1.4560577
-1.3466592 -2.7924068 1.4912513
-1.3600851 -2.8194976 1.5102979
-0.8381325 -2.7208645 1.1540341
-0.86661309 -2.706049 1.1598074
-1.3584028 -2.8008592 1.4755934
-1.3755653 -2.8280437 1.4944277
-0.85533553 -2.7344272 1.1379905
-0.87861794 -2.7223816 1.1427493
-0.90274692 -2.7260244 1.1365018
-1.3757437 -2.817045 1.4549341
-1.3896918 -2.8384287 1.4749007
-0.8805573 -2.7550497 1.1141419
-0.9126519 -2.7406249 1.1216539
-1.3940806 -2.8358529 1.4261078
-1.4057403 -2.8563621 1.4443749
-1.417845 -2.8557777 1.4007397
-1.4293845 -2.8780384 1.4166716
-1.4308228 -2.866199 1.3881245
-1.1109763 -2.7681732 1.4323394
-1.1334664 -2.7737222 1.4441901
-1.1938548 -2.7821205 1.4935284
-1.2135859 -2.7844572 1.5107467
-1.2373003 -2.7914279 1.5202249
-0.77676278 -2.7086225 1.1887019
-0.80108243 -2.7055624 1.2047774
-0.81763434 -2.7155638 1.2245092
-0.85276067 -2.7255034 1.2395879
-0.88484383 -2.7366672 1.2535138
-0.90727776 -2.7450595 1.2700678
-0.9291091 -2.7488091 1.2835336
-0.9582234 -2.7499399 1.2999362
-0.99031502 -2.7515149 1.3334284
-1.0064622 -2.7508771 1.3572397
-1.0364498 -2.7587211 1.3728955
-1.0759188 -2.7686317 1.3893245
-1.0917664 -2.7662501 1.4115694
-1.1192122 -2.7611971 1.4216676
-1.1511626 -2.7788296 1.4477614
-1.1786369 -2.785188 1.466655
-1.2071513 -2.7748165 1.4750205
-1.2578584 -2.7901459 1.5128444
-1.2872589 -2.8035278 1.5330497
-1.3113242 -2.8157012 1.5430367
-1.3411558 -2.8259759 1.5456457
-0.78995699 -2.7237742 1.164021
-0.88865274 -2.7363379 1.253168
-0.91087687 -2.7415738 1.2655454
-0.93209279 -2.7456391 1.2798749
-1.3671451 -2.8358705 1.5304867
-1.3739225 -2.8455923 1.5370941
-0.80048764 -2.7374496 1.1509633
-0.83032626 -2.7251165 1.1525663
-1.3856332 -2.8505218 1.5130548
-1.3890328 -2.8587258 1.5197122
-0.83410549 -2.7539241 1.1298158
-1.3980463 -2.8582723 1.4910704
-1.4033 -2.8716843 1.5017976
-0.84533405 -2.7691407 1.1164918
-1.4148092 -2.8740985 1.459651
-1.4224442 -2.8906581 1.4734855
-1.4308947 -2.8914568 1.4287999
-1.4452981 -2.9111931 1.4474571
-1.0259771 -2.7754374 1.3920885
-1.0505224 -2.7839713 1.4242271
-1.0782868 -2.7847476 1.429342
-1.0974056 -2.7863679 1.4477606
-1.1256895 -2.795001 1.4739913
-1.1588073 -2.7982464 1.4943846
-1.1799811 -2.8000154 1.5091661
-1.2068532 -2.8002615 1.5248086
-1.2380497 -2.8159771 1.5355889
-1.2923851 -2.8284152 1.5784367
-1.3199495 -2.8289673 1.5985224
-0.73881149 -2.7292409 1.1846397
-0.75899202 -2.7209196 1.2131929
-0.78311551 -2.7211595 1.227937
-0.80377722 -2.7317839 1.242396
-0.83548212 -2.7477491 1.2595198
-0.87305999 -2.7521784 1.2725229
-0.89504504 -2.7571359 1.2853653
-0.91675705 -2.7617788 1.2987298
-0.94816053 -2.7673841 1.3210512
-0.98180109 -2.7704339 1.3529241
-0.99502075 -2.7703493 1.3689066
-1.0434812 -2.7730768 1.3898497
-1.0659566 -2.7753789 1.4027802
-1.2791703 -2.8231595 1.542151
-1.301574 -2.826896 1.5547229
-1.3426661 -2.8344486 1.569364
-1.3666049 -2.8559928 1.5857466
-0.75808799 -2.7409935 1.1579446
-1.3859766 -2.8709004 1.5584359
-0.76608503 -2.755585 1.1456592
-0.77441514 -2.7567153 1.1427372
-1.3993397 -2.8813262 1.5385354
-1.4094305 -2.9029377 1.5566558
-0.7751264 -2.779511 1.1237416
-0.79835087 -2.7664635 1.1278714
-1.4091946 -2.8861768 1.5135007
-1.4173725 -2.9057858 1.5294396
-0.81522852 -2.7777755 1.1103131
-1.4225236 -2.9087651 1.4852862
-1.4353589 -2.9202936 1.5033609
-1.1147926 -2.8107727 1.5104684
-1.1357589 -2.8159826 1.5248282
-1.2153566 -2.843966 1.5866327
-1.2407268 -2.8397226 1.5971344
-1.2622279 -2.8442192 1.6108772
-1.2906914 -2.8390374 1.6168193
-0.70520949 -2.7374156 1.2225966
-0.74680346 -2.742363 1.2291374
-0.76764464 -2.7459919 1.2441962
-0.78107762 -2.7527049 1.2698851
-0.81446308 -2.7554867 1.2900078
-0.98434865 -2.7919235 1.3786867
-1.0139601 -2.7897954 1.4152838
-1.0385962 -2.7931721 1.4399723
-1.0640079 -2.8000023 1.4499532
-1.0867078 -2.8080971 1.4642801
-1.1022636 -2.8053875 1.4829323
-1.1674509 -2.8193731 1.5229342
-1.1927084 -2.8270662 1.5323052
-1.2220541 -2.8427386 1.5520486
-1.2561928 -2.840163 1.572489
-1.2733965 -2.8395371 1.5948614
-1.3170041 -2.8490336 1.6212419
-1.33871 -2.8594065 1.6191591
-0.69315225 -2.7445207 1.1761818
-0.71037966 -2.729522 1.1925628
-0.85764086 -2.7682946 1.291441
-0.87897557 -2.7739871 1.3051419
-0.90044218 -2.7790318 1.3187616
-0.93324047 -2.783855 1.3395954
-0.96646011 -2.7861221 1.3596883
-1.3587899 -2.8714015 1.6107677
-1.3850619 -2.8865035 1.600637
-0.71050751 -2.7673573 1.1492649
-0.73023731 -2.7562563 1.1527629
-1.3999735 -2.8961258 1.5807269
-0.73785245 -2.7742481 1.1400706
-1.413532 -2.9127359 1.5646279
-1.4218899 -2.927886 1.5779907
-0.75181323 -2.7944043 1.1136827
-1.4266638 -2.9254606 1.5459898
-1.4336898 -2.9370232 1.5565208
-1.4433262 -2.9429107 1.5319946
-1.4723133 -2.9744449 1.5327573
-1.2168745 -2.8623607 1.627256
-0.92496806 -2.8133802 1.4160013
-1.018989 -2.8213387 1.4616462
-1.0327619 -2.8241005 1.4811304
-1.0582625 -2.8222318 1.4976079
-1.0902455 -2.8291962 1.5153466
-1.1210192 -2.8381393 1.5340899
-1.1486844 -2.8485184 1.5429728
-1.1687648 -2.8626072 1.5692571
-1.1974348 -2.8540454 1.5907135
-1.2311339 -2.8449624 1.6104971
-1.2557917 -2.8652601 1.6255063
-1.2778053 -2.8750291 1.6254176
-0.61758804 -2.7631009 1.1805193
-0.63628751 -2.7642365 1.1997445
-0.66774988 -2.7573507 1.2154773
-0.69122314 -2.7596037 1.2373803
-0.71793568 -2.7674899 1.2479655
-0.75035822 -2.7791905 1.2685152
-0.76721495 -2.7714529 1.2825761
-0.7967847 -2.779321 1.3100538
-0.82849807 -2.7931972 1.321097
-0.85399497 -2.8013029 1.3355232
-0.87552464 -2.8051009 1.3494469
-0.90623087 -2.8111932 1.3709544
-0.94472057 -2.8100073 1.3860915
-0.96123534 -2.8163466 1.4070723
-0.99037701 -2.8171966 1.4275746
-1.1806983 -2.8481555 1.5417862
-1.2026887 -2.8531194 1.5546182
-1.3030748 -2.8899951 1.6253849
-1.3275056 -2.882309 1.6247147
-0.62837136 -2.7750378 1.1593996
-0.66090727 -2.7589991 1.1638476
-1.3329154 -2.9163313 1.6254449
-1.3679669 -2.9140277 1.6197188
-0.66145432 -2.790199 1.1377203
-0.68956673 -2.7781971 1.1449879
-1.4029137 -2.9361107 1.6067743
-0.67279828 -2.8061929 1.1201141
-0.70596993 -2.7921815 1.133808
-1.4251795 -2.9518583 1.5940276
-0.72659492 -2.8058636 1.1145666
-1.432777 -2.963444 1.5718633
-1.4540945 -2.9656103 1.5511143
-1.0336094 -2.8480802 1.5279496
-1.1333101 -2.868377 1.5920768
-1.1410702 -2.8656461 1.5983292
-1.1770269 -2.8723626 1.6199828
-0.56621623 -2.7616887 1.203722
-0.58032715 -2.7596669 1.215632
-0.61423242 -2.7700491 1.2352391
-0.88221735 -2.8258431 1.4049815
-0.90770817 -2.8253214 1.4392322
-0.93624175 -2.8284779 1.4423789
-0.9656654 -2.8460577 1.4578615
-0.99912143 -2.8485439 1.4790585
-1.0154881 -2.8476214 1.5075901
-1.0717617 -2.8615463 1.537132
-1.1088187 -2.8739057 1.5495665
-1.1296556 -2.8738303 1.5646608
-1.1591198 -2.8648882 1.5702469
-1.2094005 -2.8876531 1.6308167
-1.238716 -2.8990653 1.6350025
-0.57462978 -2.7734425 1.1820774
-0.5965147 -2.76525 1.1884241
-0.63083977 -2.7673104 1.2073011
-0.64717937 -2.7789564 1.2268348
-0.67491949 -2.7916162 1.2526274
-0.71106154 -2.7947168 1.2683207
-0.73314542 -2.7966974 1.2819616
-0.74890548 -2.8055277 1.3033147
-0.7801742 -2.810976 1.3258981
-0.81320608 -2.8184807 1.345042
-0.83437902 -2.8224926 1.3594644
-0.85587162 -2.82688 1.3732558
-1.2803389 -2.9194427 1.629698
-0.586918 -2.7859952 1.1628975
-0.59882736 -2.7951097 1.1540095
-1.3203535 -2.9390986 1.6244206
-1.353825 -2.9492826 1.6218204
-0.6302793 -2.8093076 1.1331311
-1.357861 -2.9573188 1.620024
-1.3870871 -2.9709027 1.6189996
-0.64404839 -2.8280597 1.1182408
-1.4122761 -2.9859278 1.6077842
-1.3944672 -2.9922848 1.5694311
-1.4100782 -2.9871118 1.5773985
-0.52666759 -2.7754576 1.2213328
-0.55989015 -2.7770035 1.2421063
-0.82737052 -2.8355644 1.4151806
-0.86168617 -2.8402045 1.4332433
-0.89357489 -2.8457327 1.4548204
-0.91825944 -2.8492918 1.4697165
-0.9477666 -2.8549922 1.4882336
-0.97442019 -2.8748832 1.5142977
-1.0256535 -2.8728116 1.5324476
-1.1093585 -2.8936021 1.5931058
-1.1251577 -2.8854799 1.616896
-1.1573393 -2.8919911 1.6377038
-1.1863586 -2.9037769 1.6405298
-0.52071404 -2.7836943 1.1935022
-0.54242355 -2.7720644 1.1977013
-0.59685683 -2.7863171 1.2544948
-0.62384742 -2.799758 1.2540853
-0.65655839 -2.8109925 1.2751849
-0.68828475 -2.8190129 1.2962192
-0.70983356 -2.8225579 1.3101946
-0.7315585 -2.8257163 1.324018
-0.76415408 -2.8306251 1.3446934
-0.79662502 -2.8361983 1.3653418
-0.81969404 -2.8391438 1.3798028
-0.83846402 -2.8353007 1.3978556
-0.985367 -2.867182 1.4996055
-1.0055068 -2.8699944 1.5160289
-1.0601451 -2.8820159 1.5487512
-1.0938144 -2.890259 1.5666649
-1.1989708 -2.9095044 1.6401268
-1.227873 -2.9216979 1.6417147
-0.53139377 -2.7960479 1.1733817
-0.55281579 -2.7843838 1.1774126
-1.2601001 -2.9387383 1.6342045
-0.531569 -2.8151355 1.151886
-0.56481576 -2.8109989 1.1497915
-1.2881111 -2.9595315 1.6308966
-1.3165796 -2.9706342 1.6249619
-0.58473992 -2.8356535 1.1254895
-0.60482258 -2.8273616 1.1308503
-1.3556812 -2.9922171 1.61954
-0.58873123 -2.8387666 1.1034817
-0.6167801 -2.8361483 1.1092465
-1.3869071 -3.0031807 1.6050689
-1.3966228 -3.0201721 1.585593
-0.86204571 -2.8741465 1.4951243
-0.88390762 -2.8789606 1.5082065
-0.91506457 -2.87639 1.5253909
-1.1271074 -2.9247868 1.6745569
-0.40976775 -2.7929168 1.1750013
-0.43230522 -2.7909553 1.1931207
-0.46497896 -2.7919476 1.2149342
-0.49546689 -2.7924433 1.222667
-0.51104677 -2.7993183 1.2381414
-0.54207581 -2.8044891 1.2611865
-0.57725084 -2.8073559 1.2784688
-0.60397017 -2.8109589 1.2928724
-0.62743771 -2.8279896 1.3098392
-0.66131818 -2.846812 1.3295615
-0.68252879 -2.8508711 1.3439015
-0.7039659 -2.8551941 1.3578006
-0.73905116 -2.861299 1.3831633
-0.76488125 -2.856643 1.4085567
-0.79342234 -2.8512638 1.4137077
-0.80735719 -2.8553874 1.4401865
-0.83966589 -2.8620467 1.4607468
-0.86548233 -2.8700905 1.4793447
-0.89934886 -2.8647797 1.4996431
-0.93204296 -2.8655391 1.5196612
-0.95342398 -2.8901939 1.5339097
-0.98739851 -2.8936019 1.534603
-1.0084765 -2.9012775 1.5502108
-1.0408003 -2.9078908 1.5707536
-1.0731833 -2.9133303 1.5915914
-1.0909797 -2.9150565 1.6039746
-1.1086551 -2.9211197 1.6355741
-1.1426872 -2.9131687 1.6538583
-1.1772796 -2.9314613 1.6643084
-1.1960837 -2.9554946 1.6740152
-0.40810955 -2.7989106 1.1520709
-0.44984245 -2.7954915 1.1641326
-0.48148462 -2.7909679 1.1831242
-0.65504724 -2.8261557 1.2971282
-0.6768716 -2.8309262 1.3102831
-0.6983338 -2.8352783 1.3241336
-0.71934438 -2.8391047 1.3388625
-0.75102264 -2.8450298 1.3606491
-0.78271705 -2.8509772 1.3823955
-1.2178541 -2.9515877 1.6567411
-1.2339272 -2.9769254 1.6613677
-0.42181113 -2.8154607 1.1274137
-0.45862532 -2.8114498 1.1451944
-0.4959704 -2.8062482 1.1601212
-1.2492566 -2.9691565 1.6468244
-0.45022833 -2.8313134 1.1197569
-0.4677645 -2.835433 1.123105
-0.50367939 -2.8428123 1.1321113
-0.53324127 -2.8315873 1.1398921
-1.2750423 -2.9900858 1.6345949
-1.3034564 -3.0046949 1.6290915
-0.54924899 -2.847477 1.1140633
-1.3142183 -3.0169556 1.618083
-1.3404177 -3.010083 1.6183118
-1.3259122 -3.0406814 1.5991948
-1.355073 -3.0326252 1.6064011
-1.3793366 -3.0466738 1.6064065
-0.42191669 -2.8084488 1.2282479
-0.44224712 -2.8114834 1.2442995
-0.465496 -2.8179119 1.2546841
-0.52989304 -2.8309772 1.2962239
-0.55184424 -2.8358986 1.3091233
-0.61630738 -2.8490407 1.3505347
-0.72272027 -2.8697491 1.4215522
-0.74120551 -2.8706353 1.4411942
-0.76365107 -2.8761287 1.4531409
-0.78761709 -2.8833959 1.4621202
-0.81700736 -2.8856378 1.4968439
-0.84225273 -2.8858404 1.5192382
-0.86777967 -2.8941774 1.5286027
-0.90548581 -2.907124 1.5386533
-1.0691466 -2.9365294 1.6544611
-1.0807426 -2.9321392 1.6715305
-1.110431 -2.9393167 1.686856
-1.154665 -2.9599087 1.6933804
-0.36646461 -2.8057213 1.1643521
-0.39119312 -2.8022993 1.1805655
-0.41557068 -2.8069787 1.2166333
-0.4502148 -2.8026805 1.2346385
-0.47118551 -2.8165529 1.2537196
-0.49080062 -2.8267376 1.2610593
-0.51548171 -2.8275912 1.2831159
-0.5584743 -2.8350964 1.3096853
-0.57314789 -2.8450677 1.321666
-0.61109817 -2.8470356 1.3363874
-0.64206707 -2.853245 1.3550233
-0.6719929 -2.8611283 1.3571235
-0.69373107 -2.8654766 1.370542
-0.72441983 -2.8681161 1.397411
-0.75431663 -2.8586943 1.4244745
-0.77451706 -2.8661401 1.4393141
-0.79509169 -2.872731 1.4538343
-0.83005977 -2.8733425 1.4721744
-0.93527949 -2.9161329 1.5498848
-0.96354759 -2.923131 1.5647166
-0.98515433 -2.9276478 1.578295
-1.0169958 -2.9337666 1.5997547
-1.0474695 -2.9414861 1.6228524
-1.0649799 -2.9402685 1.6329803
-1.0988935 -2.9294224 1.6439219
-1.1567175 -2.9593604 1.6915612
-1.1870179 -2.9776959 1.6840075
-0.37743872 -2.8174155 1.1400361
-1.2148641 -2.9931171 1.6756395
-1.2215561 -2.9965162 1.6744554
-0.39017531 -2.8334112 1.1231976
-1.2490975 -3.0136168 1.661199
-0.41296908 -2.8531382 1.0971644
-0.43281075 -2.8438776 1.1018214
-0.47357351 -2.8492906 1.1095122
-1.2668849 -3.0115592 1.6474043
-1.2772967 -3.031023 1.6479027
-1.3032879 -3.0525272 1.6246272
-1.309858 -3.0580482 1.6138859
-1.3305854 -3.0680676 1.61159
-1.0426817 -2.9460793 1.6778215
-1.0662409 -2.9528728 1.6875925
-0.34567657 -2.8155949 1.1987658
-0.36599302 -2.8186131 1.2148453
-0.39959794 -2.8267829 1.2328795
-0.43052569 -2.831836 1.2561215
-0.45286795 -2.8372092 1.2682697
-0.47279701 -2.8397763 1.2851026
-0.50524449 -2.8465989 1.3053883
-0.53929281 -2.8552852 1.3225595
-0.56066024 -2.8595271 1.3365939
-0.58958852 -2.8622503 1.3637311
-0.62282121 -2.8699853 1.3824937
-0.64808118 -2.8787589 1.3889558
-0.71123791 -2.8903801 1.4329088
-0.72808301 -2.8893569 1.4557414
-0.7465995 -2.896606 1.4732873
-0.76805449 -2.89518 1.4868437
-0.79704916 -2.8997421 1.5072979
-0.83064651 -2.9055834 1.5342482
-0.85358262 -2.9134989 1.540253
-0.89383477 -2.9275587 1.550338
-0.92686415 -2.9350569 1.5694965
-0.94846553 -2.9395711 1.5830762
-0.97008121 -2.9440985 1.5966374
-1.001879 -2.9501662 1.6181821
-1.0262346 -2.9475188 1.652072
-1.0558815 -2.9377463 1.6597974
-1.0986369 -2.9670694 1.6947309
-0.31498811 -2.8255665 1.1458219
-0.32910386 -2.8165946 1.1674732
-0.3525494 -2.8110528 1.1894467
-0.37564799 -2.8119373 1.201849
-0.39636654 -2.818203 1.2162485
-0.4842248 -2.8320143 1.269675
-0.6579324 -2.8796024 1.3874437
-0.67160356 -2.8890839 1.3976439
-0.69399846 -2.891243 1.4124285
-0.9365347 -2.9247267 1.557656
-0.95804441 -2.929204 1.5713916
-0.9795137 -2.9337811 1.5851665
-1.0125105 -2.9388399 1.6051551
-1.1424083 -2.9843292 1.6936032
-1.1763639 -3.000392 1.6907871
-0.32157236 -2.8465021 1.1287265
-0.34584054 -2.8332381 1.1332632
-1.2029759 -3.0151563 1.6827183
-1.2130542 -3.0206175 1.6800138
-0.36072209 -2.8530209 1.111303
-1.238927 -3.035032 1.672006
-0.3695969 -2.8643577 1.0980861
-0.39692003 -2.8540084 1.1059372
-1.2752686 -3.0587997 1.6579826
-1.2857043 -3.0639267 1.6498939
-1.3085556 -3.0769753 1.6419661
-1.3290782 -3.0846167 1.6240793
-1.3469149 -3.0952799 1.6394676
-0.73304421 -2.908488 1.4907234
-0.74803782 -2.9089093 1.5159953
-0.77907658 -2.9162543 1.5301706
-0.97833014 -2.956609 1.664609
-1.0079129 -2.9545631 1.6807086
-1.0278354 -2.9635828 1.6935842
-0.28565991 -2.8350754 1.188778
-0.31072426 -2.8295343 1.2001708
-0.32808563 -2.8318212 1.221132
-0.35230118 -2.8339722 1.2363552
-0.38039553 -2.8422413 1.2498648
-0.42000517 -2.8535814 1.2656087
-0.43944752 -2.8544369 1.292401
-0.46006554 -2.8557026 1.3048925
-0.48810834 -2.8703566 1.3246081
-0.52217197 -2.8721018 1.3439972
-0.54060668 -2.871665 1.3564668
-0.57673872 -2.877687 1.3789115
-0.60397124 -2.8874974 1.3967456
-0.62745345 -2.8906021 1.4119017
-0.6516633 -2.8959267 1.4272039
-0.68200105 -2.9097393 1.4399147
-0.71365494 -2.9184091 1.4690012
-0.72557688 -2.9113183 1.4741979
-0.82133973 -2.9287417 1.5413747
-0.8423878 -2.9387002 1.5498846
-0.87652659 -2.9484382 1.5707576
-0.90884626 -2.9545166 1.5914886
-0.93028814 -2.9597883 1.6050737
-0.95196313 -2.9637263 1.6187322
-0.98208952 -2.9629097 1.6358895
-1.0655392 -2.9797421 1.6949751
-1.0989813 -2.9940288 1.6963329
-0.28590867 -2.8356988 1.15674
-1.1143903 -3.003089 1.6959734
-1.1451327 -3.0226328 1.6936326
-0.29868221 -2.8609869 1.1256291
-1.1815345 -3.0329394 1.6898675
-1.2045289 -3.0446858 1.6856194
-0.32873151 -2.8707502 1.1069975
-1.2292203 -3.0577533 1.6798342
-0.33691955 -2.883441 1.0927097
-0.33937901 -2.8819497 1.0930815
-1.2244072 -3.0903006 1.6396894
-1.26179 -3.0750549 1.6720287
-1.2831037 -3.0861971 1.6674051
-1.2842358 -3.0949087 1.6421914
-0.90992588 -2.9762635 1.6751597
-0.94490051 -2.9744887 1.6863273
-0.21633071 -2.8495393 1.1950257
-0.24836311 -2.8536172 1.2250097
-0.27915725 -2.8607759 1.2396212
-0.30360687 -2.8686028 1.2476687
-0.33024278 -2.8619814 1.2569439
-0.35533836 -2.8772414 1.2860425
-0.38726205 -2.8834541 1.3073472
-0.41228306 -2.8919458 1.3142838
-0.43288139 -2.8952923 1.3298149
-0.46425354 -2.9008627 1.3521924
-0.49970198 -2.894182 1.3721299
-0.52148598 -2.8989091 1.3853538
-0.5549916 -2.9091783 1.4105742
-0.58330262 -2.9079289 1.4322585
-0.60477322 -2.9101186 1.4467946
-0.62622035 -2.9160609 1.4601545
-0.65377378 -2.9273977 1.4817734
-0.68172723 -2.9428127 1.4983299
-0.71631503 -2.9400077 1.5067976
-0.73106849 -2.9415553 1.5292321
-0.76447237 -2.9466281 1.5455822
-0.79704881 -2.9684548 1.5666696
-0.81772387 -2.9718871 1.5820606
-0.84984201 -2.9783278 1.6029823
-0.88222456 -2.9850729 1.6233991
-0.90169215 -2.9873216 1.6423562
-0.93636799 -2.9732733 1.6470395
-0.96102864 -2.9942763 1.6925144
-0.9891454 -2.9981046 1.6963743
-1.0146729 -2.9870071 1.6954122
-0.20113838 -2.8525078 1.1692687
-0.23329729 -2.8423018 1.1707358
-0.25816789 -2.8386593 1.1923959
-0.29716086 -2.8471074 1.2157812
-0.31543389 -2.8483784 1.2356398
-0.37510273 -2.8618858 1.268142
-0.40471253 -2.8696666 1.2844136
-0.42458117 -2.8722699 1.3013384
-0.44495106 -2.8753505 1.3173139
-0.47840774 -2.8833477 1.3356361
-0.68398219 -2.9279084 1.4622595
-0.69801164 -2.929595 1.4727324
-0.81120831 -2.9509461 1.5501028
-0.83303797 -2.9557226 1.5632474
-0.86456287 -2.9614725 1.5853235
-0.89713722 -2.968441 1.6053673
-0.91853678 -2.9727201 1.6193395
-1.0215487 -3.0197122 1.6961002
-1.0496362 -3.0108323 1.6968586
-1.0792906 -3.0154212 1.6958566
-0.21732223 -2.8704603 1.1351389
-0.24897376 -2.8529963 1.1407229
-1.0682279 -3.0408285 1.6948304
-1.0938708 -3.0410495 1.6943871
-1.1348479 -3.0409818 1.6931918
-0.24081472 -2.8905869 1.113598
-0.26721171 -2.8773689 1.1192563
-1.1401131 -3.0737309 1.6918415
-1.1668105 -3.0648324 1.6911703
-0.26100177 -2.9014144 1.0974512
-0.29558787 -2.8875728 1.1087275
-1.1798215 -3.0975511 1.674978
-1.1999998 -3.0771475 1.6896403
-1.16445 -3.1007235 1.6481112
-1.1816187 -3.0981185 1.6553773
-1.2278125 -3.0960221 1.6632611
-1.2641103 -3.1069365 1.6701475
-0.5617305 -2.9348421 1.4574212
-0.58235919 -2.9382238 1.4728931
-0.60204756 -2.9403019 1.4931235
-0.63360757 -2.9388471 1.5146179
-0.66371399 -2.954216 1.5332627
-0.86107856 -2.9950488 1.6566292
-0.88087714 -2.9854388 1.6743344
-0.89846969 -2.9967062 1.6920326
-0.9235481 -3.0065112 1.6995178
-0.1593329 -2.8618474 1.1826161
-0.18061984 -2.8647039 1.1972333
-0.19978279 -2.8652227 1.2098885
-0.23032993 -2.8638029 1.2337083
-0.26856557 -2.8726475 1.2524092
-0.28539437 -2.8865399 1.2642879
-0.30978572 -2.8898718 1.280041
-0.34222776 -2.8946254 1.3002517
-0.37630171 -2.901351 1.3221951
-0.40268806 -2.9092729 1.3367803
-0.41765046 -2.9072459 1.3498573
-0.45025209 -2.9134338 1.3701057
-0.48259723 -2.9231181 1.3896279
-0.50485963 -2.9206445 1.4044268
-0.53101873 -2.927645 1.4263716
-0.68313253 -2.948004 1.5073441
-0.69840765 -2.9642205 1.5270805
-0.71823508 -2.972599 1.5421963
-0.75316465 -2.974529 1.5601709
-0.78400123 -2.9839594 1.5821385
-0.80614299 -2.9853687 1.5958811
-0.83842158 -2.9916105 1.6166153
-0.87493634 -2.9923632 1.6324824
-0.95301211 -3.0189371 1.6971306
-0.97316808 -3.0283229 1.6958601
-0.15894541 -2.8676112 1.1567807
-1.0089943 -3.0407865 1.6941203
-1.0394931 -3.0577135 1.6957077
-0.1855576 -2.8881922 1.1296009
-1.0419872 -3.063823 1.6951033
-1.0850716 -3.0720956 1.6936451
-0.19761938 -2.9143019 1.105587
-0.21822366 -2.9028459 1.1093221
-1.0987402 -3.0854182 1.6916628
-1.1270902 -3.0962796 1.6898751
-0.21193674 -2.9196901 1.0826328
-0.23802143 -2.9118884 1.0919071
-1.1451148 -3.1187716 1.6570566
-1.1573131 -3.111191 1.6837158
-1.127565 -3.1181479 1.6358538
-1.153923 -3.1076283 1.6468323
-0.57552624 -2.9603307 1.5254154
-0.1290673 -2.8756292 1.2093508
-0.15980744 -2.8778031 1.2256652
-0.1758315 -2.8907003 1.2452903
-0.22893897 -2.890938 1.2597525
-0.27162936 -2.8993664 1.2879177
-0.29230982 -2.9028084 1.3032891
-0.40096632 -2.9261286 1.3699423
-0.42148083 -2.9293773 1.3856366
-0.48258033 -2.9381692 1.4319913
-0.51584125 -2.9435692 1.4532044
-0.54086161 -2.9539263 1.4689795
-0.56490886 -2.9506049 1.4860067
-0.58300149 -2.9523356 1.516266
-0.61600935 -2.9598088 1.5354661
-0.65772194 -2.9746747 1.5451198
-0.7887767 -3.0061789 1.616414
-0.82139689 -3.0128825 1.6446193
-0.83597732 -3.0078499 1.6681622
-0.86214662 -3.0090554 1.6961019
-0.8949663 -3.0227265 1.6983768
-0.10907495 -2.8750517 1.1686077
-0.12698656 -2.8697572 1.1818874
-0.18705699 -2.8834507 1.2300147
-0.20757136 -2.8866961 1.245718
-0.25309244 -2.8984234 1.2683673
-0.32849988 -2.9139881 1.3162937
-0.36069393 -2.9205155 1.3370724
-0.38714439 -2.9209738 1.3443607
-0.44482222 -2.935914 1.3958402
-0.46755144 -2.9417412 1.4072256
-0.68204236 -2.9850965 1.5460213
-0.70379186 -2.989783 1.5593131
-0.73575228 -2.9960365 1.580551
-0.76758945 -3.0021501 1.6020195
-0.93892992 -3.0406113 1.697488
-0.11776847 -2.8858199 1.146512
-0.97779179 -3.0626311 1.6958317
-1.0062933 -3.0736954 1.6937102
-0.13981292 -2.9068415 1.1264195
-0.15778458 -2.9061508 1.1217982
-1.0196891 -3.0798068 1.6932071
-1.0463765 -3.0923519 1.691208
-1.066628 -3.0913119 1.6912169
-0.17064685 -2.9272804 1.0994897
-1.0905352 -3.1142733 1.6862537
-0.17486051 -2.9311604 1.0869212
-1.0812074 -3.1225357 1.6513851
-1.0915278 -3.1232269 1.6581439
-1.1298864 -3.1261528 1.6785718
-1.0785327 -3.132009 1.6226707
-1.0964879 -3.1356528 1.6300334
-0.49686173 -2.978852 1.4960642
-0.51983833 -2.9800208 1.5085742
-0.54658979 -2.9640307 1.5144156
-0.56874198 -2.969728 1.5330273
-0.59119844 -2.9760885 1.5426509
-0.058738112 -2.8898802 1.184611
-0.085833907 -2.8820965 1.1938205
-0.11448938 -2.8845494 1.2211916
-0.14587426 -2.8901329 1.2435497
-0.17608976 -2.8992875 1.2548909
-0.20346272 -2.9108455 1.2688354
-0.23620707 -2.9167099 1.2889608
-0.26121789 -2.9201851 1.3061368
-0.28165454 -2.9205883 1.3181052
-0.31071222 -2.934006 1.3377442
-0.33973694 -2.9312873 1.3562845
-0.37041056 -2.9386423 1.3754429
-0.38661328 -2.9464467 1.3859053
-0.4189612 -2.9501655 1.4065394
-0.45189422 -2.9531519 1.4281125
-0.46984422 -2.9577696 1.4473886
-0.50109625 -2.9631982 1.4700055
-0.5308665 -2.966902 1.4955037
-0.61866933 -2.9865823 1.5471132
-0.64456451 -2.9960957 1.5523392
-0.66378695 -3.002528 1.5622088
-0.68834656 -3.0075674 1.5778086
-0.71941733 -3.0119057 1.5975289
-0.75366938 -3.0162477 1.6193125
-0.77518272 -3.0209115 1.6329901
-0.80267566 -3.0252166 1.6537037
-0.8320576 -3.0286534 1.6880548
-0.85669649 -3.0367041 1.6957252
-0.88240993 -3.046325 1.7021368
-0.045349121 -2.9028585 1.1524925
-0.073426247 -2.8876333 1.1610183
-0.92049003 -3.0687151 1.6988277
-0.085072041 -2.9018939 1.1394244
-0.96494758 -3.085073 1.6943991
-0.098888397 -2.9215255 1.1251723
-0.12744617 -2.93084 1.1136918
-0.99988043 -3.1003931 1.6955329
-1.0319954 -3.1179144 1.6905745
-0.11274716 -2.9468596 1.0814453
-0.13836378 -2.9434757 1.0917971
-1.0131798 -3.1417525 1.6609209
-1.0483218 -3.1372118 1.6762673
-1.0649514 -3.1309254 1.6810533
-1.0339351 -3.1441565 1.6400249
-1.054718 -3.1367607 1.646282
-1.0611545 -3.1509268 1.6316049
-0.013583302 -2.9067321 1.2039816
-0.034276187 -2.9059711 1.2178044
-0.0566324 -2.9060781 1.2316301
-0.092994511 -2.9069562 1.2476883
-0.1197657 -2.9281423 1.2718103
-0.18563777 -2.9425123 1.3110514
-0.20740867 -2.9472237 1.3243011
-0.25105906 -2.9557858 1.3553323
-0.28195196 -2.9612234 1.3752805
-0.33670217 -2.9730794 1.4099689
-0.35675922 -2.9739559 1.4238729
-0.39703488 -2.970242 1.4426403
-0.42587209 -2.972012 1.4583013
-0.44355664 -2.9901624 1.4781818
-0.47720826 -2.9852104 1.50594
-0.50830138 -2.9916244 1.5229325
-0.53043544 -2.9967587 1.5354757
-0.56100607 -3.0052862 1.5489309
-0.58693302 -3.0253544 1.5680838
-0.61233175 -3.0283716 1.5863001
-0.63695478 -3.0324817 1.6014767
-0.66515005 -3.038805 1.6193033
-0.69051844 -3.0458107 1.635464
-0.71811581 -3.0501983 1.6529961
-0.74488878 -3.0536206 1.6699681
-0.77985913 -3.0609188 1.6914933
0.0022693276 -2.9086313 1.1698341
-0.033015013 -2.8958824 1.1747236
-0.049301684 -2.8942404 1.1980122
-0.067988336 -2.8953578 1.2172709
-0.13145399 -2.9073384 1.2606233
-0.14985394 -2.9251249 1.2749405
-0.18144691 -2.9287236 1.2894564
-0.22090411 -2.9289362 1.3090283
-0.23884523 -2.9461854 1.3242469
-0.26761007 -2.94204 1.3293812
-0.29869229 -2.947273 1.3523231
-0.32171321 -2.9601202 1.3854566
-0.34946275 -2.9547892 1.3925759
-0.37381616 -2.9625072 1.4008017
-0.39256194 -2.963697 1.4199368
-0.4565413 -2.9762759 1.4622889
-0.47608325 -2.9783888 1.4798847
-0.59621292 -3.0047493 1.5520188
-0.63174534 -3.0151651 1.5662985
-0.65267211 -3.0188904 1.5812
-0.67391479 -3.0229869 1.5954776
-0.70591074 -3.0292819 1.6166462
-0.73743033 -3.0350256 1.6387327
-0.7584033 -3.038805 1.6535437
-0.78957748 -3.0441465 1.6763022
-0.81887001 -3.0642936 1.6972398
-0.84517276 -3.0756552 1.6997137
-0.01032728 -2.9221029 1.1460074
-0.038572431 -2.9068043 1.1513705
-0.87911725 -3.0930433 1.6964281
-0.90397316 -3.1014659 1.6984973
-0.021850705 -2.9380002 1.1312616
-0.05317533 -2.919817 1.1369711
-0.93104076 -3.1117346 1.6978542
-0.96510541 -3.1143661 1.6962754
-0.056058764 -2.9558928 1.1072223
-0.090738922 -2.9451678 1.1109161
-0.96368676 -3.1339433 1.6940391
-0.99589306 -3.1420255 1.6884531
-0.046089232 -2.9657705 1.0820724
-0.09886992 -2.9519503 1.10158
-0.958749 -3.1615574 1.641809
-0.98639244 -3.1524706 1.656816
-1.0067364 -3.1421998 1.6708885
-0.99702519 -3.163543 1.6308088
-1.0260112 -3.1646407 1.6333904
-0.45277458 -3.0089273 1.5310709
-0.5664053 -3.0277214 1.6158485
-0.58781385 -3.0320113 1.6298031
0.032435656 -2.9174848 1.1905324
0.0042970181 -2.9204669 1.2247195
-0.015999913 -2.9234622 1.2408376
-0.036985278 -2.9272559 1.2556241
-0.073105812 -2.9383564 1.2687597
-0.10581756 -2.9454846 1.2885362
-0.13262105 -2.9429922 1.2962145
-0.16482657 -2.9570329 1.3145528
-0.19745338 -2.9634423 1.3346864
-0.21792072 -2.9710336 1.3490599
-0.23520064 -2.9723008 1.3704705
-0.26710647 -2.9784925 1.3918098
-0.3045131 -2.98701 1.4037651
-0.31736571 -2.9854136 1.4330575
-0.33632624 -2.9877379 1.4514891
-0.3718785 -2.9972904 1.4660201
-0.40107614 -3.0010107 1.4924082
-0.41948086 -3.0037367 1.5045543
-0.45016539 -2.9955001 1.5150332
-0.48565015 -3.0180428 1.5456882
-0.51526678 -3.0300927 1.5485147
-0.53808343 -3.0360217 1.5597301
-0.5616442 -3.0309072 1.5849833
-0.60088044 -3.0265224 1.6110692
-0.61553627 -3.0455604 1.6286721
-0.64257967 -3.0544984 1.6344765
-0.67561078 -3.0619986 1.6536314
-0.70713937 -3.0677528 1.6757007
-0.72834623 -3.0718043 1.6900568
-0.77238113 -3.0820479 1.7008419
0.048688591 -2.9317942 1.1544749
0.024486542 -2.9187117 1.159086
-0.8090378 -3.1074538 1.7026589
0.026421309 -2.9423962 1.1392624
0.016901076 -2.9373772 1.1411525
-0.84378755 -3.1195507 1.6989772
-0.86855423 -3.1318586 1.6953282
0.0096481442 -2.956125 1.1264317
-0.88716543 -3.1404426 1.694378
-0.90785396 -3.1454139 1.6945248
-0.016581118 -2.9710977 1.1005341
-0.929672 -3.1627057 1.6824663
-0.96306705 -3.1661253 1.6827564
-0.92794019 -3.1789021 1.6393383
-0.98430204 -3.1897516 1.6417992
0.019953668 -2.9362378 1.2441971
-0.0015050769 -2.9405859 1.2580547
-0.32338178 -3.0057819 1.4659758
-0.35611302 -3.0129347 1.4857093
-0.38016206 -3.0130196 1.5213521
-0.40165466 -3.0175955 1.5350819
-0.44210169 -3.0305009 1.5408528
-0.5059377 -3.0460329 1.606946
-0.54402429 -3.0465245 1.6243052
-0.57712388 -3.0469363 1.6453792
-0.60082948 -3.0605254 1.6491135
0.09107542 -2.9361079 1.1682718
0.077801287 -2.931541 1.1896756
0.050381362 -2.9317501 1.2196151
0.014354169 -2.9303935 1.2372971
-0.0085276961 -2.9317682 1.2498815
-0.027454257 -2.9455919 1.2684407
-0.05669421 -2.960691 1.287302
-0.092839777 -2.9643745 1.3028023
-0.11310077 -2.9673283 1.3189895
-0.14756614 -2.9816036 1.3418615
-0.17537832 -2.9779692 1.3635864
-0.1925261 -2.9828413 1.3743533
-0.21669686 -2.9973795 1.3914101
-0.25049621 -2.9982216 1.4115057
-0.28516233 -3.0013602 1.4332914
-0.30614662 -3.0009899 1.4456335
-0.36324376 -3.0061314 1.4767159
-0.47308439 -3.0446477 1.5550869
-0.4982172 -3.0515437 1.5683436
-0.51944387 -3.0484738 1.5833714
-0.62789524 -3.0716302 1.6518773
-0.65997505 -3.0797625 1.6724324
-0.6905092 -3.0839427 1.6916237
-0.71708703 -3.0926952 1.7009795
-0.7457391 -3.1081729 1.7031575
0.081058621 -2.948791 1.1480078
-0.77471197 -3.1185145 1.7000813
-0.79685855 -3.127897 1.7011927
0.079056084 -2.9716814 1.1297328
0.053182781 -2.9577391 1.1346884
-0.83124983 -3.1464248 1.7047993
-0.86009711 -3.1560118 1.7007996
0.04120636 -2.9740267 1.1208596
-0.87260199 -3.1619313 1.6997521
-0.89207995 -3.1726127 1.6941825
0.028396606 -2.9892881 1.0963922
-0.90539527 -3.186594 1.6723058
-0.28964615 -3.0344934 1.509647
-0.32085681 -3.0398757 1.5323387
-0.4655441 -3.0681398 1.6286107
-0.48517537 -3.0609851 1.6347008
-0.50423747 -3.0709608 1.6506034
0.15185702 -2.9538407 1.20081
0.13291311 -2.955261 1.2195596
0.1091848 -2.9540386 1.2305179
0.074917674 -2.9593432 1.2529907
0.040082991 -2.9637938 1.2668877
0.016536117 -2.9705727 1.2766831
-0.0065525174 -2.9768152 1.2873778
-0.037252545 -2.9816048 1.311059
-0.066433787 -3.0016198 1.3322139
-0.085311592 -3.0029631 1.3510919
-0.11615384 -3.0079148 1.3745053
-0.15573281 -3.0060449 1.3864021
-0.17636412 -3.0094264 1.4018781
-0.1894294 -3.0209992 1.4265745
-0.22809094 -3.019618 1.4433995
-0.25834513 -3.0213656 1.4651245
-0.27770263 -3.0344906 1.4793863
-0.3061617 -3.0254455 1.4866499
-0.33840668 -3.0288427 1.5083597
-0.36171532 -3.0381095 1.5320441
-0.38875294 -3.0485306 1.5496233
-0.424371 -3.0608492 1.5588771
-0.44857502 -3.0669327 1.5863559
-0.47659957 -3.0525169 1.5984422
-0.53665245 -3.0780725 1.6462793
-0.55920601 -3.0837331 1.6567717
-0.58354139 -3.0913892 1.6662767
-0.6068722 -3.0979166 1.676492
-0.64059258 -3.1062195 1.6943057
0.16350675 -2.9604535 1.1658931
0.12989408 -2.9487526 1.1671162
0.11555976 -2.9416947 1.1933267
-0.081986368 -2.9825754 1.3184729
-0.1006723 -2.9905572 1.3309919
-0.13057286 -2.9946229 1.3502451
-0.20784009 -3.00844 1.4017373
-0.676754 -3.1176028 1.7021991
-0.71002156 -3.1365399 1.7011621
0.1526078 -2.9736021 1.1466664
0.12181735 -2.9676178 1.1446552
-0.75068748 -3.1498728 1.7021039
-0.77038175 -3.14533 1.7032855
0.11762083 -2.9922693 1.1222305
0.090908289 -2.9780924 1.1274772
-0.76331347 -3.1732323 1.7002966
-0.79193306 -3.1756327 1.7001259
-0.81828547 -3.1668804 1.7023048
0.10265917 -3.0106514 1.1063604
0.070502341 -2.9941306 1.109897
-0.82466233 -3.1997318 1.7020043
-0.85236245 -3.1885941 1.7011591
-0.86589134 -3.2247007 1.6803901
-0.89110637 -3.2068563 1.6886311
-0.91543609 -3.2471585 1.6823883
0.14898032 -2.9705541 1.2398357
0.12794471 -2.9744062 1.2545254
-0.15190727 -3.0319486 1.4329861
-0.17096359 -3.0334997 1.4515171
-0.19421041 -3.0399296 1.4618956
-0.23291636 -3.0475893 1.4965622
-0.2545706 -3.0521123 1.5100646
-0.27698529 -3.0551629 1.5267107
-0.30712628 -3.0545869 1.5421386
-0.40119851 -3.073637 1.6070826
-0.42663842 -3.0740864 1.6244595
-0.45133114 -3.0838435 1.6358318
-0.47533345 -3.0851259 1.6423494
0.19312984 -2.9658864 1.1974933
0.16522127 -2.9636765 1.2186068
0.13659137 -2.9584978 1.2242868
0.092944145 -2.984201 1.2698443
0.057307363 -2.9896107 1.2855809
0.035998285 -2.9915187 1.3004615
0.012991488 -3.0015578 1.3144548
-0.018946052 -3.0112879 1.3302015
-0.049232483 -3.0200977 1.3532413
-0.068383336 -3.0165663 1.3658564
-0.1046713 -3.0202081 1.3885552
-0.13431996 -3.0344198 1.4083092
-0.1635806 -3.0234051 1.4174254
-0.18784791 -3.021647 1.4288472
-0.21295077 -3.0373185 1.4578016
-0.34824687 -3.0748098 1.5514817
-0.37167019 -3.0814452 1.5615163
-0.40346289 -3.078722 1.5777607
-0.51416403 -3.1109934 1.6546263
-0.54504865 -3.1168921 1.6695026
-0.56673658 -3.1207607 1.6831632
-0.5886153 -3.1251223 1.6969415
-0.61521912 -3.1379924 1.6993949
0.20571658 -2.9733639 1.1646487
0.1910598 -2.9784832 1.1532403
-0.64124286 -3.1479728 1.7048873
-0.67509711 -3.163517 1.7019768
0.17092773 -2.9965072 1.1346233
-0.70966202 -3.1796708 1.6996412
-0.73078585 -3.1819086 1.6996042
0.14893386 -3.0089154 1.116097
-0.75661862 -3.2041106 1.7008299
-0.77464366 -3.2078938 1.7010342
0.13053772 -3.0176835 1.0977917
0.10426992 -3.0114024 1.1075349
-0.81287891 -3.2200346 1.6984118
-0.84198213 -3.2368348 1.6958359
-0.87933624 -3.259764 1.6860331
-0.21557039 -3.0575182 1.520578
-0.33613855 -3.0927422 1.6136308
-0.37189585 -3.0940666 1.6305025
-0.40823895 -3.0961018 1.6462247
0.21372169 -2.9805779 1.2240096
0.18651974 -2.983407 1.2456598
0.16535753 -2.9888315 1.2596345
0.14079607 -2.993438 1.2685471
0.11751002 -2.9999137 1.2788491
0.073316813 -3.0100915 1.3040907
0.052864552 -3.0132678 1.3199067
0.029435992 -3.019906 1.3299401
-0.011687577 -3.0265136 1.3611444
-0.032939315 -3.0306172 1.3754141
-0.056532264 -3.0374501 1.385119
-0.088146508 -3.0444565 1.4148133
-0.11530507 -3.0487103 1.4360688
-0.13989073 -3.0522032 1.4540513
-0.16418046 -3.0507164 1.4682176
-0.18962127 -3.0586901 1.4855568
-0.23741287 -3.0623095 1.5336983
-0.263708 -3.0722883 1.5381465
-0.29683149 -3.0817106 1.5522327
-0.33008873 -3.0971229 1.5727719
-0.35357517 -3.0940452 1.5888269
-0.37365448 -3.08781 1.6052939
-0.43737733 -3.1129894 1.6460452
0.26669189 -2.9870958 1.1745269
0.24248442 -2.9781671 1.1840732
0.21259305 -2.9709983 1.1927013
0.093422353 -3.0073187 1.2876017
-0.0066399574 -3.0214009 1.3380919
-0.4717465 -3.1306329 1.6429667
-0.50332367 -3.1332183 1.6481482
-0.54189706 -3.1485338 1.6642289
-0.56304687 -3.1525187 1.6786964
-0.58498734 -3.1574278 1.6916163
-0.60830182 -3.163933 1.7018721
0.25599653 -2.9987297 1.153984
0.22658217 -2.9944477 1.1500365
-0.54109341 -3.1617029 1.6612365
-0.56141067 -3.1688845 1.6759779
-0.61963522 -3.1721289 1.700578
-0.66150224 -3.1812415 1.7018135
0.20977446 -3.0175827 1.1293957
-0.66612494 -3.1899831 1.7005889
-0.69529176 -3.2054632 1.7026629
0.19653335 -3.0340221 1.1066549
0.17184418 -3.0221367 1.1122328
-0.73826063 -3.2220886 1.7000457
-0.77963954 -3.2364626 1.6965708
-0.78707111 -3.2512064 1.6762112
-0.81654817 -3.2491312 1.6901212
-0.84645873 -3.2680767 1.6860075
-0.13196462 -3.0763612 1.4988779
-0.16620165 -3.0786209 1.5178289
-0.20133889 -3.073127 1.5334358
-0.22439939 -3.081044 1.5498893
-0.31069875 -3.0992591 1.6036847
-0.32751012 -3.0980198 1.6254674
-0.37055343 -3.1088226 1.6426905
0.28365016 -2.9976301 1.1977385
0.26034549 -2.991369 1.2131581
0.23298299 -2.9914062 1.2344253
0.19979304 -3.0000186 1.2611254
0.17653549 -3.0064609 1.2714832
0.15261251 -3.0153868 1.2824228
0.12047708 -3.0173602 1.3023443
0.095594525 -3.0318811 1.3197901
0.069127202 -3.0405381 1.3366209
0.04609251 -3.0423605 1.3488281
0.012802303 -3.0422552 1.3705336
-0.020207703 -3.0435276 1.3912249
-0.036765754 -3.0554078 1.4027281
-0.066135108 -3.0569177 1.4245579
-0.099391878 -3.0594342 1.4575791
-0.12398261 -3.0674255 1.4653523
-0.1440419 -3.0701442 1.4819319
-0.1740284 -3.0741014 1.5070055
-0.25186861 -3.0924983 1.5501997
-0.29298413 -3.105556 1.5661657
-0.40203696 -3.1341918 1.6436552
-0.4253816 -3.1336839 1.6460059
0.29632735 -3.0009825 1.1676042
0.28510842 -2.9959664 1.1703691
-0.45174479 -3.1476161 1.6398824
-0.46387237 -3.1535964 1.638221
-0.49075103 -3.1642513 1.6415431
0.28330773 -3.0252728 1.1393259
0.25959221 -3.0156939 1.140282
-0.50602531 -3.1686239 1.6451265
-0.53920424 -3.1793928 1.6584879
-0.55960095 -3.1825008 1.6744204
-0.58103275 -3.1811752 1.6901524
-0.62516594 -3.201926 1.6993208
0.24093974 -3.0356801 1.1228378
-0.65764165 -3.2276015 1.7017522
-0.68227249 -3.2268543 1.7011003
0.25697917 -3.0552878 1.088311
0.22891319 -3.049531 1.0973039
-0.71768576 -3.2405975 1.6979328
-0.74861795 -3.2567375 1.6927586
-0.76375675 -3.2622635 1.6708443
-0.80814123 -3.2861369 1.6913625
-0.12901503 -3.1002703 1.5446918
-0.23630005 -3.1233206 1.6136165
0.33421481 -3.0156345 1.2223325
0.31259763 -3.0193453 1.2361549
0.28936636 -3.0256355 1.2466025
0.24999505 -3.0257478 1.2663476
0.22494769 -3.0387259 1.288101
0.20498437 -3.0412109 1.3047459
0.18114525 -3.0484488 1.314103
0.095041335 -3.0661507 1.3690178
0.075879633 -3.0684743 1.3871413
0.052634776 -3.0742488 1.3977351
0.011997759 -3.0800493 1.4278476
-0.01089865 -3.0780554 1.4436209
-0.04778111 -3.085079 1.4617796
-0.080215752 -3.0844529 1.4795933
-0.10476303 -3.0892234 1.4940586
-0.11725551 -3.0899546 1.5175718
-0.15466934 -3.0934536 1.5392947
-0.1912626 -3.110275 1.5510147
-0.21024877 -3.115674 1.5590931
-0.22621423 -3.1304042 1.5793903
-0.25655448 -3.1284206 1.604655
-0.29036325 -3.1243992 1.6176229
-0.31073618 -3.1294873 1.6416289
-0.33935934 -3.1400959 1.6471543
0.36666572 -3.0181882 1.1746361
0.32733253 -3.0067577 1.1932757
0.29408628 -3.0067813 1.2111613
0.27480513 -3.0085943 1.2292545
0.25628769 -3.0095179 1.248834
0.21225518 -3.0195091 1.2743881
0.18854785 -3.026475 1.2838709
0.16545814 -3.0327187 1.2945642
0.14103752 -3.0471926 1.3249761
0.10624987 -3.0567398 1.340709
0.078845561 -3.0510128 1.3484896
0.060405135 -3.0518436 1.3682275
0.027343392 -3.067275 1.392921
-0.0045793653 -3.0655925 1.4086252
-0.025939643 -3.0698261 1.4226736
-0.046352386 -3.072953 1.4385749
-0.24035412 -3.1130919 1.5616188
-0.27327895 -3.1204703 1.5809757
-0.36746097 -3.1542552 1.6424913
-0.38613087 -3.1574297 1.6427503
0.3553921 -3.0308359 1.1513993
0.32444584 -3.0127263 1.160179
-0.39381236 -3.1812932 1.6413493
-0.42328811 -3.1787388 1.6437668
-0.45736748 -3.1800227 1.6398941
0.33193982 -3.0503302 1.1293235
0.30613676 -3.0366399 1.1343937
-0.45572251 -3.1999869 1.6389699
-0.4932996 -3.2126515 1.6376877
-0.5344134 -3.208406 1.651343
-0.55842793 -3.2138121 1.6678629
-0.57643902 -3.2199478 1.6848385
-0.600896 -3.2236428 1.6969521
0.31080818 -3.0697131 1.102278
0.27962571 -3.0566506 1.1125183
-0.51045585 -3.2345512 1.6368508
-0.53451371 -3.2418649 1.6398158
-0.55150282 -3.2463703 1.6539207
-0.57520092 -3.2480216 1.6777138
-0.61414623 -3.2476368 1.6982906
-0.64573854 -3.2556183 1.7009969
-0.69930762 -3.2774253 1.7463639
-0.71122539 -3.280055 1.7535045
0.26645324 -3.0595922 1.1017894
-0.5127126 -3.2453561 1.6001086
-0.5435611 -3.2542884 1.6231201
-0.68116164 -3.2675691 1.6998751
-0.71806788 -3.2906601 1.7303649
-0.73485899 -3.2959566 1.7421657
-0.68879068 -3.2897258 1.6817482
-0.72111315 -3.2902484 1.6881474
-0.74921203 -3.2937279 1.6820738
-0.77115184 -3.3006225 1.695796
-0.79156798 -3.3017187 1.7087517
-0.051777184 -3.105391 1.5108099
-0.076577961 -3.1064095 1.5271573
-0.102157 -3.1166179 1.5415428
-0.18576598 -3.1404543 1.5978944
-0.20528179 -3.1297624 1.6112769
-0.23231012 -3.1387393 1.6393713
-0.26019681 -3.1515796 1.6428114
0.38542539 -3.0306218 1.2042937
0.35940397 -3.0269198 1.2255932
0.3286368 -3.0345492 1.2564161
0.29921901 -3.0368791 1.2584339
0.26789999 -3.0499806 1.2784626
0.23447198 -3.0513263 1.2989784
0.21825874 -3.0598774 1.3197104
0.18749523 -3.0643852 1.3294621
0.1612221 -3.0749557 1.3476715
0.12853152 -3.0762541 1.3693746
0.106022 -3.0811088 1.3814197
0.088069022 -3.0876293 1.4000843
0.052622616 -3.0909884 1.4167787
0.026845098 -3.0969999 1.4477983
0.0071894526 -3.0992489 1.465163
-0.026255667 -3.1072311 1.4835126
-0.13194299 -3.1270962 1.5559374
-0.16948378 -3.1398487 1.566314
-0.19451189 -3.1373222 1.5767984
-0.27358681 -3.1578674 1.6418259
-0.30172008 -3.1723177 1.6452416
-0.33097333 -3.157541 1.649755
0.39995244 -3.0333269 1.1707147
-0.34902418 -3.1858413 1.6433511
0.38741755 -3.0484343 1.1474353
-0.38742334 -3.2051117 1.6372291
-0.4167974 -3.2214177 1.6412556
0.36935151 -3.0682566 1.1263229
0.34436792 -3.0571008 1.1269871
-0.42148286 -3.2294793 1.6403153
-0.45480686 -3.2389562 1.6392945
-0.49373764 -3.2549849 1.6304423
-0.55547607 -3.2539425 1.6578189
-0.57419419 -3.2647309 1.6738969
-0.60285938 -3.2748904 1.6908884
-0.63683009 -3.2928214 1.7229037
-0.65502763 -3.2871113 1.7355801
-0.68344259 -3.2945406 1.7619944
-0.71818173 -3.3068066 1.7703435
-0.49051303 -3.2659674 1.609063
-0.54457843 -3.2712507 1.6295723
-0.55500293 -3.2791407 1.6504223
-0.57502306 -3.2818139 1.6670785
-0.61954117 -3.2923701 1.6916883
-0.63966739 -3.295296 1.69284
-0.66652524 -3.3057408 1.7111536
-0.69308519 -3.2973039 1.7214994
-0.74408567 -3.3213258 1.7620908
-0.67771578 -3.318938 1.6925478
-0.71502405 -3.3100777 1.7074122
0.43380615 -3.0450268 1.2223125
0.41164961 -3.0480411 1.2355053
0.29285657 -3.0715785 1.3106534
0.1771667 -3.1021326 1.3884056
0.15498644 -3.1050925 1.4015782
0.10069603 -3.1088264 1.4317191
0.073518634 -3.1040239 1.4453623
0.045486271 -3.1152272 1.4639285
0.01879108 -3.1189125 1.4797204
-0.012717545 -3.120342 1.5005245
-0.03702426 -3.1228101 1.5349888
-0.057986498 -3.1265769 1.5498209
-0.093696177 -3.1403847 1.5551717
-0.1267519 -3.1585596 1.5783951
-0.14665347 -3.1497433 1.5950539
-0.16350782 -3.1484137 1.6218739
-0.18609655 -3.1522615 1.6374183
-0.21974105 -3.1616104 1.6497235
0.43888018 -3.0434546 1.1839467
0.41902202 -3.0365806 1.2018385
0.40375546 -3.0429997 1.2247446
0.37261388 -3.0483 1.2475756
0.34081513 -3.0543652 1.2691283
0.3165769 -3.0619495 1.2775779
0.28704959 -3.065372 1.3035448
0.25225955 -3.0749218 1.319273
0.23007143 -3.0801191 1.3317112
0.20728689 -3.0860074 1.3429985
0.17761731 -3.0895956 1.3686883
0.14734101 -3.0938904 1.3931978
0.12262172 -3.1020343 1.4007123
0.1019339 -3.1054819 1.4160776
0.040712059 -3.11485 1.4637957
-0.12180036 -3.1492825 1.564689
-0.27366698 -3.1876287 1.6423488
0.42992368 -3.0516136 1.1622421
-0.29638815 -3.1977737 1.6420906
-0.32398272 -3.2096851 1.6448749
0.41885734 -3.0664365 1.1418923
-0.35132158 -3.2305338 1.6431829
-0.37485141 -3.2334828 1.6393778
0.40179911 -3.0891769 1.1166623
0.37116969 -3.0825012 1.111907
-0.38869089 -3.2491703 1.6352438
-0.41379201 -3.2519135 1.6361223
-0.439951 -3.2596276 1.6348419
-0.43044788 -3.2661846 1.6053731
-0.4557963 -3.2668602 1.6143121
-0.47923547 -3.2669833 1.6264338
-0.61844981 -3.3075125 1.730207
-0.63918412 -3.30796 1.753711
-0.6784122 -3.3235173 1.7686863
-0.69608557 -3.3259075 1.7731627
-0.55246454 -3.2965684 1.6487772
-0.61849451 -3.3066144 1.68873
-0.63213658 -3.3191621 1.7032517
-0.71501935 -3.3343422 1.7729988
-0.12574238 -3.1569111 1.6294508
-0.14724422 -3.1613059 1.6432335
0.45974219 -3.0530374 1.2137747
0.44248411 -3.0525389 1.2335055
0.42148477 -3.0563524 1.248256
0.38812026 -3.0670218 1.2596667
0.35450026 -3.0781753 1.2829151
0.3291626 -3.0815978 1.2979875
0.30105066 -3.0830655 1.319803
0.27184874 -3.0959089 1.3360125
0.24167538 -3.0988991 1.3533118
0.22357684 -3.0979283 1.3647134
0.19501334 -3.104759 1.3829342
0.16025102 -3.1128538 1.4073336
0.14395517 -3.1205332 1.4282179
0.1191389 -3.1194448 1.4385694
0.089809 -3.1226392 1.4649156
0.05515641 -3.1320271 1.4809165
0.037414014 -3.1316388 1.5089459
0.0078516603 -3.1327655 1.5287933
-0.017034352 -3.1411207 1.5424465
-0.048765361 -3.1498351 1.5567802
-0.074015558 -3.1585975 1.5632615
-0.10211074 -3.163655 1.5910938
-0.17416084 -3.176115 1.6472318
-0.22210646 -3.1921704 1.6514581
0.48014659 -3.079392 1.1860536
0.4589844 -3.0577605 1.1997712
0.37377074 -3.0706294 1.2666485
0.35194105 -3.0754058 1.2797934
0.33028209 -3.0799873 1.2932606
0.26563948 -3.0933383 1.3343232
0.24423552 -3.0976226 1.3482869
-0.26077324 -3.209347 1.6435399
0.46540955 -3.0818877 1.1621193
0.45493636 -3.0734093 1.1624285
-0.29231882 -3.2301264 1.6430948
-0.31972283 -3.2382963 1.6413281
0.45315057 -3.0899928 1.1402621
0.4461281 -3.0852458 1.1410313
-0.33481699 -3.2529893 1.6402264
0.44370881 -3.1044612 1.1207711
0.43286043 -3.0979984 1.1224797
-0.36074865 -3.286608 1.6102767
-0.37882823 -3.2747757 1.6319206
-0.40859455 -3.2785296 1.6300359
-0.60817337 -3.3310795 1.7350769
-0.6325382 -3.3342166 1.7556604
-0.65752351 -3.3442459 1.765801
0.19255716 -3.143235 1.4482219
0.17303497 -3.1453283 1.465847
0.15032083 -3.1511345 1.4772706
0.11827803 -3.1560462 1.5069611
0.092163265 -3.1572747 1.5308402
0.061077058 -3.1554952 1.5315669
0.028710008 -3.1622224 1.5520138
-0.035372734 -3.1804767 1.6127141
-0.07496649 -3.1782279 1.6288407
-0.10221028 -3.1895866 1.6477395
-0.13877881 -3.1854496 1.6487211
0.5130254 -3.0828419 1.2209474
0.48971182 -3.0794902 1.2368817
0.46821856 -3.0823152 1.2587147
0.44664496 -3.0887978 1.2733767
0.4066062 -3.0961325 1.2903672
0.38296002 -3.0988653 1.3122458
0.35938764 -3.1083474 1.3271412
0.32013088 -3.1141205 1.3446114
0.29452896 -3.1205473 1.3660209
0.27421445 -3.1253953 1.3810612
0.25087166 -3.1297715 1.3985076
0.21566087 -3.1362126 1.4171436
0.17999244 -3.1307561 1.4325335
0.16062969 -3.1280735 1.4465052
0.13667738 -3.1333892 1.4608915
0.10513783 -3.1454368 1.4816093
0.070677221 -3.1480105 1.5026542
-0.0091143847 -3.174825 1.5601943
-0.027399421 -3.1873212 1.5755997
-0.061944604 -3.1776912 1.5859613
-0.13538837 -3.2126718 1.6519483
-0.16546512 -3.2123871 1.6482491
-0.19708359 -3.2130651 1.6486368
0.4980557 -3.090955 1.1867827
-0.21480799 -3.2428555 1.6459334
-0.23933536 -3.2307591 1.6464686
0.48373511 -3.1042092 1.1660577
-0.25227469 -3.2614236 1.643101
-0.28048146 -3.2509916 1.6409864
0.47716284 -3.1155856 1.1432354
-0.28336793 -3.2856059 1.637641
-0.32037544 -3.2774737 1.6373265
0.47399548 -3.1277156 1.1191199
-0.3384428 -3.2999258 1.6275129
-0.35420644 -3.2844684 1.6386423
-0.020285666 -3.1980298 1.6348485
-0.041367412 -3.2019391 1.649439
0.54662895 -3.0931568 1.2533189
0.5039866 -3.1035576 1.2646096
0.48208997 -3.1084154 1.2776151
0.46285197 -3.110178 1.2957923
0.42990512 -3.1175799 1.3151114
0.396211 -3.1258521 1.3329766
0.33388889 -3.1365016 1.3785532
0.31303841 -3.1401415 1.3935937
0.28913307 -3.1473379 1.4026912
0.26715934 -3.1522822 1.4155557
0.24225718 -3.1535268 1.4494847
0.20702022 -3.1603901 1.4653792
0.18924254 -3.1679833 1.4839658
0.16675538 -3.1692522 1.497211
0.14063919 -3.1706502 1.5173204
0.10684061 -3.173841 1.5485239
0.077848673 -3.1808019 1.5535984
0.044136941 -3.1952527 1.5655563
0.015308678 -3.20099 1.5918684
-0.0016663671 -3.1978173 1.6068659
-0.067026615 -3.2191749 1.6525495
-0.086570263 -3.221962 1.6493559
0.56175935 -3.0972743 1.2088825
0.5378561 -3.0851264 1.2258317
0.42956045 -3.105839 1.2938935
0.37351543 -3.1316404 1.3444273
0.34930331 -3.1335285 1.354758
-0.11003453 -3.2330668 1.6473966
-0.12919122 -3.2315619 1.6488738
-0.15509599 -3.2502928 1.6478626
0.54534489 -3.1184793 1.1827542
-0.17149639 -3.2612965 1.6445761
-0.18841374 -3.2685304 1.6418672
0.52075982 -3.1333122 1.164443
0.50846547 -3.1261275 1.1664629
-0.21489972 -3.2801526 1.6454931
-0.23886847 -3.2914221 1.6436909
0.49936736 -3.1413789 1.147258
-0.27128893 -3.3085203 1.6362556
-0.26930094 -3.3159583 1.6138442
-0.31084239 -3.3267529 1.6324236
0.21562052 -3.1878428 1.5189488
0.18724614 -3.179091 1.5261912
0.15732974 -3.1866746 1.5420432
0.038214266 -3.2043285 1.6220911
0.014091372 -3.2062125 1.6372181
-0.0063407421 -3.2162182 1.6498525
0.58558643 -3.1023245 1.2452828
0.54856658 -3.1113319 1.2709935
0.52163458 -3.1230154 1.2860215
0.49993584 -3.1218035 1.3004183
0.47748077 -3.1236272 1.3144068
0.45020804 -3.1328802 1.3300216
0.41427201 -3.1477387 1.3542523
0.39203417 -3.1468153 1.3685892
0.36062104 -3.155256 1.3899755
0.32814944 -3.1614709 1.4104196
0.30591881 -3.1647854 1.4233993
0.28404093 -3.1666429 1.4379207
0.25580877 -3.1685421 1.4659026
0.21855468 -3.1743724 1.4789652
0.20317268 -3.1782336 1.502517
0.11729276 -3.1956718 1.5578762
0.086877048 -3.2065229 1.5648849
0.057897151 -3.2146945 1.5829976
-0.045841575 -3.2383392 1.6502999
0.59090567 -3.120981 1.2035176
-0.092338681 -3.2512286 1.6460816
-0.1244213 -3.2724798 1.6478765
0.57379884 -3.1448183 1.1770689
-0.16012782 -3.2854695 1.6465244
0.54609472 -3.1489422 1.1607744
-0.20287764 -3.3039598 1.6414039
-0.21271497 -3.3372247 1.6304879
-0.23951244 -3.3197246 1.6337892
