# .PCD v0.7 - Point Cloud Data file format
VERSION 0.7
FIELDS x y z
SIZE 4 4 4
TYPE F F F
COUNT 1 1 1
WIDTH 1465
HEIGHT 1
VIEWPOINT 0 0 0 1 0 0 0
POINTS 1465
DATA ascii
-1.2338753 -2.0506256 -4.2524304
-1.2045732 -2.0464635 -4.2589884
-1.1388057 -2.0477071 -4.3092098
-1.2337848 -2.087975 -4.2358985
-1.2015696 -2.0964301 -4.2546988
-1.1432229 -2.087975 -4.2993107
-1.1397841 -2.0804937 -4.3050427
-1.1678808 -2.1018546 -4.275878
-1.1961932 -2.0195076 -4.3163118
-1.1608329 -2.0177283 -4.3351035
-1.2872767 -2.0576229 -4.2385073
-1.246604 -2.0524724 -4.2497115
-1.2752752 -2.0923045 -4.2213669
-1.236825 -2.0885644 -4.2357459
-1.1400027 -2.0891051 -4.3053551
-1.2997162 -2.1294515 -4.1869807
-1.2725124 -2.1328483 -4.2174211
-1.2944853 -2.1684296 -4.1795106
-1.2114422 -2.0093961 -4.3380899
-1.1801693 -2.0032482 -4.3627191
-1.1489894 -1.9966297 -4.3874922
-1.2862374 -2.0268693 -4.2779541
-1.272141 -2.0242472 -4.2861824
-1.2376013 -2.0187495 -4.3061576
-1.1384395 -2.0253532 -4.376358
-1.30358 -2.035917 -4.2617903
-1.1383579 -2.0475552 -4.3723087
-1.3325709 -2.0606055 -4.2285056
-1.1419139 -2.064219 -4.3624148
-1.3231573 -2.0990767 -4.2105536
-1.1414568 -2.1015685 -4.3461399
-1.2518635 -2.127696 -4.2572231
-1.2200572 -2.1240773 -4.2811022
-1.1541028 -2.1281097 -4.3254919
-1.3447294 -2.1450198 -4.1845007
-1.2626235 -2.1389174 -4.2447033
-1.1849141 -2.1364684 -4.3002038
-1.3392975 -2.1753039 -4.1711903
-1.2284977 -1.9977095 -4.3624477
-1.1915469 -1.9949208 -4.3789678
-1.1534789 -1.9914268 -4.3939037
-1.3461158 -2.0320036 -4.2532468
-1.3087046 -2.0289226 -4.2691092
-1.3711071 -2.0694969 -4.2196345
-1.1381879 -2.0663185 -4.3720665
-1.3520138 -2.1419752 -4.1923666
-1.2549429 -2.1423578 -4.261621
-1.1866548 -2.1403465 -4.30269
-1.1624165 -2.1456246 -4.3373652
-1.2145755 -1.9672372 -4.4118557
-1.1925426 -1.9657662 -4.4223499
-1.1792488 -1.9640485 -4.4307075
-1.146307 -1.9624144 -4.45399
-1.2409663 -1.9841962 -4.3802547
-1.2110374 -1.9716102 -4.4068031
-1.3350799 -2.0047216 -4.306777
-1.3219165 -2.0031152 -4.3151665
-1.3015544 -2.000766 -4.3281894
-1.2683606 -1.9976771 -4.3500862
-1.1405736 -2.0010116 -4.4434953
-1.3948436 -2.0268996 -4.2535338
-1.3648558 -2.0145705 -4.2800097
-1.4238169 -2.040591 -4.2276435
-1.385504 -2.0363352 -4.2401958
-1.14702 -2.0404646 -4.4210348
-1.4024012 -2.0778143 -4.2256193
-1.1406119 -2.0778143 -4.4089265
-1.3805995 -2.09513 -4.2331915
-1.3654206 -2.1151638 -4.2349181
-1.1400797 -2.1129968 -4.3854351
-1.3704319 -2.1438336 -4.2186704
-1.3721428 -2.1525128 -4.2136159
-1.2329946 -2.1490932 -4.2995787
-1.2915411 -1.9747589 -4.3831916
-1.2531793 -1.9710747 -4.3976965
-1.4115856 -2.0105882 -4.2774439
-1.3730531 -2.0067995 -4.2917171
-1.4654036 -2.0457151 -4.2157097
-1.1428609 -2.0476456 -4.4480314
-1.4265145 -2.0839975 -4.2294736
-1.2433701 -1.9432118 -4.4529791
-1.2249118 -1.9420102 -4.4618726
-1.2083676 -1.9397707 -4.4722929
-1.1746826 -1.9345061 -4.4934773
-1.1512686 -1.9427781 -4.5160141
-1.2717011 -1.9531772 -4.4241486
-1.2407494 -1.9454911 -4.4492359
-1.3645344 -1.9816316 -4.3488426
-1.3503236 -1.9793596 -4.3574629
-1.3305583 -1.975919 -4.3696108
-1.3018074 -1.9649136 -4.3978534
-1.1557693 -1.9793596 -4.4936914
-1.3932455 -1.9947854 -4.3205547
-1.4867821 -2.0164676 -4.2451377
-1.4519666 -2.0116825 -4.2658229
-1.423852 -2.0041506 -4.2949624
-1.1462831 -2.0167086 -4.4837389
-1.5136883 -2.0416965 -4.2153764
-1.5184202 -2.0540581 -4.2065701
-1.509141 -2.0540588 -4.2088819
-1.1415032 -2.0540581 -4.4704905
-1.4747036 -2.07249 -4.2289915
-1.4536897 -2.0914078 -4.2352996
-1.4364535 -2.0997357 -4.2436681
-1.1473073 -2.0895481 -4.4524336
-1.3993707 -2.1214199 -4.2599993
-1.3932043 -2.1287572 -4.2610564
-1.3941574 -2.1463904 -4.2525539
-1.1976904 -1.9132493 -4.5263357
-1.1631322 -1.9119825 -4.5462847
-1.3185226 -1.9495828 -4.4217248
-1.2798345 -1.9456918 -4.4357643
-1.4072698 -1.9862154 -4.3405833
-1.147351 -1.9865632 -4.523747
-1.5645612 -2.0250213 -4.2187386
-1.5260744 -2.0212581 -4.2330656
-1.5551809 -2.0613663 -4.2053423
-1.4841574 -2.0999129 -4.2424927
-1.2385195 -1.9164033 -4.5153542
-1.2083565 -1.9049379 -4.5415688
-1.1770566 -1.8988937 -4.5661712
-1.3002368 -1.9326928 -4.4649014
-1.2724534 -1.9236541 -4.494514
-1.2436285 -1.9182538 -4.5109544
-1.2370328 -1.9175555 -4.5132308
-1.1588401 -1.9182538 -4.5703239
-1.3900685 -1.9560928 -4.3934627
-1.3589777 -1.9501506 -4.4101977
-1.3312167 -1.9402437 -4.4398537
-1.1547657 -1.9556034 -4.5565815
-1.4218451 -1.9739944 -4.3613987
-1.3925689 -1.9582831 -4.3888793
-1.5520829 -1.9954653 -4.2702088
-1.5190586 -1.9951683 -4.2923369
-1.4833263 -1.9938543 -4.3106093
-1.47407 -1.9929528 -4.3164067
-1.4496969 -1.9899126 -4.3318725
-1.1476406 -1.9929528 -4.5449748
-1.5770646 -2.0102692 -4.2365952
-1.5463609 -2.001395 -4.2620373
-1.5143994 -1.9985464 -4.2856827
-1.6160073 -2.0303018 -4.2004261
-1.6046721 -2.0254138 -4.2067194
-1.1498187 -2.0301387 -4.5270619
-1.6033255 -2.0404503 -4.2047968
-1.5824885 -2.0676513 -4.2073011
-1.5637931 -2.0738413 -4.2176414
-1.1505054 -2.0676513 -4.509779
-1.5292488 -2.0833626 -4.2375984
-1.4944988 -2.1089487 -4.2505622
-1.4547096 -2.1284914 -4.2697401
-1.2272381 -1.8897017 -4.5685344
-1.1897697 -1.8865882 -4.5843272
-1.1589612 -1.8876971 -4.6096191
-1.348761 -1.9264734 -4.4649096
-1.3126656 -1.9242277 -4.4826517
-1.148641 -1.9234459 -4.5948801
-1.4356219 -1.9619091 -4.3810744
-1.1494468 -1.9662545 -4.5960312
-1.6261548 -2.001147 -4.2374001
-1.588215 -1.9977343 -4.2525196
-1.644991 -2.0347376 -4.1950102
-1.6052078 -2.072449 -4.2074847
-1.1505458 -2.0731845 -4.5283093
-1.1793271 -1.8649031 -4.6387048
-1.2372886 -1.8825746 -4.5828876
-1.2068589 -1.8723603 -4.6087332
-1.3295382 -1.9085586 -4.5067482
-1.2954702 -1.8956076 -4.5373392
-1.2668155 -1.892801 -4.5557652
-1.1623961 -1.8944995 -4.6300292
-1.3907925 -1.9270664 -4.4556341
-1.3601724 -1.9177656 -4.4812069
-1.451702 -1.9471996 -4.4040389
-1.4236676 -1.9360909 -4.4332929
-1.4047357 -1.931849 -4.4437456
-1.38665 -1.9298539 -4.449718
-1.1558934 -1.9318491 -4.6179872
-1.5832866 -1.9729687 -4.3147726
-1.5478202 -1.9711218 -4.3334126
-1.5130826 -1.9697416 -4.3531055
-1.5066707 -1.9691987 -4.3557744
-1.4784993 -1.9632287 -4.3730068
-1.1490463 -1.9691987 -4.6061859
-1.6067213 -1.9844338 -4.2789488
-1.5753592 -1.9787128 -4.3034511
-1.5437206 -1.9743172 -4.3275576
-1.5119056 -1.9707394 -4.3514247
-1.1511711 -1.9831616 -4.5984936
-1.6667471 -2.0070164 -4.2272434
-1.6374959 -1.9929945 -4.2535973
-1.1555518 -2.0065482 -4.5850353
-1.7308029 -2.047869 -4.1789675
-1.7017671 -2.0438972 -4.1859765
-1.6916002 -2.0406799 -4.1922832
-1.1495607 -2.0438972 -4.5726357
-1.6566981 -2.0569618 -4.211729
-1.6314743 -2.0812466 -4.2186007
-1.6169528 -2.0913978 -4.2242584
-1.5823103 -2.1013639 -4.2440867
-1.54768 -2.1112988 -4.2639208
-1.2596744 -1.8679878 -4.6148582
-1.2194817 -1.8631456 -4.6267605
-1.1538939 -1.862844 -4.6716738
-1.3796505 -1.9037774 -4.5090246
-1.3401586 -1.8993763 -4.5219154
-1.1504803 -1.9029747 -4.6667986
-1.5002285 -1.9399462 -4.4040394
-1.4627966 -1.9368556 -4.4198837
-1.6917504 -1.9798152 -4.2617893
-1.6565253 -1.9781215 -4.2807741
-1.6199235 -1.9755578 -4.2978039
-1.7825124 -2.0177262 -4.1835256
-1.7454334 -2.0148563 -4.199862
-1.7073437 -2.0113485 -4.214767
-1.156263 -2.0128772 -4.6057653
-1.1539539 -2.0537086 -4.6024675
-1.2084342 -1.8400458 -4.680274
-1.1752496 -1.8380089 -4.7021728
-1.2656258 -1.86304 -4.6233578
-1.2357261 -1.850287 -4.64996
-1.331309 -1.8772025 -4.5785685
-1.2946935 -1.8714966 -4.6000576
-1.1600754 -1.870744 -4.6938419
-1.3886899 -1.8973681 -4.521934
-1.3577546 -1.8896036 -4.5470452
-1.4809908 -1.9231075 -4.4458675
-1.4531175 -1.9141331 -4.4753518
-1.4188008 -1.9082109 -4.4961624
-1.1520671 -1.9080929 -4.6828542
-1.5421768 -1.9419416 -4.3946562
-1.5118133 -1.9314394 -4.4205837
-1.1547303 -1.9263699 -4.6728683
-1.603701 -1.9591579 -4.3439274
-1.5752062 -1.9498084 -4.3725238
-1.5463841 -1.9446745 -4.387579
-1.1620898 -1.9454424 -4.6592407
-1.158613 -1.9504328 -4.6784134
-1.7670695 -1.9862882 -4.2307611
-1.7273846 -1.9829971 -4.2475104
-1.697853 -1.9760307 -4.270504
-1.6663004 -1.9712232 -4.294734
-1.6347779 -1.9662449 -4.3190184
-1.1586267 -1.9827919 -4.6450701
-1.7585107 -1.997396 -4.2185383
-1.7286659 -1.984381 -4.2452183
-1.8250699 -2.0240693 -4.1750007
-1.7934493 -2.0155816 -4.1859937
-1.1539354 -2.0201416 -4.6317596
-1.7849824 -2.0265408 -4.1870527
-1.7607235 -2.0574903 -4.1902876
-1.1454997 -2.0574903 -4.6210718
-1.744301 -2.0654626 -4.1982446
-1.7100855 -2.0733833 -4.2186828
-1.6735282 -2.0940139 -4.2387652
-1.2891854 -1.8444169 -4.6570039
-1.2495925 -1.8399554 -4.6697631
-1.1547152 -1.8417302 -4.7421494
-1.4450248 -1.8823023 -4.5330858
-1.4104816 -1.8810449 -4.5530558
-1.3741118 -1.8786249 -4.570406
-1.1523327 -1.8825159 -4.7387466
-1.5314945 -1.9174891 -4.4486918
-1.4929916 -1.9137189 -4.4630065
-1.6879374 -1.9557571 -4.325635
-1.6522826 -1.9537944 -4.3440175
-1.6154159 -1.9510591 -4.3606577
-1.8075153 -1.9912949 -4.219233
-1.1604459 -1.9938934 -4.6810312
-1.8697791 -2.031781 -4.1695604
-1.2429496 -1.8141018 -4.7295671
-1.2036164 -1.810735 -4.7426848
-1.1944885 -1.8096402 -4.7485356
-1.1699473 -1.8079244 -4.7648492
-1.2640569 -1.8308028 -4.6904206
-1.2335852 -1.8208181 -4.7161932
-1.3609678 -1.85576 -4.6209259
-1.3242553 -1.8475481 -4.6413932
-1.2946142 -1.8404063 -4.6647573
-1.1586305 -1.8469898 -4.7570486
-1.4174432 -1.8758602 -4.5629983
-1.3862678 -1.8692449 -4.5877666
-1.5224005 -1.8900838 -4.5050068
-1.48197 -1.888867 -4.5165577
-1.46356 -1.8843392 -4.5269394
-1.4492148 -1.8796452 -4.5390697
-1.1531808 -1.8877728 -4.7427435
-1.5407225 -1.9091837 -4.4618707
-1.5100547 -1.9001112 -4.4873753
-1.6378719 -1.9303128 -4.3927283
-1.6041473 -1.9253086 -4.413856
-1.571344 -1.9215065 -4.4347897
-1.1629399 -1.9216882 -4.7208405
-1.7258531 -1.9581306 -4.3104925
-1.6950549 -1.9497089 -4.3357992
-1.6637911 -1.9434907 -4.3604536
-1.7934197 -1.9679109 -4.2683935
-1.7600793 -1.9646877 -4.2900815
-1.7267308 -1.9588879 -4.3089728
-1.1584266 -1.9590378 -4.7074056
-1.8857739 -1.9996332 -4.1924033
-1.8492107 -1.9957654 -4.206883
-1.8183349 -1.9830012 -4.2346854
-1.1569692 -1.9963872 -4.6918306
-1.160305 -2.0158889 -4.68083
-1.876224 -2.0294657 -4.1735058
-1.160701 -2.0352542 -4.6777115
-1.8377647 -2.0459054 -4.1931305
-1.7998024 -2.0711777 -4.2071023
-1.7635831 -2.0893207 -4.2257824
-1.7287518 -2.1001914 -4.2453408
-1.714695 -2.1084354 -4.2515211
-1.1974016 -1.7842227 -4.803112
-1.164842 -1.7842205 -4.8259034
-1.3183197 -1.8206072 -4.6986122
-1.2817614 -1.8180714 -4.7157049
-1.4411479 -1.8582072 -4.5968518
-1.4048845 -1.8558547 -4.6143537
-1.5972728 -1.8962736 -4.4733415
-1.5589837 -1.8926358 -4.4879503
-1.7528166 -1.9339707 -4.3490005
-1.7163557 -1.9314929 -4.3662205
-1.6806315 -1.929486 -4.3845038
-1.1621765 -1.9310591 -4.7528057
-1.9085503 -1.9717889 -4.2249312
-1.8716981 -1.9690628 -4.2415924
-1.8364707 -1.9673715 -4.2605858
-1.9650297 -2.0086045 -4.1669979
-1.9247391 -2.0037003 -4.1787601
-1.9180424 -2.041748 -4.1691961
-1.27113 -1.7896866 -4.7698126
-1.2315757 -1.7861279 -4.7848935
-1.201075 -1.7808284 -4.8083582
-1.1674093 -1.7824694 -4.831202
-1.2930202 -1.8082697 -4.7317843
-1.2627925 -1.7971165 -4.757906
-1.3969549 -1.8291844 -4.6723204
-1.3532376 -1.8239881 -4.6834111
-1.3238498 -1.8165678 -4.7065101
-1.1595812 -1.8233502 -4.8184338
-1.4149247 -1.8481811 -4.6286926
-1.384338 -1.8387458 -4.6543016
-1.513055 -1.8693705 -4.5609512
-1.4783856 -1.8632395 -4.58073
-1.4641345 -1.8605828 -4.5887251
-1.4463407 -1.8536426 -4.6042681
-1.1631656 -1.8605829 -4.7994661
-1.1592835 -1.865288 -4.8179655
-1.5701553 -1.8844024 -4.5039048
-1.5388004 -1.8786216 -4.5284286
-1.6679081 -1.9076484 -4.4356246
-1.633819 -1.9024264 -4.4562316
-1.6069008 -1.8957294 -4.4731426
-1.1639808 -1.8979325 -4.7822995
-1.7555743 -1.9319667 -4.3529387
-1.724363 -1.9255242 -4.377656
-1.6927053 -1.9211935 -4.4017467
-1.790042 -1.9433873 -4.3328724
-1.762089 -1.9352814 -4.3469043
-1.1616069 -1.9352814 -4.7673664
-1.9103208 -1.970507 -4.2274599
-1.8790345 -1.9644233 -4.25207
-1.8472778 -1.9605663 -4.2760201
-1.8161288 -1.9538261 -4.3008256
-1.1648771 -1.9542187 -4.7566624
-1.9431729 -1.9785302 -4.2050862
-1.9189847 -1.9726309 -4.2204494
-1.1678551 -1.9749836 -4.7542868
-2.0085948 -2.0155902 -4.159924
-1.9736828 -2.0099804 -4.1655545
-1.9684877 -2.003803 -4.1719365
-1.1606097 -2.0099804 -4.7348742
-1.9661202 -2.0151436 -4.1685553
-1.9386191 -2.0473299 -4.1735106
-1.9258912 -2.0518718 -4.1804051
-1.8911605 -2.0622866 -4.2000961
-1.8600044 -2.0835834 -4.2248921
-1.8434108 -2.0846789 -4.2235813
-1.8173754 -2.1038024 -4.2333145
-1.7826716 -2.1140888 -4.2530437
-1.2614208 -1.7622421 -4.8261094
-1.2279328 -1.7585644 -4.846715
-1.1945714 -1.7552409 -4.8683615
-1.162914 -1.7576432 -4.8935885
-1.3221757 -1.7848183 -4.7734227
-1.2923692 -1.7716458 -4.8001456
-1.1608421 -1.7778575 -4.8894825
-1.3832091 -1.8043835 -4.7219925
-1.3555382 -1.7980086 -4.7426004
-1.3101249 -1.7937722 -4.7562122
-1.1637133 -1.7994772 -4.8778653
-1.4437393 -1.8263608 -4.6698442
-1.4131678 -1.8168535 -4.6954746
-1.5023981 -1.83823 -4.623497
-1.4724783 -1.8318033 -4.6415963
-1.4352509 -1.8328269 -4.6577215
-1.169413 -1.8368268 -4.8572788
-1.5987569 -1.8636026 -4.5447521
-1.5673338 -1.8581481 -4.5691786
-1.536254 -1.8510759 -4.5940833
-1.6607591 -1.8785274 -4.4947062
-1.6447312 -1.8741763 -4.5078626
-1.6284121 -1.8720926 -4.5178132
-1.5894822 -1.8696916 -4.5315065
-1.5540174 -1.8678493 -4.5501604
-1.1637552 -1.8741764 -4.8446455
-1.7528864 -1.9050999 -4.4183917
-1.7215303 -1.8993229 -4.442914
-1.691501 -1.8872194 -4.4693184
-1.8139864 -1.9243203 -4.3670688
-1.7837842 -1.9116304 -4.3939638
-1.7474095 -1.9089017 -4.4105701
-1.7119559 -1.9070667 -4.4292402
-1.164521 -1.9123139 -4.8264856
-1.8756715 -1.9407635 -4.3165703
-1.8446292 -1.9335121 -4.3415284
-1.9701183 -1.956223 -4.2435684
-1.9387121 -1.9507138 -4.2680068
-1.926116 -1.9488748 -4.2776442
-1.9059496 -1.9469111 -4.2905087
-1.8694004 -1.9459701 -4.3076143
-1.8336633 -1.9439517 -4.3258677
-1.1679647 -1.9488748 -4.8085074
-2.0303068 -1.979836 -4.1909318
-2.0004623 -1.9668471 -4.2176008
-2.0443151 -1.9862243 -4.1782851
-2.0259311 -1.9842938 -4.1846828
-1.9864354 -1.9798905 -4.1975684
-1.1630235 -1.9862244 -4.795372
-2.0549533 -2.0200977 -4.1546669
-2.0187781 -2.0350604 -4.1744671
-1.9889796 -2.0609233 -4.1838403
-1.9720657 -2.0553668 -4.1770463
-1.97946 -2.06745 -4.1876068
-1.9446361 -2.0782852 -4.2071757
-1.9096031 -2.0901489 -4.2264347
-1.8914207 -2.0982723 -4.2355571
-1.8709815 -2.1192024 -4.2405691
-1.29976 -1.7655569 -4.8107004
-1.4269627 -1.8059291 -4.7151761
-1.3871471 -1.8013262 -4.7276163
-1.1597286 -1.8016348 -4.8878922
-1.547104 -1.8418241 -4.6095786
-1.5081972 -1.8377942 -4.6233048
-1.700955 -1.8784473 -4.4828205
-1.6637152 -1.8754754 -4.4989276
-1.8604912 -1.9186785 -4.364181
-1.823326 -1.9157574 -4.3804069
-2.0131021 -1.9545146 -4.2356524
-1.9760323 -1.9516541 -4.2520142
-1.9402733 -1.9496218 -4.2702365
-2.06497 -1.9884074 -4.1711445
-1.2576238 -1.7423816 -4.8891182
-1.2425127 -1.738374 -4.9014797
-1.2246484 -1.7359492 -4.9113159
-1.1886035 -1.7356091 -4.9345703
-1.320213 -1.7544948 -4.8399105
-1.2889392 -1.7483504 -4.8645387
-1.4127849 -1.7789354 -4.7642312
-1.3810257 -1.7761495 -4.7881656
-1.3788266 -1.7757233 -4.7894363
-1.3461905 -1.7686832 -4.8077192
-1.167275 -1.7757235 -4.9375668
-1.4428576 -1.7908587 -4.7378764
-1.5346969 -1.8188082 -4.6611509
-1.5120176 -1.8130726 -4.6795797
-1.5029176 -1.8115209 -4.6850686
-1.4688808 -1.8059286 -4.70575
-1.1686461 -1.8130726 -4.920011
-1.596593 -1.8342173 -4.6109648
-1.5657567 -1.8259779 -4.6362176
-1.6893188 -1.8579469 -4.5354939
-1.6587974 -1.8519411 -4.5612078
-1.6494263 -1.8504221 -4.5667701
-1.6246256 -1.8456376 -4.5816965
-1.585236 -1.8453622 -4.5947452
-1.1678823 -1.8519032 -4.9014921
-1.7508417 -1.8751416 -4.4847746
-1.7204863 -1.8645998 -4.5107136
-1.8125409 -1.8915185 -4.4342957
-1.7945639 -1.8877716 -4.4485483
-1.7802511 -1.8854911 -4.4574728
-1.7409879 -1.8831919 -4.4707022
-1.1743611 -1.8877717 -4.8828192
-1.9050051 -1.9164745 -4.3584633
-1.8741966 -1.9081044 -4.3837547
-1.8430694 -1.9012309 -4.4086037
-1.9982197 -1.9378372 -4.2837009
-1.9667621 -1.9325746 -4.3080664
-1.9350724 -1.9253833 -4.3337364
-1.8984581 -1.9221122 -4.349113
-1.1680753 -1.9251213 -4.870625
-2.0604625 -1.9516115 -4.2339988
-2.0294621 -1.9441574 -4.259017
-2.1200497 -1.9781036 -4.1805038
-2.0972695 -1.9624701 -4.2034011
-2.0902164 -1.9606897 -4.2072005
-2.0513728 -1.9581409 -4.2210174
-1.1715635 -1.9576747 -4.8355026
-1.165068 -1.9624702 -4.8561354
-2.146544 -2.0002744 -4.1538281
-2.1064053 -1.9940381 -4.1610174
-2.1161983 -2.0371692 -4.1569562
-2.1007574 -2.0327518 -4.1529512
-2.1069078 -2.0410538 -4.1617351
-2.0724514 -2.0501301 -4.181829
-2.0322661 -2.0708899 -4.2007432
-1.9977927 -2.0958574 -4.2137885
-1.3350078 -1.7456267 -4.8610401
-1.2982614 -1.7429678 -4.877852
-1.2615718 -1.7403485 -4.8947563
-1.1715094 -1.7451788 -4.97402
-1.4542216 -1.7809296 -4.7541056
-1.4152216 -1.776844 -4.7677112
-1.1599756 -1.7801571 -4.9575481
-1.6117707 -1.8199028 -4.6326408
-1.575379 -1.817469 -4.6499596
-1.5396494 -1.8154552 -4.6682234
-1.7325574 -1.8562036 -4.5279531
-1.6957232 -1.8534892 -4.5446401
-1.8900312 -1.8951262 -4.4063687
-1.8544677 -1.8932215 -4.4248819
-1.81574 -1.8893052 -4.4388647
-1.1733905 -1.894899 -4.9074035
-2.0094664 -1.9305733 -4.2997632
-1.9734223 -1.9283601 -4.3175783
-2.1298468 -1.966616 -4.1944957
-2.1929774 -2.0076523 -4.1460609
-2.0437794 -2.0802145 -4.2101727
-1.3174946 -1.7277728 -4.9053202
-1.2865907 -1.7198322 -4.9304876
-1.2524961 -1.7271992 -4.951087
-1.2187661 -1.7328223 -4.9722066
-1.4102815 -1.7525411 -4.8299475
-1.4069895 -1.7519673 -4.8319044
-1.3758016 -1.7471424 -4.8500085
-1.3481342 -1.7369545 -4.879786
-1.1802591 -1.7489651 -4.9919972
-1.4715253 -1.7697431 -4.7788181
-1.4409744 -1.7601109 -4.8044896
-1.541453 -1.7893167 -4.7211566
-1.532101 -1.7876071 -4.7267466
-1.4978799 -1.7821236 -4.7471652
-1.1654918 -1.7893168 -4.9844074
-1.6256312 -1.8113248 -4.6524358
-1.5944296 -1.8048358 -4.6771665
-1.5636755 -1.7962042 -4.7025366
-1.7186226 -1.8337847 -4.5773435
-1.6876034 -1.8266492 -4.6022167
-1.6534506 -1.822093 -4.6228628
-1.1702693 -1.8266659 -4.964467
-1.1678609 -1.8206887 -4.9688096
-1.7795371 -1.853893 -4.5257559
-1.7488407 -1.8449843 -4.551208
-1.8421259 -1.8642354 -4.477541
-1.8081757 -1.8583736 -4.4973531
-1.7709306 -1.859895 -4.5134649
-1.1751912 -1.8640155 -4.9444251
-1.9342674 -1.8925098 -4.4002542
-1.9030567 -1.8860654 -4.4249716
-1.871873 -1.8794647 -4.449739
-1.995997 -1.9087412 -4.3498182
-1.9641924 -1.9017912 -4.3756118
-1.9264921 -1.897604 -4.3891497
-1.1691111 -1.901365 -4.9320879
-2.0884924 -1.9335494 -4.2740293
-2.0574119 -1.9264797 -4.2989335
-2.0270443 -1.9159697 -4.3248672
-1.1783198 -1.9265627 -4.9144435
-2.1501324 -1.9502087 -4.2234664
-2.117485 -1.9395641 -4.251955
-2.0839005 -1.9364848 -4.2674718
-2.04673 -1.9335569 -4.2836781
-1.1810343 -1.9387146 -4.9071436
-2.2107153 -1.9719335 -4.1713934
-2.1804724 -1.9608257 -4.197505
-2.2130654 -1.9754486 -4.1658497
-2.170377 -1.971676 -4.1830873
-2.2368238 -2.0148165 -4.1393886
-2.2276328 -2.013413 -4.1411166
-2.2004867 -2.0209296 -4.156785
-2.1616275 -2.0507827 -4.1701899
-2.1257427 -2.0670381 -4.1886339
-2.0914462 -2.0753489 -4.2089562
-2.066916 -2.0881121 -4.2204609
-1.3287194 -1.719998 -4.9213505
-1.290677 -1.7165201 -4.9363232
-1.264541 -1.7205942 -4.9682884
-1.4869393 -1.7593937 -4.8008318
-1.4484693 -1.7556447 -4.8151937
-1.6077312 -1.7957014 -4.6961632
-1.5689887 -1.7917758 -4.7101245
-1.7644669 -1.8341551 -4.5735245
-1.7241119 -1.8292063 -4.5851831
-1.1693696 -1.8284152 -4.970964
-1.921641 -1.8728871 -4.4515123
-1.8844105 -1.8699245 -4.4676447
-2.0385792 -1.9067497 -4.3413405
-2.0014637 -1.9038566 -4.3576255
-2.1948757 -1.9449252 -4.2180753
-2.1587145 -1.9426376 -4.2357225
-1.182737 -1.9431273 -4.9207516
-2.247963 -1.9795876 -4.1552973
-1.408581 -1.7293571 -4.896822
-1.3997847 -1.728211 -4.899137
-1.3713828 -1.7242117 -4.9129887
-1.3425965 -1.7237355 -4.9411693
-1.3100539 -1.7236435 -4.9639959
-1.2388468 -1.726368 -5.0056448
-1.4683653 -1.7451085 -4.8436079
-1.4372972 -1.7379801 -4.8685293
-1.40626 -1.7306762 -4.8935075
-1.20724 -1.7482628 -5.0250483
-1.5701995 -1.7655605 -4.763216
-1.5610682 -1.7632799 -4.768116
-1.5275503 -1.7597152 -4.7895389
-1.4997529 -1.750733 -4.8191314
-1.1868201 -1.7655605 -5.031661
-1.6230336 -1.7840232 -4.7180171
-1.5922905 -1.7753378 -4.743403
-1.7172171 -1.8043834 -4.64464
-1.6993949 -1.8029099 -4.6561565
-1.6838592 -1.8014209 -4.6662912
-1.6495763 -1.7950082 -4.6866331
-1.1766443 -1.80291 -5.0221906
-1.7775127 -1.8238459 -4.5921559
-1.7474562 -1.8118705 -4.6185222
-1.8704566 -1.8465052 -4.5170078
-1.8469166 -1.8402591 -4.5362654
-1.838802 -1.8387733 -4.5410919
-1.8052868 -1.8352686 -4.5625305
-1.1742538 -1.8402591 -5.0072689
-1.9321865 -1.8627342 -4.4665728
-1.9010149 -1.8560755 -4.4913583
-2.0247695 -1.8871216 -4.3909097
-1.9945989 -1.8790767 -4.4171128
-1.984653 -1.8776085 -4.4232268
-1.9607913 -1.8736398 -4.4381337
-1.1813222 -1.8769476 -4.9870644
-2.0858431 -1.9064956 -4.3395371
-2.0554087 -1.8963038 -4.3653755
-2.1794388 -1.9260322 -4.2653203
-2.1501193 -1.9181374 -4.2927504
-2.1180196 -1.9146022 -4.3130412
-2.0788736 -1.9116566 -4.3295836
-1.1802472 -1.9149582 -4.9698825
-2.2406857 -1.9445751 -4.2141953
-2.2101264 -1.9349836 -4.2398553
-2.2724648 -1.9562116 -4.1902895
-2.2599757 -1.9523077 -4.1972528
-2.2335217 -1.9487859 -4.2039642
-2.2995574 -1.9744781 -4.1596866
-2.3248348 -1.9907492 -4.1389074
-2.2901912 -1.9857239 -4.1463103
-2.2890906 -2.0269845 -4.1378698
-2.2535512 -2.0388956 -4.1632781
-2.2180216 -2.0531383 -4.1818275
-2.2047832 -2.0643559 -4.1861129
-2.1792736 -2.0827711 -4.1957927
-1.518593 -1.7371825 -4.8460374
-1.4829894 -1.7352524 -4.8644938
-1.4468831 -1.7329997 -4.8822198
-1.6732136 -1.7742978 -4.7203903
-1.6376885 -1.772414 -4.7389464
-1.600284 -1.7693375 -4.7548189
-1.1833936 -1.773379 -5.0602837
-1.7937034 -1.8104105 -4.6152792
-1.7549866 -1.8065013 -4.6292768
-1.174379 -1.809956 -5.0474095
-1.9478284 -1.8472074 -4.4889116
-1.912594 -1.8455116 -4.507895
-1.8760051 -1.8429527 -4.5249319
-2.0719147 -1.8856058 -4.3889484
-2.0327373 -1.8814042 -4.4022884
-2.2282846 -1.9238276 -4.2657881
-2.1887705 -1.9194126 -4.2786474
-2.3519135 -1.9619335 -4.165163
-2.3129752 -1.957885 -4.1788492
-2.3742177 -1.9977232 -4.1277208
-2.2256901 -2.070708 -4.1927795
-1.4971458 -1.7234707 -4.8847108
-1.4664429 -1.7145915 -4.9101539
-1.4328158 -1.719694 -4.9314327
-1.3995522 -1.7230816 -4.9532185
-1.5899986 -1.7422135 -4.81181
-1.5568391 -1.7374367 -4.8313675
-1.52803 -1.7315048 -4.8595152
-1.3656528 -1.7295163 -4.9740968
-1.3324791 -1.732447 -4.9960232
-1.2997218 -1.7334099 -5.0185318
-1.2431529 -1.7418065 -5.0544114
-1.6520296 -1.7613535 -4.7594275
-1.6213797 -1.7522198 -4.7849469
-1.2315942 -1.7478262 -5.0598302
-1.7488903 -1.7809981 -4.6898737
-1.7290506 -1.7791559 -4.6975865
-1.7125033 -1.7759858 -4.7071986
-1.6836478 -1.7658466 -4.735292
-1.1893544 -1.7752459 -5.0772228
-1.8066398 -1.8005456 -4.6337538
-1.7758306 -1.7921762 -4.6590452
-1.7449716 -1.7840198 -4.6842771
-1.8748941 -1.8165052 -4.5788708
-1.8679739 -1.8149627 -4.5827541
-1.8342427 -1.8109648 -4.6038837
-1.1733981 -1.8165053 -5.0700636
-1.9613258 -1.8393776 -4.5081878
-1.9296008 -1.8353677 -4.5321832
-1.8989979 -1.8260114 -4.5577688
-1.1802777 -1.8376886 -5.0558338
-2.0236254 -1.8546326 -4.4585671
-2.0201263 -1.8538544 -4.4605827
-1.9887977 -1.8481519 -4.4781313
-1.1851157 -1.8538544 -5.0452633
-2.0840962 -1.8751121 -4.4063454
-2.0534501 -1.8659611 -4.4318695
-2.1800916 -1.8967395 -4.3355556
-2.1454163 -1.8913406 -4.356338
-2.112102 -1.8865329 -4.377039
-2.2380953 -1.917232 -4.279799
-2.2074184 -1.9082296 -4.3052793
-2.2990878 -1.9369943 -4.2283111
-2.2698112 -1.92775 -4.2520695
-2.3603189 -1.9556047 -4.1771669
-2.3300416 -1.9446778 -4.2032228
-2.3894901 -1.9671491 -4.1522813
-2.4130149 -2.0041151 -4.1219931
-2.3813362 -2.0108876 -4.137887
-2.3449123 -2.0406015 -4.1501884
-2.3410697 -2.0407591 -4.1496763
-2.3067677 -2.0561619 -4.1699839
-2.2723351 -2.0651419 -4.190104
-2.2501462 -2.077951 -4.1999493
-1.5131146 -1.7120717 -4.907517
-1.4737395 -1.7077446 -4.9205747
-1.4498723 -1.7132618 -4.955792
-1.7030755 -1.7509497 -4.7630377
-1.667821 -1.7492377 -4.7819805
-1.6296526 -1.7456765 -4.7967615
-1.2400135 -1.7463516 -5.0718541
-1.8235549 -1.7870559 -4.6579113
-1.7865561 -1.7842369 -4.6743627
-1.9471105 -1.8251173 -4.5571895
-1.9070042 -1.8203263 -4.5692034
-2.1001968 -1.8612554 -4.4293394
-2.0634837 -1.8586175 -4.4461994
-1.1862186 -1.8597659 -5.0643182
-2.2221904 -1.898322 -4.3263755
-2.3824339 -1.9390032 -4.2087507
-2.3430641 -1.9346808 -4.2218204
-2.3064623 -1.9321148 -4.2388425
-2.4326086 -1.9718193 -4.1418166
-1.5553662 -1.7167671 -4.8985548
-1.5235416 -1.7132351 -4.9224081
-1.4908434 -1.7139152 -4.9450016
-1.4577851 -1.7162937 -4.967093
-1.6495754 -1.7333649 -4.8252144
-1.622044 -1.7239363 -4.8551984
-1.5883039 -1.7197982 -4.8763037
-1.5705069 -1.7180505 -4.8873839
-1.5534056 -1.7169762 -4.8957553
-1.4374757 -1.7180505 -4.9805336
-1.426294 -1.7207904 -4.9914103
-1.3887055 -1.7352959 -5.0070195
-1.8131129 -1.7587916 -4.7122898
-1.7773298 -1.7567476 -4.7304897
-1.7591475 -1.7553998 -4.7387004
-1.7418448 -1.752939 -4.7491031
-1.7121838 -1.7453597 -4.7760458
-1.6804968 -1.741197 -4.8000832
-1.3549424 -1.7410496 -5.0281038
-1.3221537 -1.7421637 -5.0505676
-1.2890352 -1.7448573 -5.0725613
-1.2470767 -1.7553999 -5.0972567
-1.8361777 -1.7752615 -4.6759381
-1.805581 -1.7658747 -4.7015328
-1.7743477 -1.75951 -4.7262306
-1.2176424 -1.7749135 -5.1091962
-1.8953477 -1.7934778 -4.6272011
-1.8641227 -1.7886932 -4.6465569
-1.1955043 -1.7927493 -5.1167727
-1.9274813 -1.805778 -4.5984478
-2.057075 -1.8329128 -4.5063381
-2.0208614 -1.829813 -4.5220857
-1.9860712 -1.8247026 -4.5435281
-1.9576901 -1.8170227 -4.572299
-1.1838452 -1.8300987 -5.1083407
-2.1133783 -1.8510524 -4.4481645
-2.0826409 -1.8423388 -4.4735584
-2.0512629 -1.8366951 -4.4980373
-2.2138562 -1.8713987 -4.3837762
-2.1760046 -1.8704442 -4.3990102
-2.1606708 -1.8674477 -4.4077649
-2.1413367 -1.8632667 -4.4187903
-2.2669218 -1.8953551 -4.3209677
-2.236052 -1.8872769 -4.3461723
-2.205467 -1.8778079 -4.3717952
-2.2962554 -1.9053431 -4.2965961
-2.2602124 -1.9017904 -4.3113852
-2.3890159 -1.9343492 -4.2181501
-2.3583579 -1.9252448 -4.2436624
-2.3277214 -1.9160416 -4.2692037
-2.4584196 -1.9459006 -4.1786785
-2.4245262 -1.9421469 -4.1898212
-2.4196284 -1.9410828 -4.1925735
-2.4784966 -1.9735996 -4.1380553
-2.4498632 -1.9547986 -4.1664586
-2.5145042 -1.9824661 -4.120183
-2.487716 -1.9794965 -4.1289797
-2.4749219 -1.9780092 -4.1329498
-2.4694672 -2.0168567 -4.1242499
-2.434392 -2.0289068 -4.1443634
-2.3984773 -2.0449846 -4.1623669
-2.3872182 -2.0541949 -4.1661582
-2.3602901 -2.0719473 -4.1771259
-2.325592 -2.082196 -4.1968679
-2.2913198 -2.0914006 -4.2162294
-1.700524 -1.7276925 -4.8286848
-1.6631197 -1.7246161 -4.8445573
-1.890236 -1.766413 -4.6838503
-1.8506929 -1.7619795 -4.6966681
-2.0124555 -1.8036233 -4.5812092
-1.9766876 -1.8015887 -4.5994301
-1.938183 -1.7978139 -4.6137309
-2.1676922 -1.8411258 -4.45643
-2.1297374 -1.8377037 -4.4715281
-2.0917995 -1.8342886 -4.4866381
-1.1906705 -1.8409564 -5.1399794
-2.2866633 -1.8762778 -4.3491611
-2.2514746 -1.8746072 -4.3681979
-2.3765092 -1.9136065 -4.2695851
-2.3367157 -1.9090151 -4.2820492
-2.5348237 -1.9530627 -4.1492023
-2.4971867 -1.9498401 -4.1647472
-2.5561261 -1.9882174 -4.1103296
-2.4052486 -2.0597117 -4.1720371
-1.6468741 -1.7065531 -4.8906593
-1.5483977 -1.7103956 -4.9579058
-1.7404195 -1.7263319 -4.81637
-1.7088391 -1.721657 -4.84056
-1.6779305 -1.7137631 -4.8657093
-1.6131011 -1.7123811 -4.9117179
-1.580232 -1.7138785 -4.9340672
-1.5134262 -1.7219636 -4.977253
-1.4803102 -1.7246186 -4.9992623
-1.8340923 -1.7455264 -4.7422514
-1.8056442 -1.7356173 -4.770927
-1.7723314 -1.7331634 -4.7926421
-1.7629147 -1.7316458 -4.7982578
-1.7357565 -1.7293907 -4.809711
-1.4253051 -1.7316458 -5.0346546
-1.4167173 -1.7365985 -5.0470247
-1.3775746 -1.7488631 -5.0604258
-1.9222455 -1.7696714 -4.6723661
-1.8955485 -1.7630408 -4.6914372
-1.8648714 -1.7540386 -4.716917
-1.3441924 -1.7528198 -5.0820427
-1.311083 -1.7554679 -5.1040487
-1.2781612 -1.7571929 -5.1263347
-1.2493755 -1.7689953 -5.1412468
-1.2485999 -1.7724593 -5.1534081
-1.9561471 -1.7846881 -4.6393867
-1.9261404 -1.7724762 -4.6658239
-1.2422444 -1.77329 -5.1443315
-2.0884762 -1.8105416 -4.5511837
-2.0495796 -1.8073186 -4.5649366
-2.0439494 -1.8063446 -4.5682845
-2.0181799 -1.7994684 -4.5893841
-1.9868511 -1.7935604 -4.6139455
-1.2019379 -1.804347 -5.1560712
-1.1993704 -1.8063446 -5.1596651
-2.1422396 -1.8290268 -4.4893827
-2.1113539 -1.8210238 -4.514565
-2.0796289 -1.8170414 -4.5385485
-2.201427 -1.8451576 -4.4422235
-2.1729984 -1.8376621 -4.4640083
-1.1871608 -1.8436941 -5.151619
-2.2649744 -1.8649589 -4.3874779
-2.2342529 -1.8561432 -4.4129062
-2.327467 -1.8836731 -4.3381319
-2.319272 -1.8810431 -4.3423114
-2.2963479 -1.8706249 -4.3629923
-2.3868873 -1.9048084 -4.2844067
-2.3563271 -1.8952399 -4.3100567
-2.446713 -1.9192178 -4.2370343
-2.4155443 -1.9147027 -4.2560368
-2.5407043 -1.9477992 -4.1576014
-2.5097997 -1.9398766 -4.1827612
-2.4790738 -1.9310992 -4.2081757
-2.5718169 -1.9607258 -4.1327386
-2.5604224 -1.9557422 -4.140265
-2.5763571 -1.9930918 -4.1125121
-2.5628142 -1.9978489 -4.1198816
-2.5265176 -2.0157542 -4.1373401
-2.5126057 -2.0304408 -4.1405559
-2.4882619 -2.0430441 -4.1520019
-2.4531314 -2.0553641 -4.1711264
-2.4316592 -2.0677903 -4.1806402
-2.4142375 -2.0857134 -4.184875
-1.7326125 -1.7057577 -4.8745117
-1.6949447 -1.7025143 -4.890008
-1.6571876 -1.6992176 -4.9053884
-1.6320351 -1.7039156 -4.9387584
-1.5649503 -1.7026676 -4.9815454
-1.8858749 -1.7420073 -4.7469134
-1.8466386 -1.7377684 -4.7601695
-2.042892 -1.7806396 -4.6246767
-2.0063853 -1.7781364 -4.6418428
-1.9685675 -1.7747977 -4.6571245
-2.1621077 -1.8159474 -4.5177574
-2.1238441 -1.8123258 -4.532403
-2.2831535 -1.8524128 -4.4134402
-2.2445335 -1.8485684 -4.4275885
-2.4054351 -1.8896644 -4.3108954
-2.3680365 -1.8865926 -4.3267798
-2.5623016 -1.9282019 -4.1884456
-2.5267017 -1.9262717 -4.2068992
-2.4896972 -1.9234505 -4.2233472
-2.6161807 -1.9633683 -4.1268015
-2.6073816 -2.0000823 -4.1142349
-2.5357149 -2.0382223 -4.150475
-1.7040979 -1.7046243 -4.9030805
-1.6717709 -1.7034999 -4.9262156
-1.8366774 -1.7167456 -4.8152466
-1.8026515 -1.712868 -4.8359437
-1.7689065 -1.7090459 -4.8570538
-1.7601159 -1.7078898 -4.8624053
-1.7363755 -1.7059591 -4.8798862
-1.638697 -1.7059789 -4.9482727
-1.6235728 -1.7078898 -4.9580135
-1.6031408 -1.7114104 -4.9759817
-1.5683678 -1.7078898 -4.9966688
-1.9239436 -1.7432283 -4.7319899
-1.8926283 -1.7372849 -4.7565579
-1.8620032 -1.7280339 -4.7821121
-1.5360955 -1.7295803 -5.0096283
-1.5027006 -1.7335706 -5.031239
-1.9853987 -1.7607746 -4.6811624
-1.9569117 -1.7482432 -4.7097697
-1.9343982 -1.745239 -4.7237763
-1.9222845 -1.7444526 -4.7296205
-1.4222108 -1.745239 -5.0824137
-1.4004568 -1.7554586 -5.0931053
-1.3663224 -1.7630179 -5.1136475
-2.1169708 -1.7863259 -4.5918784
-2.0815318 -1.7845 -4.610569
-2.0621438 -1.7825884 -4.6177325
-2.0470757 -1.7772571 -4.630652
-2.015789 -1.77115 -4.655273
-1.333351 -1.7650073 -5.1358509
-1.3004209 -1.7667717 -5.1581249
-1.259926 -1.7774228 -5.181747
-2.1398885 -1.8005443 -4.5553169
-2.108875 -1.7931536 -4.5803165
-2.0774524 -1.7876978 -4.604743
-1.2279899 -1.8018004 -5.1932769
-2.2382672 -1.8229539 -4.4879303
-2.2012689 -1.8198212 -4.5036492
-2.170362 -1.8105222 -4.5295458
-1.204033 -1.8199378 -5.201993
-2.2627995 -1.8356063 -4.4536748
-2.2319839 -1.8272691 -4.4789567
-2.3602674 -1.8600249 -4.3849754
-2.32621 -1.8558518 -4.3987803
-2.293448 -1.844772 -4.4281421
-2.4159961 -1.8815799 -4.3259783
-2.3851306 -1.8734723 -4.351193
-2.3544862 -1.8643144 -4.3767195
-2.4801831 -1.9002342 -4.2790551
-2.4537566 -1.8946363 -4.2937369
-2.4452665 -1.8928076 -4.2984848
-2.5390122 -1.9161502 -4.2244806
-2.5076256 -1.9105376 -4.2489514
-2.6417177 -1.9372756 -4.1632719
-2.6012685 -1.9316754 -4.1736197
-2.5701275 -1.9230644 -4.1996217
-2.6296926 -1.9496554 -4.1460981
-2.6596963 -1.9703214 -4.1196523
-2.6534939 -1.9693354 -4.1206884
-2.6354368 -2.006685 -4.1167369
-2.6163793 -2.0134277 -4.1270852
-2.5811012 -2.0264568 -4.145998
-2.5528414 -2.044034 -4.1579752
-2.5433347 -2.0514033 -4.1613574
-2.5070267 -2.0693641 -4.1788006
-2.4721184 -2.0811725 -4.1971951
-2.7957196 -2.122524 -3.9674346
-1.9166726 -1.7192535 -4.7908969
-1.879645 -1.716416 -4.8073072
-2.0726662 -1.7572361 -4.6671987
-2.036931 -1.7552223 -4.6854668
-1.9978448 -1.7510787 -4.6989369
-2.1944339 -1.7941632 -4.5639243
-2.1550736 -1.7898456 -4.5770035
-2.3511877 -1.8326284 -4.4413118
-2.3131545 -1.8291529 -4.456286
-2.2755837 -1.8259746 -4.4719324
-2.4353409 -1.8663447 -4.3536057
-2.3980923 -1.863368 -4.3697038
-2.5957177 -1.9071089 -4.2361684
-2.5559349 -1.9025247 -4.2486486
-2.5209084 -1.9009585 -4.2679214
-2.7185745 -1.9447254 -4.1344433
-2.6812224 -1.9416837 -4.1503949
-2.700057 -1.9752724 -4.1079974
-1.832086 -1.6894274 -4.8779807
-1.7991532 -1.6902413 -4.9002509
-1.9213315 -1.7159981 -4.7975507
-1.8901302 -1.7095077 -4.8222818
-1.8593243 -1.7010956 -4.84759
-1.760904 -1.704669 -4.9149165
-1.72744 -1.7090182 -4.9364161
-1.6944658 -1.7109929 -4.9586272
-1.6614021 -1.7134241 -4.9806991
-1.9873573 -1.7280226 -4.7532511
-1.9522043 -1.7216408 -4.7735958
-1.5795987 -1.7214832 -5.0343971
-1.5595757 -1.7333126 -5.0431614
-2.0762048 -1.7539326 -4.6722522
-2.0448623 -1.7480919 -4.6967936
-2.0141215 -1.7393955 -4.7221828
-1.5248497 -1.7436792 -5.062871
-1.4917179 -1.746436 -5.0848455
-1.4588189 -1.7480768 -5.107152
-2.1430013 -1.7678653 -4.6290536
-2.108547 -1.7618182 -4.6491508
-2.0912683 -1.7588323 -4.6595278
-1.4256251 -1.7598766 -5.1270585
-1.3889509 -1.7708292 -5.1459646
-1.3558437 -1.7734698 -5.1679735
-1.3224515 -1.777447 -5.1895876
-2.2683489 -1.7997453 -4.5308914
-2.229991 -1.7962277 -4.5458236
-2.1988409 -1.7903101 -4.5702181
-2.1684027 -1.7801642 -4.5960388
-1.2808344 -1.7903463 -5.2129965
-2.2911403 -1.8160554 -4.4941497
-2.2607298 -1.8057774 -4.52001
-2.3892632 -1.836127 -4.4263859
-2.3570747 -1.8323343 -4.4407487
-2.3223329 -1.8226147 -4.4693937
-1.2467611 -1.8280897 -5.2200847
-1.2361621 -1.8335311 -5.2250881
-2.4141631 -1.8506078 -4.3926558
-2.3836734 -1.8407096 -4.4184027
-2.5479219 -1.8758037 -4.3065009
-2.5133204 -1.8745067 -4.3263798
-2.4739585 -1.8716184 -4.3422785
-2.4448433 -1.8596032 -4.3671761
-2.5678961 -1.8939984 -4.2657309
-2.5369992 -1.8860394 -4.2909017
-2.5055206 -1.8808692 -4.3152409
-2.6316333 -1.9128945 -4.2181654
-2.6063855 -1.9082296 -4.2324576
-2.5980823 -1.9053631 -4.2395453
-2.6895735 -1.9349818 -4.1623216
-2.6590314 -1.9253248 -4.1879988
-2.7594759 -1.9500196 -4.1235604
-2.7227745 -1.9444369 -4.1348729
-2.7446249 -1.9829508 -4.1025443
-2.6351464 -2.0397351 -4.1538873
-2.5989611 -2.057384 -4.1739297
-2.8332031 -2.0949767 -3.9906614
-1.9492809 -1.6976478 -4.8374662
-1.9118911 -1.6945808 -4.8533597
-1.8746198 -1.6915927 -4.8694344
-1.7853729 -1.6969403 -4.949862
-2.0996876 -1.7320858 -4.7057891
-2.0640984 -1.7301646 -4.7242656
-2.0287123 -1.728369 -4.7430205
-1.5756603 -1.730123 -5.0661325
-2.2220953 -1.7694187 -4.6034288
-2.185817 -1.7670569 -4.6209097
-2.3815618 -1.8096055 -4.4846907
-2.3447752 -1.806921 -4.5014453
-2.309051 -1.8049142 -4.5197287
-2.4670238 -1.8441522 -4.3988533
-2.4280238 -1.8400642 -4.4124508
-2.6255248 -1.8837264 -4.2787371
-2.5870578 -1.8799772 -4.293097
-2.748071 -1.9211453 -4.1765685
-2.7104378 -1.917925 -4.1921186
-2.6738536 -1.9153706 -4.209167
-2.7998619 -1.9549869 -4.1119423
-2.8294601 -1.995406 -4.0849175
-2.7873335 -1.9893343 -4.0940504
-1.9179941 -1.6922598 -4.8620758
-1.8852471 -1.6931452 -4.8846116
-1.820382 -1.6919341 -4.9305687
-2.0176988 -1.7077119 -4.7965827
-1.9837455 -1.7030032 -4.8173957
-1.9498231 -1.6976321 -4.8374014
-1.852594 -1.6936104 -4.907269
-1.785983 -1.6975011 -4.9521818
-2.1058273 -1.7282586 -4.7145581
-2.0743308 -1.723156 -4.7388792
-2.0427613 -1.7184294 -4.7630844
-1.7505687 -1.7144513 -4.9694476
-1.7173673 -1.7175155 -4.991334
-1.683792 -1.7223974 -5.0126748
-1.650524 -1.7258058 -5.0344543
-2.1726859 -1.7460421 -4.6714473
-2.1381598 -1.7392681 -4.691442
-2.1225793 -1.7350785 -4.6997976
-1.5774354 -1.7350786 -5.0815115
-1.5473306 -1.7522151 -5.0949774
-2.2285194 -1.764369 -4.6126037
-2.1974156 -1.7574127 -4.6374736
-1.5140237 -1.7558116 -5.1167011
-1.4812062 -1.7570622 -5.1391244
-1.4475256 -1.7624223 -5.160326
-2.2945833 -1.7812471 -4.5683579
-2.2572391 -1.7735159 -4.5895987
-1.4244329 -1.7724277 -5.1720505
-1.4117261 -1.7779565 -5.1784906
-1.3776847 -1.7850713 -5.1991658
-2.4208841 -1.8138953 -4.4715452
-2.3825145 -1.8095437 -4.4847031
-2.3509865 -1.801584 -4.5103159
-2.3196206 -1.7958553 -4.5348234
-1.3452219 -1.8073649 -5.2221074
-1.3073208 -1.8096521 -5.238224
-2.4427464 -1.8299137 -4.4334769
-2.412241 -1.8200892 -4.4592018
-2.5434203 -1.8513097 -4.3693671
-2.5022063 -1.8481544 -4.3847747
-2.4733899 -1.8390846 -4.4079452
-2.5658681 -1.8639766 -4.3321309
-2.5345194 -1.8581848 -4.3566551
-2.6664374 -1.8890277 -4.2678704
-2.6292729 -1.8834921 -4.2790632
-2.5964363 -1.87351 -4.3064909
-2.68753 -1.9050357 -4.2286987
-2.6569686 -1.8954711 -4.2543478
-2.8223348 -1.92695 -4.1440372
-2.7863734 -1.9247903 -4.1619735
-2.7523525 -1.921039 -4.176199
-2.7185247 -1.9125267 -4.2036681
-2.8100178 -1.9421372 -4.1264467
-2.7797854 -1.9309982 -4.152565
-2.8356631 -1.9600747 -4.1039386
-2.8342357 -1.9820888 -4.0917377
-2.8324533 -1.9965241 -4.0865722
-2.6884828 -2.0564291 -4.1607637
-2.653837 -2.0664277 -4.1805801
-2.6443388 -2.0712225 -4.1851006
-2.8692136 -2.108572 -4.0110459
-2.0091748 -1.6835961 -4.8537126
-1.9768578 -1.6824487 -4.8768501
-1.9445578 -1.6812223 -4.9000125
-2.1024604 -1.7046173 -4.7790523
-2.0706768 -1.7009163 -4.8029523
-2.039535 -1.6941417 -4.8277678
-1.9092337 -1.6944528 -4.9188676
-1.87542 -1.7004758 -4.939868
-1.8426775 -1.7013428 -4.9624095
-1.8092984 -1.7052834 -4.9840307
-2.1956165 -1.7262859 -4.704196
-2.1646192 -1.7187924 -4.7292299
-2.1348684 -1.7108787 -4.7530484
-2.0962343 -1.7082597 -4.7701607
-2.060245 -1.7060812 -4.7880535
-1.7863389 -1.7113224 -4.9974241
-1.7742401 -1.7172683 -5.0032539
-1.7406501 -1.7221944 -5.0245852
-2.2570589 -1.7438669 -4.6533618
-2.2267542 -1.7330823 -4.6793737
-1.7061442 -1.7315327 -5.0445971
-1.672747 -1.7355601 -5.0661926
-1.6399947 -1.7364728 -5.0887203
-1.607627 -1.7355689 -5.1117859
-2.3184001 -1.7619579 -4.6023722
-2.2873216 -1.7548798 -4.6272788
-2.2702918 -1.7486719 -4.6419611
-2.2528965 -1.7466671 -4.6474175
-2.2145963 -1.7430223 -4.6620107
-1.5772401 -1.753605 -5.1250496
-1.5362905 -1.7653561 -5.1485014
-2.4113235 -1.7847155 -4.5271945
-2.3808205 -1.7748804 -4.5529232
-2.3491156 -1.7707766 -4.5769467
-1.5029926 -1.7689078 -5.1702385
-1.4682792 -1.7792141 -5.1899652
-2.4409745 -1.7986593 -4.5002375
-2.4123044 -1.7857425 -4.5249944
-2.3722465 -1.7820561 -4.540678
-2.3373301 -1.7805619 -4.5601153
-1.4579067 -1.7860211 -5.1942043
-2.52999 -1.8243761 -4.4264812
-2.4993925 -1.8185948 -4.4450808
-2.465543 -1.8141118 -4.4660339
-2.594543 -1.8428262 -4.3730826
-2.5635221 -1.835463 -4.3980756
-2.6557424 -1.8607831 -4.3223186
-2.6220601 -1.8549567 -4.3430853
-2.5809176 -1.854444 -4.3536234
-2.7166927 -1.8815495 -4.2703471
-2.6862054 -1.8716308 -4.296102
-2.7774429 -1.9024651 -4.2185163
-2.7625842 -1.8980691 -4.2308731
-2.7448878 -1.8940482 -4.2413182
-2.7038403 -1.8921019 -4.2519922
-2.8398099 -1.9156351 -4.1689944
-2.8085897 -1.909227 -4.1937017
-2.8857219 -1.9354184 -4.128056
-2.8665178 -1.9293485 -4.1378412
-2.8977697 -1.949918 -4.1131773
-2.9124413 -1.9727679 -4.092752
-2.8884833 -1.9749147 -4.099915
-2.8733578 -2.0668552 -4.0783129
-2.8862143 -2.084816 -4.0613303
-2.0163531 -1.6772532 -4.8639646
-1.9835957 -1.6771257 -4.8864732
-1.9523083 -1.6779308 -4.9110813
-2.2437494 -1.7192242 -4.7036452
-2.2066996 -1.716373 -4.7200241
-2.170701 -1.714192 -4.737916
-2.3660696 -1.7565019 -4.6011596
-2.3287601 -1.7534859 -4.6171675
-2.292588 -1.7511914 -4.6347995
-2.451503 -1.7910275 -4.5152731
-1.4719442 -1.7892482 -5.1952
-2.6088347 -1.829862 -4.3934937
-2.5728981 -1.827718 -4.4114656
-2.5346363 -1.8240988 -4.4261179
-2.7329633 -1.8682853 -4.2935843
-2.6942635 -1.8643878 -4.3076105
-2.8554435 -1.9056627 -4.1913214
-2.8180192 -1.9025745 -4.2071686
-2.7812998 -1.8999344 -4.2240243
-2.9053192 -1.9382881 -4.1239591
-2.9303515 -1.9758095 -4.0904126
-2.1928313 -1.6998575 -4.7695212
-2.1618404 -1.69236 -4.7945528
-2.1294117 -1.6877524 -4.8195214
-2.0966706 -1.6853968 -4.8400755
-2.061399 -1.6831429 -4.8589931
-2.0336151 -1.6827266 -4.888617
-2.001123 -1.68242 -4.9115043
-1.9682647 -1.683867 -4.9338694
-1.9374956 -1.6888381 -4.9547005
-2.2553549 -1.7122848 -4.7202196
-2.224102 -1.7060418 -4.7448773
-1.898919 -1.7041168 -4.9734282
-1.8650416 -1.7104179 -4.994349
-1.8321487 -1.7120305 -5.0166645
-2.3474224 -1.7391417 -4.6438198
-2.3184142 -1.7273929 -4.6716833
-2.2994881 -1.7249155 -4.6837053
-2.2848127 -1.723242 -4.6929984
-1.7934189 -1.7237704 -5.0352602
-1.7634355 -1.7292527 -5.057126
-1.7285653 -1.7403357 -5.0766177
-2.4095271 -1.7535763 -4.5939202
-2.3781638 -1.7478362 -4.618432
-1.695012 -1.7451125 -5.09799
-1.6620301 -1.7471249 -5.1201897
-1.6298057 -1.7455338 -5.1434603
-1.5947287 -1.7575814 -5.1626687
-2.469568 -1.7778962 -4.5410728
-2.4394538 -1.7661719 -4.567369
-2.4304399 -1.7622651 -4.5754161
-2.4018741 -1.7585597 -4.5829906
-1.5877182 -1.7584369 -5.1526566
-1.5880333 -1.7622652 -5.1652756
-1.557881 -1.7781384 -5.1793356
-2.5304165 -1.7983292 -4.4893875
-2.4998286 -1.7888937 -4.5149984
-1.52265 -1.7909502 -5.1983123
-2.6238167 -1.8188049 -4.4148898
-2.5923381 -1.8136362 -4.439229
-2.5615716 -1.8050519 -4.4645858
-2.5326002 -1.7993855 -4.4865212
-2.4916272 -1.79583 -4.5032859
-1.5117453 -1.7996143 -5.2020984
-2.6845269 -1.8373481 -4.3645296
-2.6502762 -1.8293473 -4.3833818
-2.7152278 -1.8488131 -4.3375506
-2.8078501 -1.8754555 -4.2619419
-2.8030994 -1.874313 -4.2646918
-2.7731869 -1.8681525 -4.2817335
-2.7456853 -1.8588746 -4.3117533
-2.8677428 -1.8980378 -4.2088866
-2.8374317 -1.887275 -4.2348924
-2.9275022 -1.9129645 -4.1615796
-2.8959589 -1.9072645 -4.1798878
-2.9588408 -1.9295439 -4.1310997
-2.9873016 -1.9490197 -4.1025491
-2.9461594 -1.9435431 -4.1129885
-2.88836 -2.0610602 -4.122015
-2.2401853 -1.6953242 -4.7678466
-2.2032762 -1.6925657 -4.7844381
-2.1657987 -1.6894429 -4.8002057
-2.3586113 -1.7301309 -4.6597996
-1.772534 -1.7301147 -5.0701203
-2.4819934 -1.768079 -4.5588188
-2.4428031 -1.7638727 -4.5721521
-1.6008987 -1.7668009 -5.1714802
-2.6395411 -1.8070499 -4.4373469
-2.6039121 -1.8051012 -4.4557586
-2.5661948 -1.8018274 -4.4711885
-1.5278902 -1.8040873 -5.2057962
-2.7635682 -1.8454086 -4.3372927
-2.7251053 -1.8416616 -4.3516569
-2.8476436 -1.879076 -4.2494764
-3.0075004 -1.919511 -4.1312976
-2.9704018 -1.9166296 -4.1476102
-2.1929827 -1.6668453 -4.8390284
-2.157167 -1.6749948 -4.8571811
-2.2833052 -1.6946232 -4.7601371
-2.251915 -1.6890367 -4.7845984
-2.2211037 -1.6806514 -4.8098984
-2.1242652 -1.6766484 -4.8794842
-2.0890341 -1.6894612 -4.8984604
-2.0563464 -1.6900649 -4.9210801
-2.0236025 -1.6909624 -4.9436088
-1.9905356 -1.6934083 -4.9656758
-1.9581093 -1.6927588 -4.9886694
-2.3480911 -1.7049611 -4.7140665
-2.3240759 -1.7011613 -4.7286835
-2.3140275 -1.6997973 -4.7347217
-2.2772164 -1.6981639 -4.7514415
-1.9252905 -1.7021359 -5.009778
-2.4063103 -1.7292324 -4.6586294
-2.3758705 -1.7190953 -4.6844482
-1.8873023 -1.7200102 -5.0261407
-1.8542758 -1.7222621 -5.0482655
-1.8203079 -1.7290254 -5.0690451
-1.7867459 -1.7338157 -5.0904169
-2.470078 -1.7408088 -4.6111045
-2.4532995 -1.7385108 -4.6216049
-2.4363153 -1.7362469 -4.6321778
-2.3976061 -1.7342166 -4.6461987
-1.7696681 -1.738511 -5.1002884
-1.7520784 -1.7439278 -5.110198
-1.7176162 -1.7530571 -5.1302724
-2.5291607 -1.7646117 -4.5568891
-2.4985712 -1.7551911 -4.5824938
-1.684218 -1.7570633 -5.1518779
-1.6516558 -1.757092 -5.1746655
-2.6217318 -1.7890596 -4.4812074
-2.5927353 -1.7791189 -4.5090919
-2.5626609 -1.7749239 -4.5278044
-2.5196831 -1.7713366 -4.543354
-1.6232163 -1.7758605 -5.1862402
-2.6833067 -1.8060235 -4.4305544
-2.6526768 -1.7967854 -4.4561062
-2.7444091 -1.8252543 -4.3792257
-2.712903 -1.8138793 -4.4070344
-2.6770246 -1.8101751 -4.4215827
-2.8381579 -1.8514197 -4.3052258
-2.8287747 -1.8505589 -4.3089085
-2.8028884 -1.8461773 -4.324152
-2.774632 -1.8364396 -4.3530931
-2.8660607 -1.8663605 -4.2757792
-2.8363142 -1.8528925 -4.3025928
-2.9260936 -1.888146 -4.2243352
-2.8924901 -1.881389 -4.2442293
-2.9890013 -1.9012951 -4.1741734
-2.957875 -1.8944334 -4.1990166
-3.0182202 -1.9234663 -4.1438627
-3.020396 -1.9626069 -4.124948
-2.9631121 -2.0253057 -4.1371999
-2.945128 -2.0373061 -4.1444607
-2.2363336 -1.6712453 -4.8316488
-2.1694717 -1.6701388 -4.8747549
-2.1374569 -1.670482 -4.898324
-2.3922062 -1.7091516 -4.707778
-2.5119581 -1.744796 -4.601613
-1.7631909 -1.7448448 -5.1260681
-2.6698859 -1.7840086 -4.4806833
-2.6317852 -1.7804912 -4.4955649
-1.6930066 -1.7839274 -5.1644292
-1.660242 -1.7837951 -5.1869278
-2.7933972 -1.8220397 -4.3798928
-2.7532635 -1.8172326 -4.391871
-2.8797359 -1.8571432 -4.2953091
-2.9994779 -1.8927828 -4.1891351
-2.963475 -1.8905973 -4.2070141
-2.3448727 -1.6808841 -4.7787728
-2.31145 -1.6782736 -4.8003316
-2.2987788 -1.6774051 -4.8085847
-2.2779963 -1.676471 -4.8218465
-2.2467644 -1.673938 -4.8465457
-2.2146363 -1.67189 -4.8699527
-2.1815243 -1.6745251 -4.8919668
-2.136353 -1.6774051 -4.9223166
-2.1135015 -1.6884632 -4.9334035
-2.4038272 -1.7013851 -4.7243743
-2.3735981 -1.6902372 -4.750494
-2.0787954 -1.6987367 -4.9531407
-2.0459781 -1.6999867 -4.9755645
-2.0129194 -1.7023929 -4.997643
-1.9804384 -1.7020048 -5.0205588
-2.4995155 -1.7176328 -4.6531458
-2.4828906 -1.7147546 -4.6630731
-2.4653125 -1.7119734 -4.6735902
-2.4326909 -1.7109814 -4.6963048
-1.9388971 -1.7147547 -5.0439816
-2.5578339 -1.7434695 -4.5978384
-2.5276926 -1.7319014 -4.6240835
-1.909696 -1.728947 -5.0581222
-1.8763672 -1.7326467 -5.0798149
-1.8428828 -1.7370927 -5.1012855
-1.8095752 -1.7406662 -5.1230202
-1.7759107 -1.7459729 -5.1442342
-2.6511559 -1.7643205 -4.5232296
-2.6224396 -1.756526 -4.5515141
-2.5881565 -1.7522792 -4.5728793
-2.5511062 -1.748979 -4.5882306
-1.7617784 -1.7521043 -5.1514058
-1.7397915 -1.7630394 -5.161942
-2.681448 -1.7751746 -4.4971957
-2.7732792 -1.8031679 -4.4204564
-2.7445307 -1.7926421 -4.4486952
-2.7205739 -1.7894537 -4.4634547
-2.710655 -1.7880036 -4.4696121
-1.7165185 -1.7894537 -5.1665015
-2.8335867 -1.8262033 -4.3679934
-2.8032091 -1.8157566 -4.3939056
-2.894474 -1.8464631 -4.3163576
-2.8642352 -1.8353522 -4.3424683
-2.8342426 -1.826681 -4.3668604
-2.9562724 -1.8639262 -4.265089
-2.9212065 -1.8574604 -4.2852407
-2.9861879 -1.8750169 -4.2394514
-3.0166388 -1.8966126 -4.2085342
-3.0430548 -1.933647 -4.1735821
-3.0532553 -1.9762002 -4.1475329
-3.0416672 -2.0135498 -4.1390514
-3.0176024 -2.0364532 -4.1457243
-2.9823656 -2.0499992 -4.1609597
-2.4239256 -1.686982 -4.753078
-2.3857391 -1.6834095 -4.7678332
-2.1316414 -1.6874509 -4.9593101
-2.5797033 -1.7248282 -4.6290717
-2.5414069 -1.7211857 -4.6436691
-2.6997223 -1.7606443 -4.523294
-2.6606636 -1.7565192 -4.536808
-1.7852081 -1.758816 -5.1575117
-2.7850342 -1.7950962 -4.4372444
-1.7462143 -1.7970285 -5.1711144
-2.9104757 -1.8343523 -4.33921
-2.8717711 -1.8304522 -4.3532305
-2.9954247 -1.8685741 -4.2526431
-3.0782781 -1.9860604 -4.1630826
-2.3742943 -1.6581286 -4.8207912
-2.4325264 -1.6801361 -4.7653608
-2.4018776 -1.6709979 -4.7908816
-2.3381948 -1.6641226 -4.8385277
-2.3042512 -1.670769 -4.8593421
-2.2702188 -1.6778133 -4.8800421
-2.2374945 -1.678617 -4.9025984
-2.2042451 -1.6819113 -4.9244161
-2.525908 -1.7006977 -4.6908383
-2.4962146 -1.6905845 -4.7156177
-2.4615254 -1.6871595 -4.7374845
-2.1319284 -1.6910005 -4.971014
-2.5872164 -1.718946 -4.6398015
-2.5560405 -1.7123339 -4.6645689
-2.1020699 -1.7034718 -4.9863806
-2.0690384 -1.7057487 -5.0084977
-2.0355663 -1.7101328 -5.0299864
-2.0022721 -1.7136407 -5.0517406
-1.9690129 -1.7170095 -5.0735321
