# .PCD v0.7 - Point Cloud Data file format
VERSION 0.7
FIELDS x y z
SIZE 4 4 4
TYPE F F F
COUNT 1 1 1
WIDTH 1443
HEIGHT 1
VIEWPOINT 0 0 0 1 0 0 0
POINTS 1443
DATA ascii
1.1121182 -1.5089339 -5.009995
0.54033315 -1.5494896 -4.6722331
0.59132814 -1.5478147 -4.6946831
0.64302659 -1.5321943 -4.7148619
0.66490233 -1.5172546 -4.7504792
1.1254053 -1.5406129 -4.981863
1.1413103 -1.5491272 -5.0180573
0.48064959 -1.5857117 -4.6286168
0.51762867 -1.5820682 -4.6382465
0.54988527 -1.5681441 -4.6556883
0.59073317 -1.5750804 -4.6584454
1.1600654 -1.5765734 -5.0072718
0.46118522 -1.6167188 -4.5916767
0.49281192 -1.6053144 -4.6075506
0.53498423 -1.6084344 -4.6080022
0.49834847 -1.650619 -4.598413
0.53812444 -1.6452566 -4.6025629
0.53776073 -1.686347 -4.6070662
0.57504308 -1.6806573 -4.612114
0.61317623 -1.6760687 -4.6195726
0.98612082 -1.3953493 -5.0393596
1.0338061 -1.3986905 -5.0670214
0.84860015 -1.4322773 -4.9467978
0.88456225 -1.42277 -4.9629641
0.91541529 -1.4181055 -4.9780741
0.94814491 -1.4148877 -4.9948931
1.0041949 -1.4144931 -5.0080547
1.0455034 -1.419176 -5.046761
1.0594385 -1.4248896 -5.0729332
0.67108011 -1.4837714 -4.8132744
0.70196581 -1.4785849 -4.8332858
0.73280168 -1.4731504 -4.8533726
0.77631021 -1.4601665 -4.8882627
0.81652212 -1.4535908 -4.907517
0.86581755 -1.4500757 -4.9169769
1.0807719 -1.4536883 -5.0614405
0.48191381 -1.5297402 -4.6999221
0.51876879 -1.5260783 -4.7095833
0.56147254 -1.526108 -4.7336245
0.60788667 -1.519181 -4.7546554
0.64360487 -1.4932315 -4.7955289
0.67576349 -1.4885266 -4.8051624
0.7104249 -1.4864651 -4.818634
1.0956733 -1.4840391 -5.0333605
1.1213529 -1.5089548 -5.0631747
0.39088988 -1.565606 -4.6370816
0.43308699 -1.5618563 -4.6440501
0.46294379 -1.5549061 -4.6592836
0.49676788 -1.5453734 -4.6741943
0.51981556 -1.5270077 -4.7077703
0.58350575 -1.5272057 -4.7444587
1.1596174 -1.5608548 -5.0658331
0.35958457 -1.6006907 -4.5932975
0.39992476 -1.5913243 -4.6093445
0.44411969 -1.589133 -4.6183805
1.170565 -1.5813377 -5.0506473
0.36804771 -1.6318375 -4.5780525
0.42095208 -1.6219403 -4.5850124
0.37738359 -1.6695931 -4.5869675
0.41793835 -1.662236 -4.5931296
0.45694518 -1.6580137 -4.5961661
0.37775087 -1.7034538 -4.5618324
0.42541063 -1.6989772 -4.5816684
0.45993209 -1.6949482 -4.5909925
0.49770284 -1.6906235 -4.5990796
0.90752125 -1.3718991 -5.0652552
0.9672513 -1.3675308 -5.0842915
1.0113353 -1.368583 -5.1059422
1.0327085 -1.3734393 -5.1424184
0.81688368 -1.4074794 -5.0017323
0.85729086 -1.4062926 -5.0052524
0.88989139 -1.3993158 -5.0197701
0.92415988 -1.3917533 -5.0364361
0.95082533 -1.3795614 -5.0637455
1.0518326 -1.3968221 -5.1131039
1.0708238 -1.4079685 -5.1498966
0.67106116 -1.4495467 -4.8868141
0.7042923 -1.4474453 -4.9027524
0.75355351 -1.4344069 -4.9264498
0.80379033 -1.4252002 -4.9509153
0.83054078 -1.4181583 -4.9780779
1.0882927 -1.4341043 -5.1200066
0.59035945 -1.4974527 -4.8060837
0.61519754 -1.4751625 -4.8365698
0.64556634 -1.4671669 -4.8487515
0.68645024 -1.4648087 -4.8601599
0.71909118 -1.4642146 -4.87712
1.1037078 -1.4668961 -5.1076851
1.1164721 -1.4761267 -5.1443391
0.31911266 -1.5439934 -4.6511478
0.37530124 -1.5383121 -4.6649179
0.40839255 -1.5319452 -4.6802616
0.44109476 -1.5283349 -4.6971273
0.46798229 -1.5245219 -4.7240524
0.49910998 -1.5206928 -4.7436333
0.54122865 -1.5119876 -4.7809367
0.58745456 -1.5021579 -4.7974229
1.139514 -1.5185788 -5.1115141
1.1634177 -1.5433362 -5.1365223
0.27851355 -1.5779063 -4.6112237
0.33189821 -1.5702324 -4.6247759
1.1789993 -1.5620682 -5.1095343
0.22102618 -1.6125258 -4.5637918
0.26259553 -1.6075159 -4.5718975
0.29294479 -1.5989176 -4.5862279
0.2722888 -1.6437618 -4.5684109
0.3019098 -1.648061 -4.5707002
0.30352664 -1.69077 -4.5678997
0.33646059 -1.6762245 -4.584362
0.31678927 -1.7064781 -4.5449281
0.97000563 -1.3176994 -5.1775274
0.99984407 -1.3191452 -5.1993413
0.88039923 -1.3525336 -5.1122317
0.93385422 -1.3483709 -5.1298881
0.98822927 -1.3427155 -5.1455369
1.0164132 -1.3461926 -5.1706429
1.0402107 -1.3520359 -5.20292
0.76240158 -1.3848643 -5.0226026
0.79790092 -1.3821893 -5.0346117
0.83907568 -1.3802902 -5.045918
0.86860204 -1.3729477 -5.0591574
0.89642835 -1.3629694 -5.0844684
0.94281399 -1.3555453 -5.1143694
1.031412 -1.3674463 -5.1605196
1.0523773 -1.382288 -5.1818466
0.64830422 -1.4241394 -4.9262304
0.68134165 -1.4189278 -4.9425039
0.73201275 -1.4139955 -4.9695873
0.77949584 -1.4053344 -4.9929943
0.80662429 -1.3941815 -5.0195022
1.0701441 -1.4029702 -5.1679521
1.0888975 -1.4179821 -5.1920996
0.59001434 -1.4591808 -4.8801885
0.6246016 -1.4462653 -4.8918877
1.1048607 -1.4428507 -5.1691713
0.36238015 -1.4922 -4.7599573
0.40622067 -1.4968777 -4.7575307
0.43813741 -1.4983373 -4.7757454
0.46892834 -1.4985518 -4.7959094
0.51782024 -1.4918174 -4.8214817
0.5676111 -1.4813751 -4.8446188
1.1250232 -1.481586 -5.1665959
1.1294249 -1.489864 -5.1953993
0.18581009 -1.5599437 -4.6247878
0.2228682 -1.556134 -4.6340971
0.25999689 -1.5483012 -4.6372452
0.30133224 -1.5258913 -4.6819439
0.35072839 -1.5184621 -4.7066431
0.37779856 -1.5142298 -4.7196832
0.41968155 -1.5127667 -4.7342157
0.45037746 -1.5135883 -4.7545447
0.48325717 -1.5128202 -4.7710915
1.1403353 -1.5161197 -5.160923
1.1465064 -1.5252663 -5.1658134
1.1652495 -1.5260646 -5.2068572
0.13015282 -1.5932311 -4.5741858
0.16733432 -1.5893356 -4.5832939
0.2070694 -1.5864034 -4.5934849
0.2375325 -1.5778574 -4.6086979
0.10317767 -1.6288098 -4.5474129
0.14318848 -1.6228507 -4.5516076
0.17611825 -1.6172845 -4.559866
0.17853916 -1.6593966 -4.5638866
0.21496594 -1.6534386 -4.5660152
0.1479485 -1.6976025 -4.5433631
0.18943763 -1.6988361 -4.5450101
0.22678471 -1.6872944 -4.5631976
0.25865376 -1.6865185 -4.5721145
0.80150962 -1.3340561 -5.1321383
0.82120013 -1.3297729 -5.1412597
0.85513687 -1.3205464 -5.1559877
0.90490437 -1.3150415 -5.1800308
0.9479053 -1.3120137 -5.1958199
0.98221326 -1.3055012 -5.2331004
1.0154033 -1.3152239 -5.2458878
1.0398753 -1.3340563 -5.2697582
0.66232181 -1.3685901 -5.0372639
0.68403983 -1.3660845 -5.04808
0.73427582 -1.3581048 -5.0713177
0.7722652 -1.3554591 -5.0790138
0.8038106 -1.3523325 -5.0978832
0.84117663 -1.354925 -5.1000857
0.87326837 -1.3431678 -5.1245828
0.91813254 -1.3273834 -5.1571188
1.0396712 -1.3442532 -5.2201991
1.0511825 -1.3498255 -5.2574239
1.0818777 -1.3662676 -5.2795768
0.57986879 -1.4123783 -4.9712567
0.60674453 -1.399616 -4.9893293
0.64439082 -1.3870701 -5.006505
0.70775843 -1.3916007 -5.0096378
0.7512784 -1.3723943 -5.0418687
1.074531 -1.3865647 -5.220747
1.0962732 -1.4011804 -5.267127
0.49104404 -1.4489418 -4.9046068
0.52140975 -1.4409245 -4.9255075
0.54631352 -1.4336255 -4.9385529
0.60155702 -1.4248453 -4.9330897
0.63114405 -1.4117876 -4.9559526
0.66133595 -1.4028144 -4.9771547
1.1023006 -1.425089 -5.2223849
1.1095984 -1.4330444 -5.2518368
0.30829251 -1.4940318 -4.7801442
0.33782816 -1.4728725 -4.8060894
0.37680531 -1.4695915 -4.8084798
0.40863979 -1.4682767 -4.8268366
0.43965995 -1.4724571 -4.8466034
0.48736441 -1.467556 -4.8668833
0.54531813 -1.4603077 -4.8866434
0.57378566 -1.446383 -4.9082975
1.1186665 -1.4609511 -5.2274208
1.1352582 -1.4911529 -5.2588038
0.092640877 -1.5332419 -4.6391587
0.12315249 -1.5259975 -4.6598191
0.15415752 -1.5214967 -4.6796117
0.18693948 -1.526757 -4.6963272
0.21756864 -1.5201612 -4.7167835
0.27401865 -1.5143173 -4.7292528
0.31061852 -1.5052097 -4.7550163
0.35525906 -1.491433 -4.7631969
1.1346086 -1.4941565 -5.2120104
1.1525098 -1.5127724 -5.2289228
0.049705148 -1.5704762 -4.5960178
0.095229268 -1.5489714 -4.6203957
0.14407349 -1.5550468 -4.6199951
0.17289984 -1.5427977 -4.6471491
0.20415413 -1.539902 -4.6665106
0.23745406 -1.5273694 -4.6783395
-0.021786928 -1.610171 -4.5401978
0.012910604 -1.5972327 -4.556757
0.081781983 -1.5977684 -4.5628362
0.12074316 -1.58022 -4.5904841
0.00052797794 -1.6448598 -4.5390668
0.022602558 -1.6411272 -4.5399699
0.069277406 -1.6329681 -4.5410328
0.024004102 -1.6807369 -4.5375423
0.10103714 -1.6468095 -4.5511208
0.13376153 -1.6659511 -4.5588284
-0.0038362741 -1.7026311 -4.5122671
0.10852456 -1.7005464 -4.532093
0.82656837 -1.3014413 -5.2054696
0.87327051 -1.2957568 -5.2348223
0.91983867 -1.289306 -5.2644191
0.94843507 -1.2817084 -5.2883844
0.98115587 -1.2784536 -5.3052058
1.0166769 -1.2967758 -5.3171892
0.66579223 -1.3468163 -5.0953474
0.7089541 -1.3383077 -5.1151762
0.74041152 -1.320374 -5.1417942
0.77271557 -1.3179456 -5.1517415
0.79827118 -1.3079592 -5.180974
0.83786869 -1.3052757 -5.1858969
0.88867927 -1.3030381 -5.2081332
0.93926787 -1.3009659 -5.2307668
1.0013876 -1.3020791 -5.2701635
1.0331588 -1.3183728 -5.2988405
1.0646286 -1.3386973 -5.3206506
0.52060843 -1.382761 -5.0004029
0.55819988 -1.383734 -5.0178161
0.58853459 -1.3745482 -5.0297546
0.62298536 -1.3653116 -5.0435801
0.64472985 -1.3515795 -5.0794129
1.0973887 -1.3761907 -5.3283806
0.4673996 -1.426461 -4.9455605
0.49485064 -1.4128431 -4.9658937
0.52995086 -1.4001353 -4.9842215
0.57322216 -1.4067364 -4.982769
1.1118641 -1.4129875 -5.3135862
0.31553316 -1.4663882 -4.8410988
0.34597516 -1.4587653 -4.8618793
0.38185287 -1.452141 -4.887537
0.40862155 -1.4474758 -4.9003639
0.45582271 -1.4411054 -4.9166155
0.51907039 -1.4389274 -4.9295597
1.1204505 -1.4470909 -5.3026648
0.099841595 -1.5053498 -4.7001948
0.13048649 -1.4988697 -4.7206111
0.16181087 -1.4961212 -4.7398515
0.19473886 -1.5021565 -4.7563257
0.24503303 -1.4896845 -4.7917066
0.28001881 -1.4807899 -4.8101072
0.33524048 -1.4728475 -4.8069649
1.1399708 -1.4799806 -5.2996378
-0.020737529 -1.5423285 -4.615037
0.028341293 -1.5252378 -4.6525307
0.065279961 -1.5164629 -4.6724663
0.10947537 -1.5141276 -4.6835089
0.1430645 -1.5128429 -4.6988254
0.17305326 -1.5141792 -4.7203789
0.20580816 -1.5135056 -4.7371531
0.25937557 -1.5092614 -4.7546153
-0.11094201 -1.5906193 -4.5507765
-0.079547763 -1.5863228 -4.5610857
-0.045024753 -1.5633268 -4.5888543
-0.0071790218 -1.5650347 -4.5915532
0.040951252 -1.5451959 -4.6184378
-0.13603103 -1.624825 -4.5207367
-0.10869062 -1.6135559 -4.5302401
-0.057155371 -1.613741 -4.5311117
-0.099421859 -1.6346136 -4.5308232
-0.06756568 -1.6557186 -4.5342026
-0.019159079 -1.6483607 -4.5388069
-0.087630987 -1.6994044 -4.5104008
-0.056626558 -1.6918888 -4.5316849
-0.020109057 -1.6881611 -4.540453
0.86623573 -1.2771227 -5.2837548
0.89656162 -1.2688603 -5.3047361
0.92490602 -1.2591729 -5.3291378
0.95599437 -1.2604356 -5.3487868
0.65017152 -1.3140371 -5.1434956
0.68144059 -1.3109859 -5.1628313
0.71187282 -1.3033359 -5.1836166
0.74331641 -1.3012147 -5.202662
0.77461863 -1.2983427 -5.2219415
0.81051517 -1.2920418 -5.2476959
0.84997916 -1.2867666 -5.2629147
0.91127372 -1.282236 -5.279254
1.0050099 -1.2845137 -5.3524461
1.0260606 -1.2989241 -5.3744316
1.0646062 -1.3178281 -5.3811765
0.46326566 -1.3622241 -5.0262165
0.50160456 -1.3591115 -5.0386944
0.53680849 -1.3593001 -5.0593996
0.56313801 -1.3584023 -5.0737429
0.60392809 -1.3394204 -5.0984983
0.63284159 -1.322606 -5.124507
0.69266653 -1.318301 -5.1433873
1.0430608 -1.3180801 -5.3449864
1.0795982 -1.3392431 -5.3711843
0.37208557 -1.3982038 -4.9636459
0.42440915 -1.3918214 -4.9784632
0.47719336 -1.3766443 -5.0020928
0.53117967 -1.3597374 -5.0555887
1.1032348 -1.3959289 -5.3785577
0.31909013 -1.4363276 -4.9084454
0.35466909 -1.4292258 -4.9253759
0.38528085 -1.4203825 -4.9407911
0.44236231 -1.4209083 -4.952178
1.1168754 -1.4204137 -5.3641396
1.1242847 -1.4282629 -5.3692188
0.10292315 -1.4691916 -4.768352
0.13567734 -1.4650489 -4.7851162
0.16682982 -1.4691399 -4.8046656
0.21437383 -1.4682363 -4.8325605
0.25990772 -1.461295 -4.854825
0.29746628 -1.4534283 -4.8723917
0.33818293 -1.4547671 -4.8753757
1.1332214 -1.4552199 -5.3358274
-0.044471622 -1.5193703 -4.656146
0.0041630268 -1.5069442 -4.6944084
0.045667171 -1.4962797 -4.7170033
0.080713987 -1.4876512 -4.733325
0.12211347 -1.4889855 -4.7351136
0.15583873 -1.4876019 -4.7501955
0.18462443 -1.4898177 -4.7738442
0.21804357 -1.4886572 -4.7894568
-0.13867974 -1.5449663 -4.5988197
-0.10665178 -1.537721 -4.6168418
-0.076494694 -1.5306441 -4.6316886
-0.034898639 -1.5265502 -4.639565
0.0015342236 -1.5231954 -4.6499562
-0.20151472 -1.5985744 -4.5316172
-0.15854609 -1.5794156 -4.5597339
-0.13832271 -1.5652444 -4.5785389
-0.091590643 -1.5605906 -4.590755
-0.20015049 -1.6346599 -4.5149183
-0.1804136 -1.663886 -4.5241022
-0.14686334 -1.6693596 -4.5316963
-0.10206509 -1.662375 -4.5354013
-0.16819501 -1.6972029 -4.5029387
-0.12881041 -1.6977863 -4.5082302
-0.093034148 -1.6949096 -4.5197592
0.72156 -1.2891085 -5.2403455
0.74743772 -1.2770686 -5.2690201
0.78644538 -1.2706397 -5.287847
0.83102608 -1.2648342 -5.3079915
0.88162136 -1.2623457 -5.3306131
0.90809417 -1.2648003 -5.3582568
0.94590211 -1.2666541 -5.3793058
0.97462988 -1.2806326 -5.390017
0.56789851 -1.3191719 -5.1389933
0.60995054 -1.3013164 -5.1689301
0.66111898 -1.3006841 -5.198029
0.69404793 -1.2979047 -5.2144904
0.73209 -1.2968316 -5.2221069
0.76659346 -1.2948817 -5.2358413
1.0239651 -1.2995811 -5.4105377
1.0428252 -1.3055868 -5.4189024
0.31628609 -1.3765472 -4.9867978
0.35444188 -1.3716065 -4.9935579
0.40440154 -1.3644423 -5.0179286
0.44658303 -1.3521045 -5.0551114
0.47472358 -1.3412576 -5.0798779
0.50468659 -1.336072 -5.0945473
0.54018831 -1.3336673 -5.113493
0.58136916 -1.3298161 -5.1156616
1.0851026 -1.3435254 -5.4201593
1.0989144 -1.3717638 -5.4234729
0.25839806 -1.4114586 -4.9400597
0.30048013 -1.408577 -4.9486399
0.33005786 -1.3976769 -4.9629445
1.115356 -1.4083719 -5.4250317
0.11119223 -1.4463191 -4.8275256
0.14420295 -1.4421085 -4.8438563
0.19158983 -1.4446466 -4.8720236
0.23396277 -1.4387772 -4.8940725
0.27374434 -1.4300334 -4.9134793
1.133085 -1.429173 -5.4095588
-0.025268316 -1.4816595 -4.7331338
0.016349316 -1.472524 -4.7531099
0.058076859 -1.4658917 -4.7725334
0.08335948 -1.454813 -4.8022375
-0.18955529 -1.5291129 -4.6134434
-0.163059 -1.5174842 -4.641046
-0.1309607 -1.5158349 -4.658946
-0.092998385 -1.5116054 -4.6785803
-0.064993262 -1.506291 -4.6916904
-0.026642323 -1.5045978 -4.6987596
-0.2322619 -1.5501527 -4.5831103
-0.17988932 -1.5394255 -4.5967016
-0.33732712 -1.6164083 -4.5018902
-0.30792558 -1.6034158 -4.5172353
-0.26829934 -1.5881053 -4.5387073
-0.22287929 -1.5750748 -4.5609064
-0.29376185 -1.6403624 -4.5108294
-0.25789583 -1.6440284 -4.5113015
-0.29732096 -1.6886703 -4.506093
-0.25781691 -1.6831931 -4.5111647
-0.22094786 -1.6794118 -4.5208139
-0.28600752 -1.6986656 -4.4864974
0.72265816 -1.2574899 -5.3119392
0.75301719 -1.2567961 -5.3328638
0.79277873 -1.2632413 -5.3374901
0.58578968 -1.2909999 -5.2182541
0.63560987 -1.2850732 -5.2422123
0.66627502 -1.2796044 -5.2564974
0.70232749 -1.2729797 -5.2736568
0.82592463 -1.2705019 -5.3535757
0.85803533 -1.272046 -5.3714657
0.89021587 -1.2740015 -5.3892231
0.929281 -1.2784357 -5.409914
0.95719552 -1.2922745 -5.4202142
0.99097085 -1.3029947 -5.4352088
0.38652778 -1.3290944 -5.0856342
0.41912508 -1.3245475 -5.1026697
0.45173383 -1.3150349 -5.1185894
0.48545241 -1.3101057 -5.1347904
0.51755929 -1.3087772 -5.1526871
0.55049896 -1.3078145 -5.1691303
1.0365403 -1.321017 -5.4539437
0.204355 -1.3885236 -4.9601693
0.239187 -1.3819393 -4.9660835
0.27027845 -1.3674037 -4.9929895
0.29705739 -1.3593506 -5.020103
0.33802223 -1.3523555 -5.0405455
0.37526584 -1.3475771 -5.0561442
0.43436074 -1.3441565 -5.0762811
1.0978763 -1.3741506 -5.4659157
0.049738407 -1.4243445 -4.8604708
0.094511032 -1.4209813 -4.8699741
0.12135816 -1.4165218 -4.8834248
0.16882396 -1.4177358 -4.9114552
0.21704698 -1.4101095 -4.9381862
-0.10641348 -1.4612831 -4.7634325
-0.046160698 -1.4583665 -4.7815714
0.001434803 -1.4537424 -4.800941
0.032596827 -1.4500004 -4.8166661
0.065928936 -1.441846 -4.832428
-0.1874752 -1.4982444 -4.6833363
-0.15437508 -1.4947985 -4.699501
-0.12233436 -1.4871442 -4.7143388
-0.087381244 -1.4791782 -4.7304673
-0.061168909 -1.4676336 -4.7585611
-0.34814918 -1.5301273 -4.59413
-0.30745304 -1.5332897 -4.597137
-0.25802505 -1.5226235 -4.6215568
-0.20773256 -1.5137033 -4.6449275
-0.36480534 -1.5712259 -4.5494838
-0.33160889 -1.5566981 -4.5648289
-0.29399478 -1.5529808 -4.5738268
-0.42213511 -1.612253 -4.5017786
-0.38895369 -1.604964 -4.5089788
-0.35271132 -1.5884991 -4.5285363
-0.38133156 -1.6527622 -4.5046
-0.34773195 -1.6594222 -4.5082707
-0.36924803 -1.6953899 -4.48523
-0.33368981 -1.6919782 -4.4955897
0.4411521 -1.2682235 -5.2115211
0.47856331 -1.2641605 -5.2202301
0.51008749 -1.2643794 -5.2391253
0.56594872 -1.2679574 -5.2648711
0.61223602 -1.2632538 -5.2826967
0.64264441 -1.2582625 -5.2969842
0.67888427 -1.2565655 -5.3142619
0.70837259 -1.2566707 -5.3366828
0.74345708 -1.2582293 -5.3562841
0.77441955 -1.2698197 -5.3692889
0.34838295 -1.3034005 -5.1272044
0.39390564 -1.3025881 -5.1463513
0.42633486 -1.2995949 -5.1636896
0.46497416 -1.2945576 -5.1818013
0.49243712 -1.2893986 -5.1962004
0.52477074 -1.2881962 -5.2136927
0.55360961 -1.2806848 -5.2372379
0.80801606 -1.2795562 -5.384594
0.84044957 -1.2828749 -5.4019251
0.87289596 -1.2862916 -5.4192219
0.90595126 -1.2932503 -5.4346652
0.94002414 -1.3053797 -5.4499559
0.9731071 -1.3122948 -5.4661498
0.2400744 -1.3415978 -5.0453048
0.273803 -1.3371133 -5.0603809
0.31086659 -1.3303642 -5.0781302
0.3406992 -1.3211027 -5.0915165
1.0033329 -1.3278356 -5.4770694
1.0252011 -1.3362085 -5.486176
-0.011951208 -1.4069761 -4.8938255
0.023995399 -1.4039751 -4.9050589
0.070510864 -1.3976618 -4.9118862
0.091242313 -1.3859953 -4.9355869
0.14026856 -1.3835242 -4.9609151
0.18405485 -1.3717474 -4.9953303
0.2161386 -1.3599486 -5.0062599
1.0744328 -1.3680935 -5.5011997
-0.13230932 -1.4410251 -4.8082852
-0.077936411 -1.4361962 -4.8243575
-0.026444435 -1.430131 -4.8383164
0.0096850395 -1.4247491 -4.8563504
0.036770105 -1.413711 -4.8829327
0.066296577 -1.401083 -4.9052868
-0.25082338 -1.4737357 -4.719563
-0.21418953 -1.4702346 -4.7296066
-0.17699504 -1.468356 -4.7386799
-0.14840925 -1.4651301 -4.7534556
-0.11478055 -1.4553751 -4.7779245
-0.068961859 -1.4448227 -4.8088131
-0.37218297 -1.5085138 -4.6357579
-0.33232462 -1.5103834 -4.6402159
-0.28308856 -1.5053067 -4.6651921
-0.23947835 -1.4969054 -4.6855545
-0.20606136 -1.4784433 -4.7155285
-0.45921159 -1.5414708 -4.5659966
-0.41846502 -1.5449984 -4.5689173
-0.38999164 -1.5332165 -4.5846233
-0.35739815 -1.5212822 -4.6101499
-0.49205148 -1.581555 -4.5248795
-0.44468141 -1.5738336 -4.5408297
-0.41954947 -1.568457 -4.5504365
-0.58000958 -1.6149487 -4.4812183
-0.54117763 -1.6098518 -4.4874673
-0.48297489 -1.6212385 -4.4951591
-0.47435153 -1.6717739 -4.4942222
-0.42780614 -1.6725965 -4.5038366
-0.45395267 -1.6902456 -4.4833927
0.35059404 -1.2544562 -5.2213693
0.38212609 -1.2528218 -5.2402616
0.41250205 -1.249298 -5.2591081
0.45200396 -1.2483498 -5.2800646
0.4773612 -1.2514815 -5.2958088
0.5258162 -1.2554135 -5.3221312
0.23136187 -1.2988079 -5.1338911
0.26272368 -1.2962646 -5.1530666
0.31376195 -1.282787 -5.186358
0.37096739 -1.2823274 -5.1860819
0.40905452 -1.2749072 -5.2038145
0.43538857 -1.2631602 -5.2215042
0.46597958 -1.2563541 -5.2420263
0.49793172 -1.2570537 -5.2601795
0.54624486 -1.2602072 -5.2867479
0.58519411 -1.2656379 -5.329535
0.6175375 -1.268488 -5.3470101
0.64977431 -1.270726 -5.3646817
0.68648171 -1.2765169 -5.3909683
0.71842289 -1.2763922 -5.395474
0.74907351 -1.2917172 -5.4131899
0.11055636 -1.334541 -5.0491257
0.14187717 -1.3317444 -5.0683842
0.17489123 -1.3204027 -5.0922117
0.21208882 -1.3145423 -5.0937772
0.25109148 -1.3110285 -5.0997181
0.28613472 -1.3069326 -5.1179152
0.33012748 -1.2968448 -5.146575
0.7817893 -1.2966149 -5.4300203
0.81481886 -1.303208 -5.4463186
0.85110831 -1.3111856 -5.4639177
0.881217 -1.3183143 -5.4783049
0.91398382 -1.3234631 -5.495059
0.94733405 -1.3318479 -5.5107899
-0.040507555 -1.3788502 -4.9432869
-0.010172129 -1.3706697 -4.9642391
0.030179262 -1.3559654 -4.9937158
0.058046579 -1.3571723 -4.9930835
0.10503507 -1.3534112 -5.0145922
0.15989995 -1.3537858 -5.0371675
0.19644237 -1.3415867 -5.0518398
0.97660685 -1.3466892 -5.5214529
0.99960852 -1.3567528 -5.5305037
-0.19513035 -1.42036 -4.8347507
-0.15776575 -1.4144554 -4.8523769
-0.10797668 -1.408257 -4.8763885
-0.057548285 -1.4000541 -4.8963408
-0.025914192 -1.3941407 -4.9180102
0.007789135 -1.3873575 -4.9331293
0.044968128 -1.3764147 -4.9498472
1.0419803 -1.388584 -5.5641704
-0.32435882 -1.4565053 -4.7460356
-0.28030694 -1.453397 -4.7706299
-0.24701214 -1.4451631 -4.7864571
-0.21459675 -1.4401766 -4.8038082
-0.16563284 -1.4454284 -4.7994108
-0.13820517 -1.4340992 -4.8184967
-0.092828035 -1.4211205 -4.8501506
-0.46417391 -1.4992368 -4.6480875
-0.43367016 -1.4911764 -4.6691499
-0.40072048 -1.4842393 -4.6851864
-0.36680377 -1.4765855 -4.6999354
-0.30548084 -1.4785502 -4.7030878
-0.25946558 -1.4673052 -4.7345319
-0.22914314 -1.4590516 -4.7555075
-0.19815016 -1.4544815 -4.7753215
-0.58915329 -1.5238867 -4.5642242
-0.53676844 -1.5148293 -4.5900803
-0.4815315 -1.5139545 -4.6046557
-0.44352555 -1.5126271 -4.6087565
-0.40951574 -1.5105944 -4.6269245
-0.38026178 -1.5030897 -4.6497507
-0.35006654 -1.4941388 -4.6709456
-0.64064014 -1.5788655 -4.5127382
-0.60597694 -1.5632156 -4.5393286
-0.57629097 -1.5571947 -4.548285
-0.51349866 -1.5521902 -4.5553799
-0.67006171 -1.5943696 -4.4889731
-0.6316036 -1.5902313 -4.4970865
-0.58939397 -1.5950882 -4.4974723
-0.55540037 -1.5831161 -4.5156517
-0.66493797 -1.6323199 -4.4732747
-0.62403715 -1.6551566 -4.4840112
-0.58628428 -1.6323334 -4.4835272
-0.54642105 -1.650452 -4.4891734
-0.64975929 -1.6941856 -4.4550376
-0.6121248 -1.6933775 -4.4633479
-0.57592452 -1.6901921 -4.4741426
-0.53717351 -1.684654 -4.4833512
-0.56771004 -1.6972773 -4.4599147
0.23591089 -1.2613158 -5.196559
0.28746438 -1.2559037 -5.2204695
0.33891892 -1.2507175 -5.2415915
0.37108517 -1.2521076 -5.2593851
0.39496326 -1.2559302 -5.2915225
0.42687535 -1.2563828 -5.3097563
0.46685648 -1.2548239 -5.3140035
0.49776649 -1.2583246 -5.3391337
0.086067677 -1.3074185 -5.0915413
0.11727691 -1.3040088 -5.1109929
0.14967251 -1.3071467 -5.1283779
0.17948651 -1.296416 -5.1500373
0.21314144 -1.2872788 -5.1654496
0.25194907 -1.2901127 -5.1717286
0.28802252 -1.2870235 -5.1827555
0.52559805 -1.2742068 -5.3592629
0.5588727 -1.2821769 -5.3751249
0.59100294 -1.2838554 -5.3929696
0.62363696 -1.2882757 -5.4099531
0.65696073 -1.2963094 -5.4238944
0.69061065 -1.306514 -5.4409552
0.72291756 -1.3091662 -5.4584932
-0.033468485 -1.3500992 -5.0045896
-0.0034599304 -1.34012 -5.0261087
0.024265051 -1.3294489 -5.0453153
0.074090242 -1.3218709 -5.0632896
0.13470578 -1.3218983 -5.0808053
0.16930938 -1.3198755 -5.0943661
0.75593948 -1.3157454 -5.4747934
0.78930616 -1.3241911 -5.4905081
0.82613659 -1.3302671 -5.5092182
0.85506272 -1.3357712 -5.5236053
0.888659 -1.3454783 -5.5389228
-0.13916993 -1.3813783 -4.9304171
-0.097620726 -1.3638111 -4.9599667
-0.060390711 -1.3584216 -4.9777255
-0.022330284 -1.3594805 -4.9852977
0.015040398 -1.3554435 -4.9940653
0.9312644 -1.3611875 -5.5569191
0.97395897 -1.3769825 -5.5749302
-0.33735406 -1.4353373 -4.7959309
-0.31219804 -1.4292216 -4.8054376
-0.26921821 -1.4190772 -4.8249192
-0.23639655 -1.4157809 -4.8415661
-0.20401824 -1.4029028 -4.8839302
-0.18297827 -1.3974218 -4.8960466
-0.12838387 -1.3947014 -4.9117351
-0.071778774 -1.3882476 -4.9239416
1.0412042 -1.3889344 -5.5687008
-0.48979437 -1.4726619 -4.6924634
-0.46284354 -1.4667377 -4.7050281
-0.42312467 -1.4611188 -4.7239914
-0.38995945 -1.4569708 -4.7400422
-0.34942484 -1.4461755 -4.7678413
-0.67430151 -1.5092074 -4.5710411
-0.6453464 -1.5027132 -4.58601
-0.60840619 -1.4983525 -4.6039104
-0.56003225 -1.4961995 -4.630374
-0.51300025 -1.4949723 -4.6591616
-0.47125185 -1.495185 -4.6603465
-0.69824636 -1.5401161 -4.5415449
-0.6615063 -1.5337815 -4.5488791
-0.62281549 -1.5287833 -4.5553603
-0.73461759 -1.5798262 -4.5040102
-0.70422161 -1.5711168 -4.5185924
-0.65111101 -1.5653228 -4.5308743
-0.6145128 -1.5618477 -4.5409794
-0.77890301 -1.6079921 -4.468389
-0.72626221 -1.6012175 -4.4772892
-0.7462641 -1.6418124 -4.4704566
-0.72989821 -1.641158 -4.4713378
0.12368345 -1.2783737 -5.1733923
0.1519928 -1.2731446 -5.1875763
0.19081998 -1.2642825 -5.2041116
0.21625209 -1.2557917 -5.2335577
0.26353979 -1.253296 -5.2619081
0.31072545 -1.2502675 -5.2904234
0.34332395 -1.2544916 -5.3074684
0.37676096 -1.2633517 -5.3230495
0.40910387 -1.266173 -5.3405375
0.45592237 -1.2713342 -5.3653989
0.47725916 -1.2733295 -5.3694806
-0.061841965 -1.3188516 -5.0537338
-0.028610945 -1.3090737 -5.069818
0.0046923161 -1.3041821 -5.0854959
0.05471015 -1.2984279 -5.1091061
0.10313082 -1.2932487 -5.1354947
0.14145041 -1.3010461 -5.1426191
0.50858474 -1.2881626 -5.388731
0.54125381 -1.2928052 -5.4056416
0.57396626 -1.2976828 -5.4224777
0.61281252 -1.3076153 -5.4407315
0.6406765 -1.3144753 -5.4539356
0.67311859 -1.3178395 -5.4712524
0.70583534 -1.3227431 -5.4880805
-0.16301942 -1.3577698 -4.9717255
-0.11852741 -1.3458012 -5.0049129
-0.089178562 -1.3426528 -5.0199604
-0.047702074 -1.338841 -5.0292425
-0.0095443726 -1.3342309 -5.0366473
0.73873878 -1.3286705 -5.5045857
0.77230167 -1.3381953 -5.5199604
0.80393982 -1.3441794 -5.5375943
0.83918691 -1.3559768 -5.5511036
0.87280846 -1.3658223 -5.5663767
-0.3297652 -1.4033595 -4.8562942
-0.29931664 -1.3957996 -4.8770514
-0.27241039 -1.3861573 -4.903944
-0.23750257 -1.3791697 -4.9205518
-0.20538509 -1.3706257 -4.9348564
-0.14801049 -1.3698803 -4.9457293
0.90554976 -1.3708621 -5.5831623
0.94082785 -1.3725343 -5.5955667
-0.48351705 -1.449066 -4.7550983
-0.45005631 -1.446871 -4.7683053
-0.41542709 -1.4352818 -4.7841535
-0.37486351 -1.4174348 -4.8193679
-0.32203758 -1.4082491 -4.8429098
-0.28523564 -1.4046259 -4.8526621
-0.2512567 -1.4030577 -4.8673048
-0.21912098 -1.4028348 -4.8851514
-0.63523924 -1.4854711 -4.6503863
-0.58883643 -1.4784765 -4.6722918
-0.53520274 -1.4692905 -4.6976175
-0.51092589 -1.457222 -4.729064
-0.48018992 -1.451211 -4.7493358
-0.76871228 -1.513052 -4.5542483
-0.71969938 -1.5051426 -4.5761776
-0.69452488 -1.4976561 -4.6060691
-0.6636349 -1.492522 -4.6260614
-0.80562198 -1.5559077 -4.5208168
-0.76750612 -1.5410794 -4.5364766
-0.86159956 -1.5865426 -4.4766688
-0.83708775 -1.581715 -4.4854932
-0.79867089 -1.5800685 -4.4924612
-0.76271498 -1.5770609 -4.5036793
-0.86328709 -1.6197201 -4.4573069
-0.82548559 -1.6275047 -4.4653974
-0.85559189 -1.6924926 -4.4440479
-0.82096195 -1.6745641 -4.4604073
-0.78445756 -1.6674937 -4.4678431
0.030645132 -1.2571526 -5.1875358
0.068526983 -1.254537 -5.1954303
0.098455429 -1.2522974 -5.2117538
0.12714243 -1.2564149 -5.2409086
0.16360259 -1.2522764 -5.2491336
0.20561814 -1.2505989 -5.2703738
0.24242854 -1.2546148 -5.2984738
0.2925365 -1.2577813 -5.321928
-0.054469585 -1.2934818 -5.11446
-0.021824598 -1.2908266 -5.1314244
0.024352789 -1.2832539 -5.1536894
0.085686684 -1.279364 -5.165709
0.13379908 -1.2599277 -5.2293787
0.32471251 -1.2596849 -5.3397045
0.35887551 -1.2725345 -5.3540287
0.39142036 -1.2764651 -5.3711662
0.432055 -1.2836558 -5.3916044
0.45872235 -1.2965369 -5.4015875
-0.17418265 -1.3275124 -5.0278149
-0.14542556 -1.3193394 -5.0410943
-0.10774326 -1.3143177 -5.0597425
-0.081034899 -1.3036293 -5.086977
0.49110126 -1.2995545 -5.419013
0.5236578 -1.3035775 -5.4361191
0.5569222 -1.3114893 -5.4519992
0.58913398 -1.3225603 -5.4689741
0.62304187 -1.3250362 -5.4844799
0.6558075 -1.3301785 -5.501236
0.6886754 -1.3359125 -5.5178022
-0.32826114 -1.3667133 -4.9271846
-0.29535031 -1.3609174 -4.9436769
-0.2596972 -1.357628 -4.9625854
-0.22904789 -1.3508778 -4.9758415
-0.18299365 -1.3468802 -4.9940701
0.72207093 -1.3445445 -5.5334554
0.75553155 -1.3535072 -5.5490074
0.78978229 -1.3556452 -5.5678835
0.81649232 -1.3643517 -5.5904112
-0.4745096 -1.4150125 -4.8129926
-0.44391477 -1.4082564 -4.8334956
-0.40127575 -1.3968284 -4.8698988
-0.35398257 -1.3889898 -4.8921437
-0.31246948 -1.3853425 -4.8998327
-0.69710338 -1.4655343 -4.6840305
-0.66153991 -1.4628165 -4.6959405
-0.6120007 -1.4574752 -4.712965
-0.55939436 -1.4510455 -4.7395186
-0.53135908 -1.4383571 -4.7644553
-0.50753736 -1.4237126 -4.788888
-0.46728647 -1.4213089 -4.8004818
-0.43025792 -1.4175203 -4.8098412
-0.88084495 -1.4993905 -4.5612826
-0.8427099 -1.4980673 -4.5687394
-0.79621756 -1.4932725 -4.5931053
-0.74643946 -1.4940183 -4.6224928
-0.71413291 -1.4911401 -4.6400313
-0.68002856 -1.4808456 -4.6544561
-0.65584195 -1.4679036 -4.6860714
-0.89390969 -1.5299042 -4.5264726
-0.86686122 -1.5211717 -4.5370622
-0.82559144 -1.5214481 -4.5390892
-0.96367788 -1.5684022 -4.4842553
-0.9256469 -1.5694703 -4.491879
-0.8952502 -1.5608741 -4.5081301
-0.85440195 -1.5583586 -4.5154819
-0.98745275 -1.6016508 -4.4519386
-0.95181215 -1.5984552 -4.4592595
-0.91031587 -1.5918325 -4.4653249
-0.94834447 -1.6354575 -4.4576969
-0.91578007 -1.6376314 -4.4599075
-0.90660298 -1.6785159 -4.4588938
-0.87936711 -1.6656559 -4.4692531
-0.11718917 -1.2720978 -5.1495976
-0.068242788 -1.2663498 -5.1596217
-0.043109894 -1.2626691 -5.168292
-0.00025701523 -1.2562293 -5.1920629
0.049263954 -1.2526281 -5.2287951
0.081353664 -1.2540857 -5.2467098
0.11369228 -1.2568841 -5.264205
0.14586091 -1.2587737 -5.2819829
0.17779708 -1.2593865 -5.3001633
0.22839403 -1.2652907 -5.3350315
0.2505219 -1.2651154 -5.3397441
-0.27243888 -1.3083793 -5.0509968
-0.21040702 -1.3042747 -5.0660543
-0.16797256 -1.2986076 -5.0827188
-0.13158584 -1.2944347 -5.1010389
-0.099816799 -1.2938286 -5.1195083
-0.074108601 -1.2742565 -5.1484761
0.27584815 -1.2735223 -5.3508329
0.30885315 -1.2799813 -5.3671741
0.3413496 -1.2836725 -5.3843842
0.37399483 -1.2881541 -5.4013481
0.40791488 -1.2996328 -5.4157333
0.44131422 -1.308322 -5.4317389
-0.36082864 -1.3423275 -4.983593
-0.32099104 -1.3439809 -4.9880881
-0.28166354 -1.3365577 -5.0048265
-0.25333297 -1.3294135 -5.0179043
-0.22035313 -1.3229458 -5.0342765
0.47397804 -1.312905 -5.4486713
0.5068717 -1.318781 -5.4651933
0.54032516 -1.3277307 -5.4807458
0.57309556 -1.3351834 -5.5014534
0.60616803 -1.3397564 -5.5137062
0.63938117 -1.3473575 -5.5296869
-0.47974002 -1.3753234 -4.8955469
-0.42166436 -1.370441 -4.9086509
-0.37343109 -1.3629009 -4.9319258
-0.34620571 -1.3530507 -4.9582653
0.68907762 -1.3581266 -5.5538535
-0.59413242 -1.4162004 -4.7996864
-0.56111372 -1.4082575 -4.8159919
-0.53031278 -1.4023392 -4.8302341
-0.49495542 -1.3987993 -4.8484058
-0.46278846 -1.3957059 -4.8661857
-0.82499969 -1.4775493 -4.6483073
-0.76944315 -1.4724085 -4.6640735
-0.73652327 -1.4662321 -4.6788125
-0.70912421 -1.4574645 -4.7048512
-0.6848141 -1.4494638 -4.7362528
-0.6325351 -1.4384258 -4.7581077
-0.57908511 -1.4331887 -4.7736239
-1.0276918 -1.513617 -4.5216351
-0.99089599 -1.5099983 -4.5313983
-0.95667624 -1.5059732 -4.5406055
-0.92094982 -1.500926 -4.5572515
-0.89360511 -1.493054 -4.583384
-0.86251628 -1.4889808 -4.603045
-0.8160671 -1.4819059 -4.6328354
-0.76998591 -1.4727806 -4.6632762
-1.0190086 -1.5464048 -4.5065951
-0.97938895 -1.5422376 -4.5138173
-0.94185102 -1.5365715 -4.5199451
-1.1130266 -1.58445 -4.4489408
-1.0751466 -1.5800416 -4.4568257
-1.0241883 -1.5730308 -4.4721694
-1.0567417 -1.6125633 -4.4465542
-1.0284069 -1.6144373 -4.4493661
-1.0035673 -1.6505888 -4.4574714
-1.0043489 -1.6865867 -4.4444499
-0.96380842 -1.6773298 -4.4575367
-0.23258853 -1.2865989 -5.1289768
-0.19415426 -1.2817874 -5.1359024
-0.1622684 -1.2691458 -5.1501622
-0.13375807 -1.255669 -5.1782961
-0.10330391 -1.2539344 -5.1990438
-0.071767092 -1.2513716 -5.2179275
-0.023295641 -1.2501111 -5.244216
0.029681206 -1.2524662 -5.2627134
0.06218338 -1.2561898 -5.2799134
0.094971895 -1.2614608 -5.2966294
0.1279397 -1.2677424 -5.3130236
0.16013598 -1.269785 -5.3307533
0.2127564 -1.2759124 -5.3585587
-0.41872013 -1.3221941 -5.0103688
-0.38080454 -1.3177601 -5.0181923
-0.34549093 -1.3152204 -5.0305233
-0.30973184 -1.3121397 -5.0415883
-0.27918112 -1.3041397 -5.0626745
-0.23276901 -1.2968471 -5.0925355
-0.18686581 -1.2867578 -5.1232781
0.25932813 -1.2901893 -5.3794465
0.29181552 -1.2938046 -5.3966837
0.32376409 -1.2944853 -5.4148431
0.35659933 -1.3000119 -5.4314785
0.38843584 -1.3135829 -5.4441552
0.42428541 -1.3221942 -5.4612336
-0.53833234 -1.3557004 -4.9235368
-0.50348198 -1.3534974 -4.9366689
-0.44722736 -1.3495843 -4.9494896
-0.4027096 -1.3461988 -4.9732084
-0.36956453 -1.3321385 -4.998724
-0.33917046 -1.3242787 -5.0195761
0.45700026 -1.3270578 -5.4780779
0.48959112 -1.3312695 -5.4951243
0.52260971 -1.3378303 -5.5114298
0.55272055 -1.3483372 -5.5243988
0.59087443 -1.3631636 -5.5401955
0.62274313 -1.3633769 -5.5585051
-0.62027001 -1.3968076 -4.8449583
-0.58617175 -1.3910193 -4.8593936
-0.54763258 -1.3829782 -4.8762145
-0.51903999 -1.3773098 -4.8901215
-0.49094474 -1.3647158 -4.9149542
-0.78310692 -1.4267569 -4.7594976
-0.73863161 -1.4328043 -4.7559595
-0.70549047 -1.4251641 -4.7720652
-0.65872109 -1.4138756 -4.7952242
-1.0687324 -1.4927982 -4.5559654
-1.0178587 -1.4905168 -4.5780993
-0.98442543 -1.4893456 -4.5936861
-0.94877064 -1.4865613 -4.6054382
-0.91224921 -1.4851764 -4.6221309
-0.88859415 -1.4726634 -4.6482134
-0.84371448 -1.4595315 -4.6807227
-0.79428458 -1.4526641 -4.7053628
-0.76129305 -1.4504663 -4.7229652
-0.72692478 -1.4481338 -4.735683
-1.143831 -1.5286567 -4.5022955
-1.0902475 -1.5215358 -4.5106406
-1.0575519 -1.5119355 -4.5243492
-1.0081339 -1.4958189 -4.5612555
-0.97663605 -1.4940237 -4.5801945
-0.94596422 -1.4876608 -4.6005774
-0.91445649 -1.4859215 -4.6194997
-1.1678766 -1.5620989 -4.4704356
-1.1302235 -1.55786 -4.4787269
-1.0928286 -1.5540673 -4.4879575
-1.0569913 -1.5508839 -4.4988756
-1.190779 -1.5947125 -4.4366083
-1.1479133 -1.5889665 -4.4431272
-1.1216729 -1.5714518 -4.4639163
-1.1548859 -1.6308593 -4.4479351
-1.1126602 -1.6241657 -4.4457679
-1.1081839 -1.6753184 -4.4405527
-1.0747614 -1.6573735 -4.4542389
-1.0963237 -1.6896172 -4.4200106
-1.0643669 -1.6895206 -4.4381547
-0.32531464 -1.2655424 -5.14258
-0.27941895 -1.2554128 -5.1733351
-0.222579 -1.2516965 -5.1851354
-0.19074297 -1.2517288 -5.2035022
-0.15900826 -1.2512373 -5.2220306
-0.12660789 -1.2544019 -5.2394075
-0.094348431 -1.2567639 -5.2570395
-0.046430349 -1.2577591 -5.2842865
-0.0067350864 -1.2672646 -5.325788
-0.4792062 -1.3024621 -5.0377541
-0.44427288 -1.2988908 -5.0546274
-0.41069365 -1.2949888 -5.0699615
-0.37854075 -1.2938417 -5.0877671
-0.34640217 -1.2901764 -5.1056089
-0.30611157 -1.2823589 -5.1200867
-0.26226568 -1.2731978 -5.1362743
-0.21710467 -1.2550831 -5.1620054
0.0051949024 -1.2597272 -5.3044162
0.035643816 -1.2715378 -5.3258815
0.069091558 -1.280431 -5.3414555
0.10159326 -1.2841514 -5.3586569
0.14085698 -1.2932711 -5.3850193
0.17099833 -1.2951701 -5.3923054
-0.59727681 -1.3450769 -4.952136
-0.56291461 -1.3385769 -4.9747071
-0.53360188 -1.3282299 -4.9888382
-0.47754323 -1.3241181 -5.0019979
-0.43186831 -1.3212883 -5.012476
-0.39383054 -1.3062575 -5.0407543
-0.36284375 -1.3016545 -5.0605793
-0.33155942 -1.2986581 -5.0799007
0.20062399 -1.303669 -5.407629
0.23346615 -1.3092601 -5.4242406
0.26615071 -1.3139591 -5.4411364
0.302598 -1.3267057 -5.4643483
0.3386972 -1.3286381 -5.4743648
0.36601424 -1.3380517 -5.4886675
0.4072125 -1.3358392 -5.4908051
-0.74859679 -1.3880105 -4.8467274
-0.69956768 -1.3709842 -4.8797369
-0.65358448 -1.3612204 -4.9026604
-0.61472714 -1.3618026 -4.9088531
-0.57675314 -1.358595 -4.912344
-0.54475701 -1.3513513 -4.9346647
-0.5139221 -1.3459154 -4.954752
-0.4836694 -1.3372481 -4.9758611
0.41522408 -1.346132 -5.5136824
0.4734993 -1.3503054 -5.5229959
0.50657487 -1.3571793 -5.5392032
0.53743267 -1.3595266 -5.5562868
-0.87081122 -1.4160024 -4.7644029
-0.84311235 -1.4055252 -4.7837801
-0.80749023 -1.4021231 -4.8017311
-0.768314 -1.4028157 -4.8073711
-0.7300216 -1.4012035 -4.8145542
-0.6812855 -1.3970112 -4.8403907
-0.64719677 -1.3896003 -4.8594465
-1.0521369 -1.4689283 -4.6374707
-1.0221072 -1.4590663 -4.6589532
-0.99111998 -1.4544362 -4.6787896
-0.96059883 -1.4472759 -4.6994205
-0.91882336 -1.4469981 -4.7086039
-0.8749392 -1.4401387 -4.7274561
-0.81833553 -1.4336597 -4.7470202
-0.79164934 -1.4258416 -4.7608151
-1.2376814 -1.5085887 -4.512435
-1.2010339 -1.5010597 -4.5278659
-1.1544404 -1.4967222 -4.5400186
-1.1295959 -1.4937983 -4.5511346
-1.0872144 -1.4847828 -4.5879774
-1.0481325 -1.4775646 -4.6181874
-1.0050563 -1.4730173 -4.6294198
-0.97182047 -1.4686297 -4.6453619
-0.93946278 -1.4623277 -4.6595297
-1.2652745 -1.5403286 -4.4822416
-1.2213564 -1.538754 -4.4895697
-1.1760089 -1.5327849 -4.4968143
-1.1517344 -1.5137255 -4.5159845
-1.3273407 -1.5790927 -4.4322824
-1.3047123 -1.5742193 -4.4428463
-1.2420599 -1.5697634 -4.4519215
-1.2067811 -1.5658576 -4.4618535
-1.1786402 -1.5407832 -4.489079
-1.2834203 -1.6175714 -4.4365168
-1.2295537 -1.6016381 -4.4361935
-1.2461523 -1.6470349 -4.4465599
-1.1914744 -1.632725 -4.4466686
-1.2673743 -1.6852884 -4.4222722
-1.2463744 -1.6805205 -4.4285927
-1.1887851 -1.6793586 -4.4331546
-1.1552403 -1.6700972 -4.4481411
-0.43764806 -1.2803873 -5.1166482
-0.4067626 -1.2752267 -5.1366487
-0.37638736 -1.2672348 -5.1575446
-0.33355784 -1.2508657 -5.1891518
-0.30213547 -1.2468678 -5.2095757
-0.25741029 -1.2455999 -5.2334976
-0.23249483 -1.2486874 -5.2484159
-0.18774009 -1.2545407 -5.2717957
-0.15390491 -1.2655886 -5.2866874
-0.12119722 -1.2704133 -5.3035431
-0.072960138 -1.2731619 -5.3302374
-0.62255263 -1.3151749 -4.9950447
-0.58916402 -1.3110111 -5.0115795
-0.55520976 -1.3056798 -5.0262642
-0.51394129 -1.2985766 -5.0527916
-0.46788132 -1.2891307 -5.0955181
-0.43795526 -1.2808014 -5.1160893
-0.40298796 -1.2788579 -5.1301112
-0.36580729 -1.2749624 -5.1392193
-0.02261591 -1.2792429 -5.3451576
0.010437012 -1.2942106 -5.3695412
0.04258728 -1.2959728 -5.3873625
0.07587719 -1.3040255 -5.4031982
0.11877489 -1.3131175 -5.4241438
0.14207602 -1.3180062 -5.4355421
-0.77305269 -1.361087 -4.8890862
-0.72803879 -1.3492562 -4.919064
-0.6774255 -1.3421421 -4.943954
-0.6455009 -1.3382368 -4.9621544
-0.60362077 -1.3409513 -4.9631238
-0.56841612 -1.3384908 -4.9756436
0.17450237 -1.3213148 -5.4528732
0.20854568 -1.3335067 -5.4674044
0.24140239 -1.33915 -5.4840021
0.28058839 -1.3484545 -5.5027156
0.30785298 -1.3545167 -5.5159092
-0.89353526 -1.3985943 -4.803762
-0.86262214 -1.3935568 -4.8237267
-0.82937336 -1.3861653 -4.8479204
-0.79951096 -1.3778311 -4.8614054
-0.75951958 -1.3777055 -4.8656464
-0.72235501 -1.3738184 -4.8747711
-1.0138197 -1.437163 -4.7181063
-0.98067975 -1.4210479 -4.7457132
-0.95280409 -1.4159887 -4.7594275
-0.90484703 -1.4089156 -4.7743578
-1.1658919 -1.4759622 -4.6140008
-1.1167209 -1.457345 -4.6513348
-1.0809834 -1.4521753 -4.6713653
-1.040395 -1.4464796 -4.6906281
-1.0022397 -1.4472666 -4.6980491
-0.96605086 -1.4440897 -4.7088633
-0.93157458 -1.4421632 -4.7226572
-1.3594108 -1.5225954 -4.4826736
-1.331295 -1.5149798 -4.4962382
-1.2855699 -1.4996748 -4.5272827
-1.260126 -1.4909618 -4.5567203
-1.2230417 -1.4886461 -4.5764332
-1.1950904 -1.4860255 -4.5910792
-1.1585834 -1.4843441 -4.6013422
-1.1033206 -1.4788677 -4.6158733
-1.4005196 -1.557773 -4.4464679
-1.3735762 -1.5491699 -4.4592152
-1.314744 -1.5488149 -4.4675708
-1.4277508 -1.5924666 -4.416739
-1.3985648 -1.5858978 -4.4290013
-1.3556418 -1.5829412 -4.4281521
-1.3716972 -1.6261967 -4.4320388
-1.3573697 -1.6233073 -4.4311447
-1.3170173 -1.6171036 -4.4347606
-1.3519797 -1.6627479 -4.4300599
-1.3002234 -1.6555704 -4.4424205
-1.2689874 -1.683524 -4.4250655
-0.61425614 -1.2918065 -5.0550404
-0.58285153 -1.2895007 -5.0741415
-0.53433609 -1.2693713 -5.1126156
-0.49780464 -1.2576966 -5.1345854
-0.45873809 -1.2550247 -5.1531773
-0.42753267 -1.2557859 -5.1726236
-0.39501476 -1.2548267 -5.1898084
-0.36063659 -1.2522447 -5.2037597
-0.31882763 -1.2537675 -5.2415929
-0.27083611 -1.2551526 -5.2687192
-0.23249316 -1.2559575 -5.282238
-0.20479798 -1.268252 -5.3013411
-0.17106485 -1.2787395 -5.3164091
-0.1387589 -1.2813574 -5.333961
-0.089860916 -1.2877375 -5.3595104
-0.74541032 -1.3281657 -4.9669781
-0.70189106 -1.3213656 -4.9863296
-0.67312455 -1.3071949 -5.0100002
-0.64622831 -1.2951481 -5.036922
-0.62089133 -1.2930299 -5.0492659
-0.58007705 -1.2919284 -5.0693359
-0.52825201 -1.2889563 -5.0898275
-0.47501242 -1.2849544 -5.1078696
-0.053370714 -1.2963924 -5.3769407
-0.0069971085 -1.3058554 -5.3997378
0.025645256 -1.3103225 -5.416707
0.058553934 -1.31628 -5.4332032
0.092705488 -1.3277036 -5.4460535
0.12533021 -1.3334343 -5.4645467
-0.92574012 -1.3669226 -4.8595424
-0.88501275 -1.3637458 -4.8694658
-0.85497308 -1.3588439 -4.8839731
-0.82163572 -1.3537239 -4.8997269
-0.78779912 -1.3489999 -4.9146276
-0.76502192 -1.3377843 -4.9486723
0.1576848 -1.3363471 -5.4820023
0.19263363 -1.3535156 -5.4949646
0.29914355 -1.3556588 -5.5309944
-1.0427718 -1.4068422 -4.7682524
-1.0064492 -1.3978834 -4.7848277
-0.97605228 -1.3939962 -4.799695
-0.92735195 -1.3882293 -4.8255863
-0.87012756 -1.3887186 -4.8367262
-1.1895628 -1.4533367 -4.6549997
-1.1431191 -1.4462165 -4.6848068
-1.0988661 -1.4345585 -4.7184076
-1.0713061 -1.428462 -4.7315407
-1.0255544 -1.4251295 -4.7384315
-1.4049261 -1.494132 -4.5135145
-1.3583722 -1.4876003 -4.5431371
-1.3119309 -1.4804833 -4.5729418
-1.2843441 -1.4712062 -4.5986676
-1.2463984 -1.467567 -4.6178751
-1.2183586 -1.4630263 -4.631381
-1.1803596 -1.4610877 -4.6390595
-1.1428739 -1.4569669 -4.6476283
-1.497393 -1.5384074 -4.4531736
-1.4649833 -1.5263026 -4.4681754
-1.432049 -1.5085225 -4.4880323
-1.392288 -1.5118456 -4.4916248
-1.3470778 -1.4941344 -4.5235748
-1.5162144 -1.5700852 -4.4187317
-1.4858736 -1.5586762 -4.4332213
-1.444167 -1.561941 -4.4344912
-1.5190706 -1.6092384 -4.4172249
-1.4851996 -1.6018496 -4.4133382
-1.4779669 -1.617426 -4.4195266
-1.441756 -1.6382475 -4.4325399
-1.4018302 -1.6325058 -4.4346571
-1.4386011 -1.6588368 -4.4248509
-1.3965802 -1.6677924 -4.4255638
-0.61420834 -1.2522371 -5.1284528
-0.56045306 -1.2576823 -5.1456013
-0.51368368 -1.252336 -5.1748505
-0.48211074 -1.250954 -5.1936598
-0.45011473 -1.251897 -5.2117372
-0.41794944 -1.2537405 -5.2295322
-0.38516748 -1.2590008 -5.2462482
-0.33669758 -1.2630171 -5.2725449
-0.75915241 -1.302578 -5.0120134
-0.72831357 -1.2971616 -5.032095
-0.69730783 -1.2926624 -5.0518866
-0.67274809 -1.2822461 -5.0828557
-0.63336515 -1.2741123 -5.0992899
-0.60188854 -1.2686973 -5.1071143
-0.56359327 -1.2639909 -5.1142931
-0.28853679 -1.2653313 -5.2993774
-0.25593543 -1.2720218 -5.318325
-0.22175026 -1.2825434 -5.3307033
-0.18898559 -1.2877092 -5.3474488
-0.15628719 -1.2924832 -5.3643208
-0.12319112 -1.2994685 -5.3804927
-0.94960916 -1.3451896 -4.9008846
-0.91213477 -1.3432429 -4.9094849
-0.88052511 -1.34033 -4.9258771
-0.84694695 -1.3365526 -4.9435668
-0.81903088 -1.3235835 -4.9687223
-0.77971041 -1.3062855 -4.9974327
-0.71940362 -1.3006808 -5.0166621
-0.089575291 -1.3052238 -5.3941994
-0.057156563 -1.3125486 -5.4131207
-0.024068356 -1.319492 -5.429306
0.0087809563 -1.3250977 -5.4459167
0.052804232 -1.3381939 -5.4658289
0.075726509 -1.3432105 -5.4769545
-1.0346091 -1.3825994 -4.8276095
-0.99955106 -1.3755109 -4.843009
-0.95868695 -1.3629754 -4.8676114
0.10926199 -1.3525832 -5.4923778
-1.1672461 -1.4154848 -4.7388468
-1.1261951 -1.4070923 -4.7537594
-1.0868809 -1.4009937 -4.7711439
-1.0606818 -1.3945448 -4.7992735
-1.3409801 -1.4575605 -4.6232557
-1.3085788 -1.4523389 -4.6406436
-1.2753961 -1.4474618 -4.6566648
-1.2417389 -1.4443476 -4.6740513
-1.2098048 -1.4402349 -4.6900597
-1.1640462 -1.4350535 -4.7088022
-1.5252017 -1.4907703 -4.5013399
-1.4922489 -1.4851673 -4.5177717
-1.4600358 -1.4817834 -4.5354724
-1.4282901 -1.4817185 -4.5539827
-1.382138 -1.4769633 -4.5774827
-1.3258414 -1.474317 -4.5970354
-1.5837839 -1.5422006 -4.4406905
-1.5455722 -1.5198916 -4.4612799
-1.5096923 -1.5082517 -4.4744768
-1.5914503 -1.5807348 -4.4100451
-1.5630256 -1.6140823 -4.4198494
-1.5559762 -1.6168002 -4.4199071
-1.5219665 -1.6521105 -4.4258375
-1.4851106 -1.6467924 -4.4319
-0.76751196 -1.2574834 -5.0999885
-0.7246964 -1.2637079 -5.0993252
-0.69599116 -1.2484173 -5.1144171
-0.65897989 -1.2465885 -5.1325045
-0.62992013 -1.2457659 -5.1556664
-0.57993495 -1.2473078 -5.1793451
-0.53179705 -1.2471089 -5.2062235
-0.5002079 -1.247566 -5.2250051
-0.46965861 -1.2493453 -5.2462902
-0.43648815 -1.2593329 -5.2616425
-0.40315759 -1.2676071 -5.2774081
-0.35431933 -1.2736467 -5.3030667
-0.90337563 -1.3170934 -4.9678092
-0.88092542 -1.2983087 -5.0024195
-0.84801984 -1.2930608 -5.0189328
-0.79956615 -1.2891285 -5.045259
-0.75164974 -1.2879812 -5.0725141
-0.72248447 -1.2834206 -5.0841985
-0.30552578 -1.2794383 -5.3288035
-0.27895403 -1.2860925 -5.3413477
-0.23900223 -1.2952064 -5.3605843
-0.2062695 -1.3001961 -5.3773856
-0.1732564 -1.3066993 -5.3937125
-0.14062357 -1.3111391 -5.410687
-1.1304488 -1.3609906 -4.8466058
-1.0946794 -1.3581227 -4.8581591
-1.0543282 -1.3540938 -4.8658209
-1.0228584 -1.3486686 -4.8807654
-0.97999644 -1.3383582 -4.9167695
-0.93665159 -1.3252187 -4.9519491
-0.90456724 -1.3183267 -4.9657397
-0.86461139 -1.3137103 -4.9741626
-0.11049724 -1.3197472 -5.4244628
-0.074058533 -1.3271347 -5.4423957
-0.041375637 -1.3318503 -5.4592834
-0.0076260567 -1.3424015 -5.4743347
0.025168896 -1.3535625 -5.487133
-1.2524755 -1.3962576 -4.7639675
-1.1909344 -1.3930476 -4.7798762
-1.1422989 -1.3882833 -4.8006687
-1.1127954 -1.3840557 -4.8160291
-1.080395 -1.3788023 -4.8334179
-1.3401901 -1.4297144 -4.6953955
-1.3004322 -1.4304533 -4.7000284
-1.263268 -1.4239089 -4.7166924
-1.2330639 -1.4156897 -4.7303457
-1.2059122 -1.4035261 -4.756814
-1.5506853 -1.4712932 -4.5454788
-1.51781 -1.4660705 -4.5620446
-1.4845412 -1.463253 -4.5779171
-1.4429282 -1.4596193 -4.5994315
-1.402231 -1.4530486 -4.6191025
-1.3576145 -1.4443579 -4.6520681
-1.3263565 -1.4412166 -4.6714354
-1.617794 -1.4972689 -4.4847412
-1.5700359 -1.4851435 -4.5054994
-1.6542804 -1.5454407 -4.4469442
-1.624756 -1.5225084 -4.4532738
-1.6502011 -1.5867195 -4.4207816
-1.6385877 -1.622559 -4.4233007
-1.6079236 -1.6275816 -4.4241195
-1.584396 -1.6611466 -4.4201159
-0.8246901 -1.2368312 -5.1255283
-0.78340971 -1.2423131 -5.1275239
-0.75234747 -1.240712 -5.1472182
-0.72128868 -1.2412807 -5.1669307
-0.68102074 -1.247286 -5.17068
-0.89625072 -1.2888145 -5.0289636
-0.87493634 -1.2778673 -5.0655537
-0.81991005 -1.2653992 -5.086288
-0.64849126 -1.2511617 -5.1878328
-0.60017765 -1.254302 -5.214407
-0.55197108 -1.2568533 -5.2411661
-0.5199573 -1.2578942 -5.259212
-0.48793554 -1.2635894 -5.2830315
-0.45375156 -1.271915 -5.2915435
-0.42054069 -1.2795308 -5.3075166
-0.37158179 -1.2862335 -5.3329659
-1.0686719 -1.3073101 -4.9601169
-1.0079137 -1.3103659 -4.9651237
-0.95887363 -1.2964785 -4.9894233
-0.92599773 -1.295215 -5.0069919
-0.3241725 -1.2991065 -5.3654532
-0.28920817 -1.3016424 -5.3740487
-0.25638485 -1.3071325 -5.3906918
-0.22351623 -1.3128688 -5.4072576
-0.19036818 -1.3201141 -5.4233508
-0.15798688 -1.3231719 -5.4407611
-1.2795534 -1.3768605 -4.8108683
-1.2240679 -1.3712219 -4.8250141
-1.1747189 -1.3593148 -4.8479824
-1.1468337 -1.3464092 -4.8749852
-1.114383 -1.3420274 -4.8922873
-1.0813401 -1.3373452 -4.9085503
-1.0460142 -1.3313644 -4.9248819
-1.0144111 -1.3300865 -4.9396296
-0.14203954 -1.3354182 -5.4541287
-0.090566397 -1.3438672 -5.4709883
-0.056100607 -1.358381 -5.4847875
-1.3977571 -1.4093409 -4.7215967
-1.3600985 -1.4050978 -4.7298779
-1.316547 -1.4017832 -4.739953
-1.2892367 -1.3987007 -4.7541451
-1.2592759 -1.3926132 -4.7757463
-1.2139635 -1.3792773 -4.8075128
-1.5831019 -1.4443638 -4.6016259
-1.5407375 -1.4459707 -4.6017561
-1.5077379 -1.4404249 -4.6180949
-1.4647553 -1.4363506 -4.6403861
-1.426106 -1.4329684 -4.6604552
-1.378181 -1.4310974 -4.6876898
-1.350309 -1.4170415 -4.7129221
-1.6299948 -1.4759777 -4.5358434
-1.5947552 -1.4695367 -4.5500498
-1.5654455 -1.4590836 -4.571044
-1.679863 -1.5114621 -4.4882226
-1.6538304 -1.4980637 -4.5036325
-1.7040931 -1.560331 -4.4531345
-1.6994146 -1.5969748 -4.4362397
-1.6967592 -1.6459121 -4.430984
-1.6871285 -1.6648694 -4.4143033
-1.033444 -1.2744992 -5.0460906
-1.0024692 -1.2698007 -5.0659485
-0.97181988 -1.2633433 -5.0863581
-0.94595432 -1.2508239 -5.1033621
-0.89290762 -1.2440844 -5.1161618
-0.85564482 -1.2408621 -5.1350389
-0.80692375 -1.2412808 -5.1682515
-0.77497697 -1.2419527 -5.1864138
-0.74303007 -1.2425951 -5.2045879
-0.70795476 -1.2449051 -5.2191777
-0.67648208 -1.2585266 -5.2363143
-0.64317358 -1.26665 -5.2521305
-1.1855655 -1.3130277 -4.942071
-1.1562381 -1.2992764 -4.9647818
-1.1253074 -1.2876428 -4.9879284
-1.0938168 -1.2846048 -5.0036688
-1.0399185 -1.2868648 -5.0132084
-0.98497331 -1.2827946 -5.0356445
-0.95265675 -1.2814467 -5.0531664
-0.92035222 -1.2799873 -5.0707088
-0.89172137 -1.2707326 -5.0843344
