# .PCD v0.7 - Point Cloud Data file format
VERSION 0.7
FIELDS x y z
SIZE 4 4 4
TYPE F F F
COUNT 1 1 1
WIDTH 1464
HEIGHT 1
VIEWPOINT 0 0 0 1 0 0 0
POINTS 1464
DATA ascii
-1.4106058 -2.2253485 -5.6391664
-1.360258 -2.2198706 -5.6798553
-1.2961869 -2.2159595 -5.7041793
-1.2613266 -2.2143393 -5.7297668
-1.1355064 -2.2200756 -5.8483133
-1.1228878 -2.2326436 -5.8873186
-1.5966014 -2.2647529 -5.4549494
-1.5489705 -2.255326 -5.4684367
-1.5129008 -2.2526195 -5.4925828
-1.1155896 -2.2520051 -5.8245778
-1.1018872 -2.2682662 -5.8728418
-1.7777692 -2.3526654 -5.2712421
-1.7345855 -2.3435636 -5.2868986
-1.7011526 -2.343225 -5.3141861
-1.6459336 -2.3417959 -5.3596649
-1.6168804 -2.3151858 -5.4151278
-1.5844699 -2.2973733 -5.421072
-1.0788939 -2.321002 -5.8493652
-1.7572857 -2.384089 -5.2468309
-1.7262696 -2.369698 -5.2673268
-1.6888764 -2.3604414 -5.2995563
-1.6533269 -2.3606365 -5.3243108
-1.0485387 -2.3769426 -5.8253822
-1.8059915 -2.4294889 -5.1706243
-1.755927 -2.4151292 -5.2111921
-1.6960416 -2.408587 -5.2409635
-1.6570256 -2.4032335 -5.2615981
-1.0280364 -2.4130938 -5.811676
-1.0187695 -2.4237051 -5.8434443
-1.8993518 -2.4701202 -5.0581403
-1.8549124 -2.4551892 -5.0991869
-1.8231505 -2.4479802 -5.1239524
-1.7804824 -2.4451911 -5.1402235
-1.7434763 -2.4416382 -5.1632414
-1.0176337 -2.4428205 -5.7749696
-2.171468 -2.530056 -4.7811832
-2.1346111 -2.5138924 -4.8238859
-2.1008291 -2.5114632 -4.8507471
-2.0519533 -2.5166433 -4.8931913
-2.0029807 -2.5175297 -4.9355087
-1.9682087 -2.5104256 -4.9612012
-1.9320081 -2.5005195 -4.9915633
-1.9025239 -2.4858828 -5.0171738
-2.2548921 -2.5754528 -4.6987271
-2.2085066 -2.5679493 -4.7206831
-2.161521 -2.5535994 -4.744081
-2.2303886 -2.6150002 -4.6695247
-2.2017145 -2.5993118 -4.6971612
-2.1538856 -2.5939274 -4.7126045
-2.3095922 -2.6500113 -4.5961089
-2.2496011 -2.64186 -4.6266184
-2.2118268 -2.6364157 -4.6474042
-2.1724582 -2.6307456 -4.6676178
-2.2914 -2.6834931 -4.5744286
-2.2320561 -2.6984627 -4.5945649
-2.1837513 -2.6979635 -4.613945
-2.1492944 -2.7353413 -4.6400127
-1.3781142 -2.1589375 -5.801816
-1.3421173 -2.1426759 -5.831254
-1.2923152 -2.1358898 -5.867384
-1.2460086 -2.1399903 -5.9119143
-1.2148247 -2.1535249 -5.9428415
-1.1673341 -2.1722798 -5.9533758
-1.5787841 -2.2269926 -5.6046596
-1.525905 -2.2240307 -5.6423335
-1.4780303 -2.2160065 -5.66185
-1.4592468 -2.20456 -5.697134
-1.413234 -2.1919041 -5.7362776
-1.3713012 -2.1755526 -5.7750921
-1.3205802 -2.1679146 -5.8003821
-1.1491022 -2.1877446 -5.9515586
-1.1363089 -2.2054369 -5.9835224
-1.7771409 -2.2620156 -5.4047461
-1.7299778 -2.2641826 -5.4492202
-1.6830015 -2.2665222 -5.493928
-1.633357 -2.2524629 -5.5025907
-1.6069129 -2.2346869 -5.5374894
-1.5590237 -2.2301273 -5.5811105
-1.5111722 -2.2254655 -5.6247754
-1.117192 -2.2518353 -5.9354906
-1.1132693 -2.259479 -5.9560652
-1.8370749 -2.3062904 -5.3419204
-1.7861519 -2.3059528 -5.3483529
-1.7518373 -2.2918322 -5.3745899
-1.7014425 -2.2987494 -5.4152131
-1.6529559 -2.2890878 -5.4577427
-1.102282 -2.2891994 -5.9198413
-1.0986156 -2.2961359 -5.9386015
-1.9406803 -2.3802385 -5.196888
-1.8978561 -2.3714647 -5.2129831
-1.8626211 -2.35625 -5.2373509
-1.8198882 -2.3403671 -5.2811584
-1.7792091 -2.3239601 -5.31778
-1.7287765 -2.3182147 -5.3471074
-1.6831934 -2.3218009 -5.3934646
-1.0687172 -2.353514 -5.9131861
-1.9207301 -2.4121413 -5.1731119
-1.869733 -2.4032238 -5.1957407
-1.8381082 -2.3973069 -5.208899
-1.7995769 -2.3923841 -5.2300997
-1.0496955 -2.4049363 -5.8788223
-2.1758907 -2.4536457 -4.9402022
-2.1259751 -2.4533455 -4.9814072
-2.0107994 -2.4538002 -5.0790792
-1.9428115 -2.4454868 -5.1099334
-1.8986984 -2.4362633 -5.1390233
-1.8623 -2.4228349 -5.1706095
-2.2271984 -2.4901004 -4.8447294
-2.176723 -2.4768195 -4.8774796
-2.144686 -2.47153 -4.9030142
-2.0954161 -2.4759648 -4.9454775
-2.046556 -2.4837849 -4.9874396
-2.0133376 -2.4802818 -5.0149837
-1.9832047 -2.4748752 -5.0397015
-1.9462003 -2.4662406 -5.0692253
-2.3803077 -2.5640626 -4.6803842
-2.3158536 -2.5508187 -4.70438
-2.2923231 -2.5393138 -4.7433357
-2.2574215 -2.534749 -4.7688732
-2.218189 -2.514559 -4.8120956
-2.3498244 -2.598309 -4.6552444
-2.3110089 -2.5853462 -4.6740084
-2.4380596 -2.6413612 -4.5814033
-2.3871288 -2.6412423 -4.5878267
-2.3406794 -2.6281037 -4.6257911
-2.278121 -2.6164532 -4.6592898
-2.4530218 -2.6749318 -4.5321031
-2.4013753 -2.6644936 -4.5518389
-2.3686328 -2.6585104 -4.5657845
-2.4012167 -2.7079134 -4.5374956
-2.3614039 -2.7002447 -4.5496316
-2.2979584 -2.7371116 -4.586112
-1.5290338 -2.1519012 -5.79531
-1.4749548 -2.1392972 -5.8232584
-1.4360774 -2.1396215 -5.8708944
-1.401691 -2.1448793 -5.9055414
-1.3527501 -2.1569746 -5.9394073
-1.299186 -2.1677139 -5.9762588
-1.2657998 -2.1686194 -6.0035911
-1.6315192 -2.2073734 -5.6675072
-1.5885794 -2.1836908 -5.7221045
-1.5581079 -2.1779699 -5.7478313
-1.5039161 -2.1808505 -5.7503691
-1.4543962 -2.1640496 -5.7845931
-1.4055145 -2.1511731 -5.8344707
-1.3725741 -2.1508605 -5.8623462
-1.3226137 -2.1518908 -5.9034925
-1.2723858 -2.1536412 -5.9443197
-1.2387698 -2.1551654 -5.9713778
-1.2109153 -2.1650379 -6.00422
-1.1776562 -2.1888397 -6.0476494
-1.9113473 -2.2573891 -5.3942685
-1.8599803 -2.2536941 -5.4363379
-1.8252196 -2.2463427 -5.4620438
-1.7763655 -2.2376654 -5.5045028
-1.7283814 -2.2425196 -5.5480089
-1.6934782 -2.238122 -5.573534
-1.6515579 -2.2290444 -5.5937524
-1.607632 -2.2183161 -5.6390395
-1.5547978 -2.2098866 -5.6767664
-1.5174958 -2.2007411 -5.7053542
-1.1342919 -2.2242374 -6.0277243
-1.1303222 -2.2389312 -6.0642781
-1.9744815 -2.3074508 -5.3043022
-1.949644 -2.2923591 -5.3343415
-1.8698123 -2.2839437 -5.3585577
-1.8248714 -2.2724462 -5.3900409
-1.7959952 -2.2567921 -5.4272156
-1.7470529 -2.2550862 -5.4695692
-1.6952932 -2.2609563 -5.5085764
-1.6669804 -2.2481894 -5.5419555
-1.1134071 -2.2806778 -6.0038795
-1.1044438 -2.2949834 -6.0437469
-2.0314326 -2.3344088 -5.2379217
-2.0074549 -2.3255382 -5.2582326
-1.9561659 -2.3241951 -5.2824745
-1.9011179 -2.3165126 -5.3001175
-1.8753203 -2.3060708 -5.3203669
-1.0956628 -2.3165319 -5.987195
-1.0736921 -2.3398533 -6.0357332
-2.1803236 -2.4085088 -5.0573635
-2.0712309 -2.4062505 -5.1480899
-2.0276136 -2.3738635 -5.1867728
-1.9600719 -2.3604639 -5.2127781
-1.9267329 -2.3424168 -5.2473974
-1.0701659 -2.3596098 -5.9659543
-2.2850389 -2.4503157 -4.936039
-2.2590482 -2.4410455 -4.9618673
-2.2202945 -2.4279788 -4.9931202
-2.1711936 -2.4237485 -5.0241098
-2.1213293 -2.4224775 -5.0765514
-2.0889626 -2.4266434 -5.1051102
-2.0430515 -2.4329476 -5.1175156
-1.9835813 -2.4191949 -5.1472507
-2.3977389 -2.5028956 -4.8018446
-2.3748782 -2.4796758 -4.8362141
-2.3376 -2.4710412 -4.8644261
-2.2762995 -2.4685831 -4.8853445
-2.2179127 -2.4593747 -4.919641
-2.188545 -2.4459243 -4.9552832
-2.1400785 -2.4429212 -4.9982147
-2.0841222 -2.4569409 -5.0322094
-2.0509248 -2.4578805 -5.0597782
-2.0234277 -2.4455309 -5.0941291
-2.5147741 -2.5437772 -4.6728282
-2.4865527 -2.5307658 -4.706316
-2.4350648 -2.5225427 -4.7568297
-2.402215 -2.5163124 -4.7793355
-2.3352313 -2.5092585 -4.7944717
-2.3018341 -2.4974089 -4.821249
-2.5393183 -2.5718179 -4.6280003
-2.4913273 -2.5646522 -4.6448851
-2.4442616 -2.5669663 -4.6573048
-2.4041128 -2.5485692 -4.7087545
-2.3543651 -2.5345612 -4.7489738
-2.5690527 -2.6365926 -4.5573301
-2.5352297 -2.6220946 -4.5853276
-2.4645684 -2.6153498 -4.6129951
-2.4289305 -2.608402 -4.6271911
-2.6216483 -2.668644 -4.4890409
-2.6003118 -2.6615448 -4.5062633
-2.5564055 -2.6585922 -4.5210586
-2.4862511 -2.6494989 -4.5570459
-2.4514098 -2.6282291 -4.5973139
-2.6067998 -2.7060106 -4.4733381
-2.5825448 -2.70614 -4.4850898
-2.5283799 -2.7017891 -4.5063701
-2.4965434 -2.6827643 -4.5168495
-2.5207961 -2.7433772 -4.5173416
-2.4697607 -2.736053 -4.5294142
-2.4121463 -2.7340288 -4.5505209
-2.3461804 -2.759171 -4.5869241
-2.3319461 -2.7720211 -4.5891833
-1.6484922 -2.1348553 -5.7884274
-1.6027495 -2.1330836 -5.8152804
-1.5755723 -2.1293111 -5.8375983
-1.8410003 -2.1709957 -5.5927181
-1.79404 -2.1691971 -5.6262579
-1.7607852 -2.1807182 -5.6537476
-1.7192159 -2.1909564 -5.6713271
-1.6787306 -2.1733394 -5.7237716
-1.6379795 -2.1580496 -5.7582493
-1.582129 -2.1547523 -5.7764587
-1.543331 -2.14959 -5.7973418
-1.5200411 -2.1487331 -5.8702774
-1.4677558 -2.1560349 -5.9086475
-1.4338214 -2.158401 -5.935338
-1.3749888 -2.1564679 -5.9659104
-1.3286884 -2.1653934 -6.0158591
-1.2937455 -2.1796055 -6.0368953
-1.2587729 -2.1847708 -6.0623484
-1.2238498 -2.1898153 -6.0878496
-1.8996515 -2.2391298 -5.4836164
-1.8711922 -2.2141008 -5.5323706
-1.8313508 -2.196609 -5.5588446
-1.7697411 -2.1949587 -5.5972996
-1.7413353 -2.1991305 -5.630568
-1.7090189 -2.1997895 -5.6591749
-1.6518186 -2.1929464 -5.691699
-1.1835201 -2.1958525 -6.1069059
-1.1556687 -2.2223485 -6.1205406
-2.0514894 -2.2762702 -5.324481
-2.014426 -2.2682183 -5.3519063
-1.9808016 -2.2664361 -5.3789549
-1.941612 -2.2492983 -5.4441252
-1.9013871 -2.2414546 -5.4793038
-1.8615634 -2.2381978 -5.5053568
-1.7985139 -2.2260957 -5.5308981
-1.7480967 -2.2253447 -5.5715046
-1.7146522 -2.2249908 -5.5987682
-1.678823 -2.2224946 -5.6231885
-1.1285217 -2.2598176 -6.1130133
-2.0695386 -2.3159444 -5.2825785
-2.0198169 -2.3018572 -5.2911992
-1.9836376 -2.2990515 -5.3152142
-1.1105049 -2.3164864 -6.0875106
-2.2283049 -2.3675017 -5.1145458
-2.1875391 -2.3566093 -5.1554575
-2.1544046 -2.3591027 -5.1831007
-2.1165204 -2.3574901 -5.2152681
-2.0875926 -2.3482654 -5.23773
-1.0816097 -2.3402376 -6.0525866
-2.3376126 -2.4275744 -4.9757099
-2.2901134 -2.4139171 -5.0092068
-2.2614198 -2.3992941 -5.0500937
-2.2166176 -2.3852949 -5.0894308
-2.149817 -2.3947346 -5.1105013
-2.1187472 -2.3965185 -5.1406059
-2.0951886 -2.3801329 -5.1796503
-2.444273 -2.473012 -4.8573022
-2.4145923 -2.4624393 -4.8801451
-2.3757834 -2.4530053 -4.9099317
-2.3254242 -2.44713 -4.9394131
-2.5544114 -2.5232592 -4.7200661
-2.5280538 -2.5037463 -4.7572374
-2.4776797 -2.4923317 -4.7964282
-2.4136257 -2.4890542 -4.8207779
-2.6394498 -2.5613177 -4.6200266
-2.5942893 -2.5438299 -4.6737871
-2.5396316 -2.5333056 -4.7024527
-2.4965134 -2.5242629 -4.7181864
-2.4606385 -2.5217261 -4.7425528
-2.6985538 -2.6023436 -4.5562234
-2.6634746 -2.5919824 -4.574481
-2.615962 -2.5875313 -4.5920353
-2.5761118 -2.5814288 -4.6116753
-2.7162142 -2.6525435 -4.4890962
-2.6724837 -2.6380925 -4.5251541
-2.6258488 -2.641458 -4.5366969
-2.5856984 -2.6350808 -4.5559683
-2.748647 -2.693342 -4.4383197
-2.7122016 -2.6851461 -4.4550152
-2.6363003 -2.6709819 -4.4820323
-2.6780086 -2.7273705 -4.4568315
-2.6311839 -2.7262928 -4.475935
-2.601078 -2.7537718 -4.5071764
-2.5791159 -2.7649493 -4.5171809
-2.5512826 -2.7536349 -4.5149536
-1.760777 -2.1265054 -5.7879901
-1.9426227 -2.161541 -5.6019592
-1.8806129 -2.1587381 -5.6399264
-1.8326516 -2.1540852 -5.6722736
-1.8002769 -2.1593642 -5.7008119
-1.7631149 -2.1530418 -5.72967
-1.7142123 -2.1448336 -5.766057
-1.6697387 -2.1433783 -5.8137474
-1.6366508 -2.1434803 -5.841435
-1.6034037 -2.1440096 -5.8689337
-1.5469879 -2.1438074 -5.9023914
-1.5096872 -2.1571856 -5.9453077
-2.0110531 -2.1986015 -5.5156932
-1.9541979 -2.1846631 -5.5393581
-1.9156477 -2.1770802 -5.5698118
-1.8921794 -2.1674392 -5.608964
-1.7372897 -2.1753635 -5.6928668
-1.4606309 -2.1724644 -5.967288
-1.4102635 -2.1745915 -6.0079494
-1.3607359 -2.1744545 -6.0496111
-1.3194964 -2.1820133 -6.0675845
-1.29041 -2.1890929 -6.0982771
-1.2340667 -2.2040606 -6.1335855
-2.0590918 -2.2520518 -5.4051366
-2.0384445 -2.2435422 -5.4476509
-1.9831405 -2.2312179 -5.4901614
-1.9254916 -2.2161002 -5.5144114
-1.1749048 -2.2248662 -6.1660933
-2.2823992 -2.3097553 -5.201386
-2.2436345 -2.3046231 -5.2223091
-2.2224939 -2.2904162 -5.2642465
-2.1808934 -2.307646 -5.2817898
-2.1193867 -2.2999828 -5.3205051
-2.0863404 -2.2647598 -5.374259
-2.0474246 -2.2566991 -5.3912325
-2.0137596 -2.2561469 -5.4182329
-1.9772249 -2.2530174 -5.4418125
-1.1214633 -2.2820807 -6.1627083
-2.3382149 -2.3503401 -5.1336532
-2.2762191 -2.3360705 -5.1579351
-2.2256677 -2.3209963 -5.2008972
-2.1933541 -2.3235383 -5.2295189
-2.1597528 -2.3295226 -5.2565956
-2.1261163 -2.3250558 -5.2836409
-2.3786881 -2.3913569 -5.0476456
-2.3443303 -2.3813009 -5.0738201
-2.3111916 -2.3752825 -5.1005573
-2.264591 -2.3637207 -5.1130433
-2.5372291 -2.4558992 -4.8673959
-2.4868364 -2.4477544 -4.8964257
-2.455224 -2.4320748 -4.9374733
-2.4206667 -2.4275496 -4.9634213
-2.3845146 -2.412034 -5.0068235
-2.3157406 -2.4001071 -5.0397477
-2.6402862 -2.4943795 -4.7552757
-2.5944014 -2.4901099 -4.778615
-2.5661888 -2.4842331 -4.8012228
-2.5158033 -2.4697104 -4.8418622
-2.7197871 -2.5403426 -4.6486487
-2.6782043 -2.5305338 -4.681663
-2.6346612 -2.5158637 -4.7150116
-2.5711823 -2.5118227 -4.7400532
-2.8447685 -2.5698776 -4.5291018
-2.7831154 -2.5612459 -4.5646787
-2.7360611 -2.5549297 -4.6009226
-2.6956482 -2.5546865 -4.6198812
-2.6559694 -2.5487328 -4.6397142
-2.8519635 -2.6462936 -4.4705448
-2.8121343 -2.6276169 -4.4992867
-2.7695279 -2.6091838 -4.5294204
-2.9070888 -2.6862516 -4.401988
-2.8665068 -2.6794915 -4.4207563
-2.8316119 -2.6707754 -4.4385505
-2.7942309 -2.6535976 -4.4688735
-2.8528852 -2.7170787 -4.4045229
-2.8169024 -2.711869 -4.4172206
-2.7721677 -2.7353029 -4.4425797
-2.765316 -2.7552409 -4.4516382
-2.7148654 -2.757427 -4.4637833
-1.9884124 -2.152842 -5.6565294
-1.933686 -2.1482153 -5.6919899
-1.8752732 -2.1402831 -5.7230682
-1.8375282 -2.135319 -5.7436895
-1.8005378 -2.1310606 -5.7682428
-1.7476462 -2.1316135 -5.8170886
-1.7180893 -2.1387644 -5.8515277
-1.688097 -2.1502867 -5.9027462
-2.0944915 -2.1791959 -5.5144453
-2.0365362 -2.1749287 -5.5480018
-1.9861519 -2.1653402 -5.5867038
-1.9606776 -2.1582096 -5.623476
-1.9129515 -2.1532257 -5.6672797
-1.8673997 -2.1423686 -5.713685
-1.7004584 -2.1468899 -5.850358
-1.66453 -2.1546447 -5.8746605
-1.6302277 -2.1580181 -5.9009013
-1.5801235 -2.1594276 -5.9418812
-1.5290477 -2.1634707 -5.9816923
-1.4905627 -2.1712883 -6.0059686
-1.4652951 -2.1880412 -6.0399675
-2.117878 -2.2203341 -5.4751954
-2.0757978 -2.2069116 -5.4882679
-1.4202437 -2.1894517 -6.0534091
-1.3871932 -2.1894517 -6.0811415
-1.3538043 -2.1903636 -6.1084709
-1.3189213 -2.1952868 -6.1340303
-1.2671945 -2.2105856 -6.1620965
-2.326827 -2.2714763 -5.254333
-2.2929566 -2.2656295 -5.2810888
-2.2594345 -2.262902 -5.3082705
-2.226469 -2.2666645 -5.3361044
-2.1779218 -2.2705567 -5.3789406
-2.1287918 -2.2577648 -5.4210706
-2.0958676 -2.242877 -5.4428549
-1.2021565 -2.2427332 -6.1962485
-2.4445996 -2.3366957 -5.1261964
-2.4049788 -2.3307939 -5.1460981
-2.3688242 -2.3156354 -5.1797085
-2.3282189 -2.2951574 -5.2095981
-2.2696874 -2.2782049 -5.2533579
-2.2051921 -2.2796521 -5.3107471
-2.1574655 -2.2813182 -5.3545618
-2.5325086 -2.376415 -5.0295777
-2.4932671 -2.3708594 -5.0499434
-2.4255061 -2.3604498 -5.0846448
-2.3813863 -2.3499193 -5.1179814
-2.3589535 -2.3319116 -5.1583681
-2.5842719 -2.4133556 -4.9570255
-2.534852 -2.4137537 -4.96525
-2.500931 -2.4056082 -4.9919448
-2.4654884 -2.3978434 -5.0200534
-2.4344063 -2.3860202 -5.046916
-2.7892723 -2.4893138 -4.7314577
-2.7542665 -2.4875576 -4.7568598
-2.697135 -2.4807758 -4.789465
-2.6466212 -2.4650109 -4.8267531
-2.6122184 -2.4564631 -4.8560786
-2.5685883 -2.4347992 -4.9050941
-2.5113006 -2.4273198 -4.9371819
-2.8551409 -2.5240793 -4.6421442
-2.7967405 -2.5161581 -4.6732378
-2.7485003 -2.5116124 -4.6980085
-2.7227569 -2.5077374 -4.7193079
-2.681531 -2.4941564 -4.7596822
-2.990391 -2.5617862 -4.5012636
-2.9491735 -2.5544553 -4.5192747
-2.9066987 -2.5547705 -4.5357757
-2.8759601 -2.5459182 -4.5625973
-2.8239572 -2.5401282 -4.6049809
-2.7749066 -2.5341072 -4.6472168
-2.9706497 -2.5938764 -4.4777369
-2.9252868 -2.5842814 -4.4941072
-2.8857279 -2.5769763 -4.5107837
-3.0135264 -2.6726594 -4.3945913
-2.9483345 -2.6553507 -4.4343629
-2.9091399 -2.6373413 -4.4642444
-2.8722789 -2.6147187 -4.4947557
-3.036164 -2.7131257 -4.3544445
-2.9926627 -2.7037406 -4.3697267
-2.9513826 -2.6957867 -4.3866553
-2.9165206 -2.7364595 -4.3921466
-2.8652234 -2.7489748 -4.4192266
-2.816298 -2.7654395 -4.4478703
-1.9668896 -2.1359463 -5.7651205
-1.9339831 -2.1355443 -5.7930355
-2.1818256 -2.179569 -5.5528603
-2.1450279 -2.1651266 -5.5746727
-2.0947423 -2.1573744 -5.6154304
-2.0342224 -2.1549811 -5.6459451
-2.0247786 -2.1420279 -5.6937404
-1.9679055 -2.1362386 -5.7260594
-1.9097385 -2.130404 -5.764142
-1.8858119 -2.1369371 -5.8027487
-1.851189 -2.1423225 -5.833724
-1.7962087 -2.151922 -5.8637767
-1.7448922 -2.1565981 -5.9033122
-1.6987846 -2.1581912 -5.9299598
-1.6727811 -2.1635203 -5.9516144
-1.6339116 -2.1767986 -6.0105877
-2.2042913 -2.2124729 -5.5041852
-2.1450677 -2.193321 -5.5059304
-2.1200385 -2.1713445 -5.5448914
-2.073143 -2.1641159 -5.5896888
-1.607453 -2.1720748 -5.9744511
-1.5699198 -2.1827765 -6.0304012
-1.5358849 -2.1854134 -6.0569725
-1.4751933 -2.197592 -6.0922413
-1.4375939 -2.2147064 -6.1282115
-1.3793194 -2.2078991 -6.1388788
-2.4437246 -2.2760787 -5.2593942
-2.3993759 -2.2619786 -5.3072338
-2.3539398 -2.256237 -5.353766
-2.3093491 -2.2558634 -5.3677564
-2.280714 -2.2534628 -5.3963575
-2.2268806 -2.2459638 -5.4439988
-2.1608315 -2.2363489 -5.4660316
-1.4021854 -2.2325864 -6.1661291
-1.3447845 -2.2118847 -6.1648531
-1.3101032 -2.2162786 -6.1906424
-2.5595236 -2.3202918 -5.1289048
-2.5154138 -2.2913208 -5.1843896
-2.4695721 -2.2827926 -5.2230773
-2.4160929 -2.2867725 -5.2264643
-2.3728902 -2.2679045 -5.2604761
-2.3192358 -2.2580361 -5.312407
-2.2195196 -2.2595284 -5.3949542
-2.6535101 -2.3650677 -5.017746
-2.6089091 -2.3536251 -5.0535078
-2.5792704 -2.3356447 -5.0919104
-2.522537 -2.3390372 -5.1036406
-2.4842162 -2.3287945 -5.1331301
-2.4319243 -2.3080101 -5.1814108
-2.7540398 -2.4195974 -4.890842
-2.7236509 -2.4124103 -4.9217577
-2.6978703 -2.4000835 -4.950727
-2.6451142 -2.3866968 -4.9847798
-2.5676913 -2.3838131 -5.011157
-2.5428545 -2.367979 -5.0419073
-2.5143375 -2.3557475 -5.0750542
-2.8390265 -2.4577794 -4.7907524
-2.8079484 -2.4434171 -4.8304968
-2.7644708 -2.4337525 -4.8585262
-2.6910641 -2.4356179 -4.8829222
-2.6487513 -2.4248881 -4.9166212
-2.6139772 -2.4111278 -4.9476724
-2.983026 -2.5149751 -4.6268425
-2.9486113 -2.506603 -4.6528568
-2.8978052 -2.496448 -4.6929893
-2.848278 -2.4841595 -4.7380829
-2.8103323 -2.4778466 -4.756556
-2.7754467 -2.4727483 -4.7821016
-2.7241955 -2.4572034 -4.8233795
-3.0987608 -2.5535712 -4.5016346
-3.050679 -2.5446808 -4.5395522
-2.9998839 -2.5310731 -4.5797091
-2.9459891 -2.5353699 -4.5826001
-2.9160562 -2.5286307 -4.6056433
-2.8686483 -2.5143187 -4.6582417
-2.8253741 -2.4973226 -4.7073617
-3.1513658 -2.5903959 -4.4308782
-3.12043 -2.577476 -4.4548688
-3.0718451 -2.5755749 -4.4640927
-3.0193331 -2.5649052 -4.4952512
-2.9731715 -2.5443861 -4.5478745
-3.1382599 -2.6293454 -4.4113417
-3.0975437 -2.6187916 -4.4275942
-3.0563173 -2.6114497 -4.4455876
-3.0178359 -2.6032712 -4.4656978
-3.1784127 -2.70157 -4.3218937
-3.1364021 -2.6732335 -4.3647289
-3.0625329 -2.6717119 -4.3827143
-3.0277739 -2.6484022 -4.4277401
-3.0010033 -2.6412761 -4.4467902
-3.1340137 -2.7391453 -4.3311706
-3.1085854 -2.7391243 -4.340066
-3.0470538 -2.7203553 -4.3532557
-3.0464139 -2.7723212 -4.3796711
-2.99334 -2.7535415 -4.380785
-2.9381678 -2.7723081 -4.4054666
-2.1479864 -2.1311181 -5.6879644
-2.1004961 -2.1235156 -5.7229738
-2.067111 -2.125097 -5.7534809
-2.0230534 -2.1356823 -5.7873068
-1.9615381 -2.1475825 -5.8258743
-1.9269632 -2.1516895 -5.8517909
-1.8939936 -2.1514728 -5.8796191
-1.8592455 -2.1560326 -5.9053402
-2.4412651 -2.2033384 -5.3907156
-2.4046957 -2.2004204 -5.4142547
-2.3771675 -2.2051427 -5.4485793
-2.2965627 -2.2069635 -5.5203314
-2.2449989 -2.1954465 -5.5469398
-2.2226231 -2.1724005 -5.6000261
-2.1882756 -2.1618781 -5.6238832
-2.1239128 -2.1505075 -5.6501942
-2.0687511 -2.1454926 -5.6851416
-1.829255 -2.1602502 -5.9185328
-1.7860318 -2.1751833 -5.9523406
-1.751687 -2.1786716 -5.9785299
-1.7182649 -2.1796727 -6.0058198
-1.6673821 -2.1831803 -6.0458717
-1.6086023 -2.198071 -6.0807672
-2.4380336 -2.240819 -5.3595285
-2.3869228 -2.2340412 -5.3930736
-2.3585007 -2.233042 -5.4263334
-2.3246522 -2.234396 -5.4531145
-2.2735839 -2.2214031 -5.4929466
-1.5754895 -2.2081342 -6.1041718
-1.5101564 -2.2244937 -6.1334996
-2.6416924 -2.2885416 -5.159698
-2.6089711 -2.285152 -5.1878338
-2.5585246 -2.2754736 -5.2288013
-2.5083113 -2.2685521 -5.2692451
-2.4755063 -2.2680538 -5.2972703
-2.4105251 -2.2605307 -5.3205204
-2.7099075 -2.3266215 -5.0731864
-2.6627216 -2.3109417 -5.1132669
-2.6195521 -2.3051243 -5.1333122
-2.5828147 -2.3018179 -5.1566625
-2.5417671 -2.2946343 -5.1748633
-2.8124132 -2.3920691 -4.938036
-2.7719452 -2.3827283 -4.9652529
-2.7339163 -2.3592794 -5.0120673
-2.6906691 -2.3446114 -5.0502591
-2.6296048 -2.3342948 -5.0781717
-2.8847251 -2.4328661 -4.8452139
-2.8472681 -2.4261229 -4.8745794
-2.8012192 -2.4143336 -4.9023213
-2.7314124 -2.406636 -4.9310083
-3.0240586 -2.4907994 -4.6756396
-2.9929669 -2.4855063 -4.7057176
-2.9514227 -2.463424 -4.7586951
-2.9008925 -2.4499788 -4.7973609
-2.852797 -2.4467282 -4.8071632
-3.1802394 -2.5436032 -4.5261469
-3.1331773 -2.5375502 -4.5519514
-3.090363 -2.5233688 -4.5935578
-3.0451007 -2.5043912 -4.6348305
-3.0164905 -2.4951396 -4.6666203
-2.9809749 -2.4929304 -4.6914263
-2.9219549 -2.4844475 -4.7217703
-3.2520697 -2.5756054 -4.4255829
-3.2063379 -2.5635221 -4.456563
-3.154675 -2.5534248 -4.4956803
-3.1380548 -2.539875 -4.5429983
-3.2863476 -2.6198015 -4.3841028
-3.2445097 -2.609983 -4.4004626
-3.2002172 -2.6018152 -4.4157066
-3.262408 -2.6629748 -4.3555727
-3.2320709 -2.6478949 -4.3805161
-3.1850462 -2.638011 -4.3976264
-3.3255205 -2.695256 -4.2965384
-3.2715209 -2.7109146 -4.3034043
-3.2336099 -2.6969879 -4.3212523
-3.2029855 -2.674258 -4.3518806
-3.2142484 -2.7518425 -4.3193097
-3.1832628 -2.7612991 -4.3283758
-3.0609643 -2.785223 -4.3840003
-2.2870164 -2.1231437 -5.6767669
-2.4461663 -2.1749043 -5.4636769
-2.3389337 -2.1602266 -5.6043873
-2.2922039 -2.1600134 -5.6158171
-2.2550471 -2.1491215 -5.6453233
-2.2233808 -2.1429656 -5.6680498
-2.1778183 -2.1409521 -5.7144365
-2.1290824 -2.1386819 -5.7570415
-2.0965874 -2.1371703 -5.7854471
-2.036128 -2.1390824 -5.8252621
-1.9987644 -2.15098 -5.8621359
-1.9655787 -2.1597807 -5.8978109
-1.9198136 -2.1682019 -5.9103904
-1.8696374 -2.1698058 -5.9512854
-1.8179837 -2.1753891 -5.9904194
-2.6086559 -2.2349403 -5.3217106
-2.5749979 -2.2094851 -5.3487191
-2.5364618 -2.2106426 -5.3631868
-2.4904766 -2.1896591 -5.409451
-2.4336324 -2.1763499 -5.4487395
-2.4046316 -2.181937 -5.4902759
-2.3682275 -2.1988354 -5.5050454
-2.3250895 -2.1871355 -5.5588131
-2.2689924 -2.1769099 -5.5881553
-1.803646 -2.1745682 -5.9733324
-1.7840515 -2.185987 -6.0133429
-1.7533118 -2.1924667 -6.0475874
-1.6937584 -2.1984107 -6.0773058
-1.6389408 -2.2125363 -6.1126575
-1.6178987 -2.221796 -6.1233344
-2.6955197 -2.2737207 -5.2238469
-2.6586146 -2.2702637 -5.2469969
-2.5986438 -2.2667344 -5.2762127
-2.5535922 -2.2512574 -5.3122568
-2.5051203 -2.2511435 -5.3325629
-2.8456244 -2.3099289 -5.0671206
-2.7976782 -2.3092322 -5.0771012
-2.7517319 -2.2940609 -5.1142716
-2.6951263 -2.2853844 -5.1562572
-2.6720264 -2.2788079 -5.1958485
-2.6402173 -2.2754474 -5.2250719
-2.8676617 -2.3516161 -4.9926915
-2.8162277 -2.3343985 -5.0333242
-2.7767029 -2.3275285 -5.0521035
-3.002346 -2.4220304 -4.8511362
-2.9637845 -2.4170856 -4.872313
-2.9267914 -2.4031401 -4.8980646
-2.8912134 -2.3845603 -4.9314971
-2.8467588 -2.3660603 -4.9677806
-2.7897849 -2.3594198 -5.0005736
-3.085109 -2.4571331 -4.7483969
-3.0311103 -2.4522505 -4.7695813
-2.9894905 -2.4407022 -4.8022561
-2.9387586 -2.4306555 -4.8424883
-3.1438329 -2.4990613 -4.650569
-3.0930552 -2.482224 -4.6881647
-3.0575962 -2.4727929 -4.7156081
-3.0139484 -2.4727259 -4.7307224
-3.3723357 -2.5677049 -4.4194541
-3.3340278 -2.5629847 -4.4409256
-3.2969866 -2.5573936 -4.4607077
-3.2540562 -2.5421867 -4.5134315
-3.2108374 -2.5258017 -4.5626121
-3.182018 -2.5179663 -4.5846348
-3.1367543 -2.5140977 -4.608572
-3.3888316 -2.6026564 -4.3719893
-3.3502538 -2.5926802 -4.3880062
-3.313144 -2.5767686 -4.4160376
-3.3955348 -2.6436543 -4.346415
-3.3368437 -2.6314065 -4.36797
-3.4338923 -2.6833973 -4.2914405
-3.365411 -2.6765413 -4.3184137
-3.3130255 -2.663898 -4.3487706
-3.3987913 -2.7115171 -4.2718239
-3.3518779 -2.7318854 -4.2779436
-3.3216591 -2.7548809 -4.2919364
-3.2828963 -2.7702689 -4.3128643
-3.2347519 -2.7727461 -4.3226132
-3.2814634 -2.8348365 -4.3111567
-2.4516335 -2.1522489 -5.6044445
-2.3781171 -2.1407862 -5.6287107
-2.3330989 -2.1297276 -5.6540298
-2.2970903 -2.1285019 -5.6887727
-2.2575319 -2.1305571 -5.7182689
-2.2153101 -2.1408982 -5.7591171
-2.1711614 -2.1505091 -5.8071895
-2.1387753 -2.1519656 -5.8357248
-2.0896983 -2.1529651 -5.844358
-2.6653104 -2.1906853 -5.3668513
-2.6162133 -2.1863801 -5.3978376
-2.5816722 -2.1793361 -5.4237938
-2.5319235 -2.1767645 -5.4651976
-2.4828334 -2.167397 -5.5020332
-2.4497459 -2.1689794 -5.5305614
-2.4088302 -2.1696346 -5.5650163
-2.3813257 -2.1665888 -5.5877872
-2.0557153 -2.1554775 -5.8709793
-2.021493 -2.1586215 -5.8973265
-1.9869701 -2.1625881 -5.9233041
-1.9570203 -2.1717956 -5.945991
-1.9101212 -2.1829095 -5.9883447
-1.846119 -2.1858649 -6.0239496
-1.8111517 -2.1910305 -6.049397
-1.7755972 -2.1977775 -6.0741458
-2.7727027 -2.2635334 -5.2487087
-2.7433903 -2.2419815 -5.2808967
-2.700789 -2.2334082 -5.2972584
-2.650125 -2.224122 -5.3204412
-1.7693739 -2.2090011 -6.0799437
-1.707263 -2.2331223 -6.1039181
-1.6643481 -2.2418523 -6.1342759
-2.9165466 -2.2941217 -5.0845103
-2.8803222 -2.291276 -5.1084719
-2.8370121 -2.2899218 -5.1239772
-2.7880821 -2.2795348 -5.1615419
-2.73541 -2.2748179 -5.2042656
-2.708596 -2.2665555 -5.2394304
-2.6800699 -2.2543495 -5.2725663
-3.0098147 -2.3386512 -4.9942899
-2.9691806 -2.3318396 -5.0129843
-2.9027669 -2.320859 -5.0376587
-2.86025 -2.3032117 -5.0845509
-3.0600007 -2.3741703 -4.9198465
-3.0074146 -2.3775835 -4.9243093
-2.9665735 -2.3608572 -4.9565539
-2.9397204 -2.3511412 -4.9778757
-3.1969717 -2.4484038 -4.747457
-3.1575084 -2.4426489 -4.7675591
-3.1196334 -2.4383154 -4.7895412
-3.0831418 -2.4269447 -4.8191471
-3.0415087 -2.409672 -4.8575368
-2.9966254 -2.3916879 -4.899972
-3.2838485 -2.4872029 -4.6496234
-3.2440979 -2.4811866 -4.6693759
-3.1799369 -2.4753809 -4.6935954
-3.1379211 -2.4619732 -4.7266188
-3.1046801 -2.4461498 -4.7717204
-3.3670821 -2.5227184 -4.5474434
-3.2988646 -2.5183463 -4.5668321
-3.2452004 -2.5063353 -4.6098447
-3.2146065 -2.4989381 -4.6342292
-3.4982443 -2.5917327 -4.3681321
-3.445282 -2.5705531 -4.4070792
-3.4016478 -2.5550828 -4.4543867
-3.3676097 -2.5493002 -4.480947
-3.3330505 -2.5425177 -4.5077167
-3.5225086 -2.6336613 -4.3299241
-3.4661479 -2.6195285 -4.3452621
-3.4407165 -2.5975208 -4.3666983
-3.5464652 -2.675313 -4.2913504
-3.5014434 -2.6645617 -4.3048196
-3.454957 -2.6568635 -4.3204989
-3.5618715 -2.7092848 -4.2425861
-3.518579 -2.7000875 -4.2581172
-3.4777472 -2.6899941 -4.2736783
-3.5060477 -2.7386544 -4.2431827
-3.4635866 -2.7295775 -4.2534451
-3.4159722 -2.7650957 -4.2752023
-3.3762701 -2.7830782 -4.2898941
-2.5545044 -2.137651 -5.5964584
-2.5219893 -2.1354365 -5.6211715
-2.4877169 -2.1337142 -5.6474471
-2.4346275 -2.127372 -5.6848698
-2.3884697 -2.1357532 -5.7346087
-2.798908 -2.1957941 -5.3470602
-2.768214 -2.1894295 -5.3776121
-2.7255416 -2.1799107 -5.4274435
-2.6718719 -2.1755388 -5.4704242
-2.630476 -2.1698596 -5.4819555
-2.5814433 -2.1651015 -5.5242128
-2.5218062 -2.1626909 -5.5538206
-2.4867425 -2.1573632 -5.5791659
-2.4543657 -2.1523187 -5.6038861
-2.4083211 -2.1377277 -5.6535196
-2.3567574 -2.1430845 -5.692749
-2.338213 -2.147135 -5.7377796
-2.30442 -2.1491344 -5.7646284
-2.2632744 -2.1556404 -5.80509
-2.2164435 -2.1621606 -5.8611546
-2.1688192 -2.1570263 -5.8724632
-2.1183605 -2.1697116 -5.912077
-2.0781088 -2.1753936 -5.9536896
-2.0287466 -2.1794579 -5.9730911
-2.0089872 -2.1867959 -6.0166631
-2.8590963 -2.2117472 -5.2844796
-2.8234968 -2.1998088 -5.3092432
-2.7804902 -2.2005765 -5.3251109
-2.7336955 -2.1922379 -5.3407211
-2.6883011 -2.1848648 -5.3830624
-2.6405511 -2.1799383 -5.4268422
-1.9807627 -2.1765459 -5.9830265
-1.9413584 -2.1973605 -6.026422
-1.8732933 -2.1989298 -6.0563345
-1.8329513 -2.2185781 -6.075377
-2.96121 -2.2877917 -5.143126
-2.929409 -2.279242 -5.1669712
-2.8962536 -2.2781105 -5.1945786
-2.8467741 -2.2592516 -5.2350917
-2.7863228 -2.2516539 -5.2562532
-2.7561469 -2.2271008 -5.2943006
-1.8209021 -2.2275763 -6.0787058
-3.1151321 -2.3313644 -4.9855499
-3.0872478 -2.3192351 -5.0070362
-3.046411 -2.3104796 -5.0379038
-3.0112278 -2.3059535 -5.0630941
-2.9584236 -2.3008184 -5.0830917
-2.8980176 -2.2877321 -5.1295605
-2.8663235 -2.2840781 -5.1589088
-2.836004 -2.2767186 -5.1898961
-3.1919577 -2.3835642 -4.8757339
-3.160485 -2.3667047 -4.9204879
-3.1197085 -2.3545513 -4.9462571
-3.0443194 -2.3497529 -4.9682903
-3.0140777 -2.3381503 -4.994175
-2.9854486 -2.319344 -5.0323725
-3.2598841 -2.4231887 -4.7888732
-3.2195559 -2.3985224 -4.841217
-3.1784689 -2.3915157 -4.8596587
-3.1288583 -2.3934865 -4.8676667
-3.0862741 -2.3763452 -4.9057126
-3.3689356 -2.4728644 -4.6615295
-3.3218107 -2.4588718 -4.6948647
-3.2937894 -2.4426978 -4.7353268
-3.2313867 -2.4454563 -4.7493534
-3.1830525 -2.4284348 -4.7980013
-3.1435399 -2.4178934 -4.8286104
-3.4761822 -2.5176311 -4.5432134
-3.4393804 -2.5120502 -4.5726314
-3.4087238 -2.5045164 -4.5970697
-3.3465643 -2.4940372 -4.6169653
-3.2938752 -2.4865761 -4.647532
-3.2603686 -2.4691696 -4.6887665
-3.555027 -2.5630567 -4.4358029
-3.5049977 -2.5444958 -4.4771752
-3.4386494 -2.5358639 -4.4984837
-3.400151 -2.5292072 -4.5290341
-3.3737614 -2.5198748 -4.5554032
-3.6474135 -2.612361 -4.3232236
-3.6036952 -2.5923073 -4.3638678
-3.5598094 -2.5919449 -4.377409
-3.5249035 -2.5793664 -4.3999033
-3.4911852 -2.5631642 -4.4242468
-3.6402531 -2.6582699 -4.2860279
-3.5663004 -2.6433077 -4.3149891
-3.5413907 -2.6254847 -4.3351498
-3.671366 -2.6966705 -4.2369232
-3.6084955 -2.6864965 -4.2645874
-3.5494168 -2.6736777 -4.2920928
-3.6867428 -2.736201 -4.1986637
-3.6489809 -2.7406178 -4.2121482
-3.578928 -2.71681 -4.2387953
-3.621829 -2.7722809 -4.2220621
-3.584094 -2.7734818 -4.235507
-3.5300021 -2.7575803 -4.2451487
-3.4725246 -2.7878232 -4.2753677
-2.7369924 -2.1307874 -5.5417767
-2.6980889 -2.1255298 -5.5625334
-2.6731415 -2.132813 -5.5999346
-2.7484372 -2.168529 -5.4882956
-2.713933 -2.1640222 -5.5142956
-2.6850171 -2.1516628 -5.537046
-2.6253057 -2.1472688 -5.5764866
-2.5855608 -2.1444621 -5.6298008
-2.5507607 -2.1491621 -5.6554599
-2.5175991 -2.1494617 -5.6830592
-2.4689598 -2.1469235 -5.7257862
-2.4193816 -2.14693 -5.7673817
-2.368794 -2.1467774 -5.7742252
-2.3413544 -2.1565547 -5.819356
-2.3186159 -2.1666105 -5.8486662
-3.0069702 -2.205739 -5.2594051
-2.9124706 -2.201601 -5.3257799
-2.8712025 -2.18925 -5.3474464
-2.8283868 -2.1856456 -5.3821917
-2.7947552 -2.1825647 -5.4092426
-2.7731605 -2.1733315 -5.4506273
-2.2763748 -2.1760163 -5.8654575
-2.2424958 -2.1782484 -5.8922024
-2.2096362 -2.1777191 -5.9201736
-2.159281 -2.1798205 -5.9608436
-2.1108937 -2.196279 -6.00387
-2.0703287 -2.1957753 -6.0233688
-2.031826 -2.2115438 -6.0438814
-3.0212426 -2.2386949 -5.2092819
-2.9814129 -2.2383249 -5.2289467
-2.9462566 -2.2369044 -5.2594972
-2.9147456 -2.2239604 -5.2837367
-2.0069079 -2.2333603 -6.0483479
-1.9739733 -2.2183604 -6.0420675
-3.2253003 -2.3138058 -4.9826021
-3.1720676 -2.3067174 -5.013545
-3.1171708 -2.2981832 -5.0551119
-3.0836587 -2.2942948 -5.0822935
-3.0606046 -2.2887335 -5.1219392
-3.0137296 -2.278404 -5.1672935
-2.9637609 -2.2665746 -5.2079096
-2.9280868 -2.2642181 -5.2325158
-3.2809324 -2.3542252 -4.91465
-3.2352509 -2.3477545 -4.9332824
-3.2053189 -2.3340919 -4.9587893
-3.159193 -2.3339415 -4.9709392
-3.3666346 -2.3919573 -4.8154092
-3.3034823 -2.3867908 -4.8478484
-3.2567532 -2.3721097 -4.8858342
-3.2111831 -2.3710809 -4.8986459
-3.4098151 -2.4402909 -4.7326198
-3.3766849 -2.4293289 -4.7602615
-3.3467393 -2.4155512 -4.7831898
-3.2797704 -2.4082849 -4.8125725
-3.5544248 -2.5022807 -4.5693359
-3.5099339 -2.4968851 -4.5906553
-3.4795046 -2.488436 -4.6142983
-3.4533634 -2.4738462 -4.6502695
-3.4162135 -2.4578583 -4.6951542
-3.3488245 -2.4459181 -4.7270589
-3.6319768 -2.5434747 -4.4603834
-3.5969782 -2.532896 -4.4888773
-3.5477202 -2.5215483 -4.5277824
-3.7016339 -2.5800099 -4.3755856
-3.6546931 -2.5666952 -4.4117894
-3.6079218 -2.560914 -4.431716
-3.5687251 -2.5553951 -4.4521279
-3.805227 -2.6347394 -4.2641063
-3.7600379 -2.6349812 -4.2767277
-3.7330654 -2.6138401 -4.3075233
-3.6927822 -2.5978932 -4.3314743
-3.7836614 -2.6856053 -4.2246752
-3.7356939 -2.6767058 -4.2483649
-3.6951363 -2.6699643 -4.2671547
-3.838177 -2.7295136 -4.1691251
-3.7793236 -2.7167082 -4.1895561
-3.710202 -2.70363 -4.2179847
-3.7583225 -2.7588742 -4.1829515
-3.7025084 -2.7863209 -4.2088161
-3.6977375 -2.7964137 -4.2129321
-3.6519976 -2.7806828 -4.215744
-2.9005933 -2.1589799 -5.4682441
-2.8602157 -2.1524038 -5.4872556
-2.7967134 -2.1422148 -5.5185122
-2.7515807 -2.1396389 -5.5591621
-2.7191689 -2.137917 -5.587656
-2.6605816 -2.1370878 -5.6297131
-2.610918 -2.1362958 -5.6600208
-2.590539 -2.1438694 -5.6942449
-2.5669639 -2.1561928 -5.74189
-2.5365968 -2.158608 -5.7728324
-3.052999 -2.1972635 -5.3142595
-3.0167632 -2.1944025 -5.3381963
-2.9523883 -2.1906011 -5.3733521
-2.9029951 -2.1792345 -5.4012284
-2.868484 -2.175494 -5.4299779
-2.8354642 -2.1703658 -5.4577579
-2.8032298 -2.1609287 -5.4864626
-2.5837994 -2.1464243 -5.6948333
-2.5458474 -2.1596313 -5.7167244
-2.4959795 -2.160403 -5.757987
-2.4458339 -2.1619401 -5.7989063
-2.4115877 -2.1651478 -5.8252249
-2.378232 -2.1659703 -5.8525934
-2.3165643 -2.1781387 -5.8957224
-2.2911551 -2.1957905 -5.950192
-3.1656022 -2.2294688 -5.1799502
-3.125509 -2.2231431 -5.1992898
-3.0717733 -2.2144885 -5.2296677
-3.0256777 -2.20262 -5.2816992
-2.9851313 -2.2066772 -5.300499
-2.9602468 -2.2008154 -5.3379631
-2.2691634 -2.1926782 -5.9239836
-2.2361047 -2.1926847 -5.9517183
-2.18578 -2.1947029 -5.992424
-2.1369107 -2.217562 -6.0162029
-3.1912487 -2.2726457 -5.143394
-3.1391873 -2.2663307 -5.1484704
-3.1054654 -2.2548835 -5.1753421
-3.0646269 -2.247977 -5.1938653
-2.0397856 -2.2477818 -6.0533671
-3.3676367 -2.3377419 -4.9172878
-3.3190112 -2.3212948 -4.953331
-3.2842813 -2.3149414 -4.9857607
-3.2594693 -2.3054678 -5.0233231
-3.2082465 -2.2967694 -5.0629592
-3.1614122 -2.2902956 -5.0999241
-3.1160884 -2.2846415 -5.1209421
-3.4414482 -2.3796482 -4.8374434
-3.3865662 -2.3722782 -4.8560839
-3.3450863 -2.3573699 -4.8904133
-3.5302608 -2.4201751 -4.7419119
-3.4633753 -2.4129441 -4.7628884
-3.4202249 -2.3997498 -4.7976799
-3.5669773 -2.4636593 -4.6514187
-3.5329881 -2.4554379 -4.6780376
-3.4991298 -2.4414687 -4.7041411
-3.4577177 -2.4345236 -4.7225833
-3.75353 -2.5326781 -4.4709959
-3.7143695 -2.5271921 -4.4914513
-3.6703036 -2.523145 -4.5060596
-3.6465721 -2.5092564 -4.5395379
-3.6001155 -2.4929018 -4.5835123
-3.5578673 -2.477529 -4.6231241
-3.5090237 -2.4710579 -4.649478
-3.8007371 -2.5655308 -4.3930049
-3.7379255 -2.5543146 -4.4189348
-3.6868236 -2.5420146 -4.4586229
-3.8566809 -2.6029761 -4.3030519
-3.8087099 -2.5898464 -4.3313813
-3.7728207 -2.581028 -4.359735
-3.9341257 -2.6614532 -4.2163482
-3.877784 -2.6508007 -4.2395387
-3.8526084 -2.6382885 -4.2534485
-3.943408 -2.7148356 -4.1602855
-3.8918347 -2.7049811 -4.1812792
-3.8654525 -2.6929545 -4.2016306
-3.9279463 -2.7507691 -4.1418591
-3.884253 -2.739697 -4.1561441
-3.8369994 -2.7762036 -4.1736617
-3.7980323 -2.7933371 -4.1884069
-3.7550004 -2.8138714 -4.2090392
-3.0934639 -2.1868353 -5.3679709
-3.0626407 -2.1794178 -5.3928709
-3.0139813 -2.1594274 -5.4433551
-2.9657817 -2.1548431 -5.4779391
-2.9218423 -2.148922 -5.4935675
-2.8942456 -2.1492994 -5.5354786
-2.8412547 -2.1610446 -5.5653448
-2.7926073 -2.158535 -5.6080556
-2.7600694 -2.1571543 -5.6363993
-2.7093697 -2.1601691 -5.6766691
-2.6591954 -2.1617808 -5.717555
-2.6386108 -2.1713202 -5.7601552
-2.5919628 -2.1648164 -5.7716827
-2.5348268 -2.1658657 -5.8109946
-2.4987149 -2.1695738 -5.8429031
-2.4712768 -2.1859751 -5.8895206
-3.297606 -2.2233896 -5.1666479
-3.2451625 -2.2140617 -5.2076464
-3.209116 -2.2056398 -5.2318082
-3.1687524 -2.2001538 -5.2508249
-3.118458 -2.1991138 -5.2897787
-3.0603347 -2.1955364 -5.3230019
-3.0291543 -2.1904984 -5.352963
-2.9820852 -2.1837354 -5.3975549
-2.9386783 -2.1671069 -5.4465108
-2.4733293 -2.1741538 -5.8316736
-2.4526901 -2.1838398 -5.8742085
-2.4174232 -2.1898119 -5.8992996
-2.3667622 -2.1927295 -5.939611
-2.3130612 -2.2101846 -5.9719882
-2.2715015 -2.2041585 -5.9784136
-3.3255665 -2.2649918 -5.113133
-3.2728496 -2.2515783 -5.1399503
-3.2070615 -2.2434962 -5.1654387
-3.1848178 -2.2163644 -5.2028503
-3.5077224 -2.3231869 -4.9164257
-3.4773083 -2.3160763 -4.9473052
-3.4313889 -2.3062201 -4.9932647
-3.3817286 -2.2950814 -5.023375
-3.340456 -2.2918582 -5.0527072
-3.2983725 -2.2917736 -5.0696859
-3.246069 -2.2810268 -5.1080341
-3.2214122 -2.2765076 -5.1268158
-3.5857556 -2.3749552 -4.8137341
-3.5388088 -2.3482151 -4.8630238
-3.4828646 -2.3421121 -4.8868017
-3.4405665 -2.3428416 -4.8994365
-3.3957014 -2.3160763 -4.9517956
-3.6692758 -2.4222438 -4.7062097
-3.6449089 -2.4069676 -4.7354307
-3.6073873 -2.3971634 -4.7667031
-3.5605562 -2.3975677 -4.778017
-3.5015404 -2.3877103 -4.8074102
-3.4605401 -2.3640347 -4.8601961
-3.7498977 -2.4721899 -4.6009159
-3.7117496 -2.4525769 -4.6477079
-3.6787827 -2.4431043 -4.6727896
-3.6034772 -2.4385517 -4.6949177
-3.5656831 -2.4300752 -4.7260308
-3.542151 -2.4113152 -4.7560821
-3.8184068 -2.5102427 -4.5147505
-3.7763083 -2.4865344 -4.5693727
-3.738518 -2.4789233 -4.5873542
-3.689467 -2.4803522 -4.5960221
-3.6367886 -2.4656212 -4.6380324
-3.9337063 -2.5577543 -4.3798723
-3.8801625 -2.545588 -4.4205356
-3.8468859 -2.5392938 -4.4480023
-3.7986186 -2.5288174 -4.4764104
-3.741837 -2.5116615 -4.5241857
-3.7057137 -2.5018249 -4.5517573
-4.0305691 -2.6065254 -4.2641597
-4.005496 -2.5936 -4.2917509
-3.9672167 -2.5855432 -4.3229089
-3.8928196 -2.5817289 -4.3461204
-3.8503966 -2.5715239 -4.3734093
-3.8195829 -2.5543811 -4.4154644
-4.0536904 -2.6313143 -4.2226682
-4.0056934 -2.621315 -4.2345142
-3.9577584 -2.6176202 -4.2542386
-3.9296811 -2.6080711 -4.2781754
-3.9033875 -2.5957499 -4.3139644
-4.0771217 -2.7091072 -4.1477833
-4.0505776 -2.6802597 -4.1773396
-3.9730427 -2.6722906 -4.1988869
-4.0733051 -2.7464738 -4.1228237
-3.9955273 -2.7280269 -4.1409583
-4.0366697 -2.7838397 -4.1254034
-3.9999695 -2.7736433 -4.1286769
-3.9341726 -2.7799852 -4.1492791
-3.9881909 -2.8097801 -4.1465302
-3.9429131 -2.814034 -4.1596951
-3.8940141 -2.8000531 -4.1665268
-2.9718707 -2.1612444 -5.5531893
-2.9391365 -2.160377 -5.5813098
-3.3911643 -2.2136741 -5.1802711
-3.3368855 -2.2056847 -5.2109046
-3.2832794 -2.1997466 -5.2530723
-3.2494011 -2.1964478 -5.2798181
-3.2142458 -2.1891153 -5.3050423
-3.1666343 -2.1826282 -5.3557048
-3.1384926 -2.1687243 -5.4046683
-3.0962124 -2.1636391 -5.4328799
-3.0520985 -2.1599865 -5.4698052
-3.004405 -2.1626346 -5.5248413
-2.8853664 -2.1611757 -5.6067266
-2.8231807 -2.1583829 -5.6444921
-2.7883229 -2.1567593 -5.6700706
-2.752882 -2.1701107 -5.7291474
-2.6991129 -2.1837113 -5.7651272
-2.6652803 -2.1858029 -5.7919388
-2.6317782 -2.187021 -5.8191328
-2.5819118 -2.1877894 -5.8603964
-2.5319824 -2.1887429 -5.9015741
-2.4889739 -2.2048674 -5.9194436
-3.4335642 -2.2462945 -5.1057882
-3.402596 -2.2337604 -5.1267633
-3.3681519 -2.2271779 -5.1528463
-2.4551196 -2.2177272 -5.9442248
-2.3690462 -2.2360666 -5.9758987
-3.5141857 -2.3030539 -4.9912539
-3.4656899 -2.2912869 -5.0453296
-3.429446 -2.2726612 -5.0804296
-3.3771086 -2.2710042 -5.0963883
-3.3359072 -2.2636881 -5.114419
-3.6624582 -2.3488359 -4.832334
-3.6375792 -2.3220968 -4.8751006
-3.5891037 -2.3136587 -4.9127254
-3.5379398 -2.3090165 -4.9524374
-3.4936819 -2.3067877 -4.9668183
-3.4396222 -2.3027613 -5.0030766
-3.7234867 -2.3940554 -4.7500682
-3.6840081 -2.3696361 -4.7908907
-3.6538482 -2.3634162 -4.8102736
-3.6160264 -2.3477452 -4.8441234
-3.5756731 -2.3411877 -4.8631573
-3.7973495 -2.4405422 -4.6574669
-3.7678833 -2.4283926 -4.6808772
-3.7128396 -2.4159107 -4.713377
-3.8578093 -2.4801862 -4.572896
-3.8198388 -2.4668102 -4.6095481
-3.7725933 -2.4597111 -4.6279635
-3.7308176 -2.4518762 -4.6453018
-3.9735026 -2.5349226 -4.4310875
-3.9281127 -2.5236349 -4.4776807
-3.8988731 -2.508697 -4.5156202
-3.840204 -2.4960384 -4.5407271
-4.0716124 -2.5815175 -4.3139052
-4.0458941 -2.5627499 -4.3495483
-4.0084476 -2.5520055 -4.3809648
-3.9651179 -2.5393126 -4.4210949
-3.9086981 -2.5331678 -4.4545431
-3.8696649 -2.5277958 -4.4751496
-4.0906944 -2.6160653 -4.26723
-4.0388999 -2.6013222 -4.2740884
-4.1029625 -2.6624217 -4.2263646
-4.1135859 -2.7140725 -4.1660714
-4.1202478 -2.7680607 -4.1322422
-4.0801916 -2.7486315 -4.1219234
-4.0876412 -2.8059247 -4.1302505
-3.2935374 -2.1823485 -5.3324175
-3.272191 -2.167233 -5.3740988
-3.2219963 -2.1633272 -5.4149704
-3.1742017 -2.1676064 -5.458703
-3.131278 -2.1742558 -5.4746695
-3.0832846 -2.1700139 -5.5293484
-3.0330534 -2.1717429 -5.5589828
-2.9991794 -2.1739624 -5.5857344
-2.9649165 -2.1772146 -5.6120329
-2.9148374 -2.1785636 -5.6530375
-2.8656459 -2.1775208 -5.6950998
-2.8327494 -2.1771064 -5.7230158
-2.7824697 -2.1789875 -5.7637873
-3.5194306 -2.2398152 -5.1317487
-3.4770141 -2.225163 -5.1407928
-3.4371371 -2.2140653 -5.1679277
-3.425729 -2.2063973 -5.2214642
-3.374485 -2.1986685 -5.2610745
-3.3238878 -2.1914437 -5.299799
-3.2853663 -2.1875763 -5.3226795
-3.2477255 -2.1834531 -5.3449416
-3.2097912 -2.1790714 -5.3668652
-2.7252107 -2.1837139 -5.7962294
-2.6884437 -2.1893945 -5.8316603
-2.6609566 -2.194701 -5.8539062
-2.6037574 -2.218451 -5.8976183
-2.5516562 -2.2244987 -5.9091768
-3.5694504 -2.275197 -5.057116
-3.5067637 -2.264329 -5.0924354
-3.6800904 -2.3134387 -4.9204721
-3.6288662 -2.3053176 -4.9601126
-3.5799999 -2.3072648 -5.0025625
-3.5513942 -2.2990084 -5.0247226
-3.5121531 -2.2867005 -5.0559554
-3.7802393 -2.3533108 -4.8048882
-3.7376649 -2.3375597 -4.8387761
-3.6946032 -2.3290806 -4.8706431
-3.9122536 -2.4261329 -4.6601553
-3.8728468 -2.4204257 -4.6803169
-3.8387182 -2.4129753 -4.6983638
-3.8042707 -2.3908808 -4.7443924
-3.7588959 -2.3721633 -4.7794518
-3.9668679 -2.4656386 -4.5909915
-3.9037566 -2.4529843 -4.6160784
-3.8531992 -2.4361818 -4.6569018
-4.0222273 -2.5018611 -4.4891553
-3.9728181 -2.4972072 -4.5309587
-3.9435439 -2.4876866 -4.554244
-3.8929758 -2.4787755 -4.570056
-4.1105003 -2.5637939 -4.3594179
-4.085835 -2.5316517 -4.4077063
-4.0568767 -2.5222824 -4.4297614
-3.9993024 -2.5201898 -4.4618344
-3.9452143 -2.5161395 -4.4980617
-4.1103873 -2.5772309 -4.3473868
-4.1258197 -2.6294918 -4.2970486
-4.1436982 -2.6775374 -4.2458348
-4.1290874 -2.6663561 -4.2473192
-4.1731749 -2.7539454 -4.1685658
-4.1535592 -2.7150838 -4.2095227
-4.1614985 -2.7793074 -4.1473522
-4.1520858 -2.8079901 -4.1404786
-3.4833095 -2.20261 -5.2229533
-3.4648557 -2.1947069 -5.2680931
-3.4122508 -2.183687 -5.3060818
-3.3662252 -2.1741724 -5.3387098
-3.3246236 -2.1711903 -5.3694644
-3.296488 -2.1716425 -5.4030542
-3.2474749 -2.1701121 -5.4453344
-3.1977801 -2.1704183 -5.4868031
-3.1596584 -2.1706076 -5.508492
-3.1225631 -2.1696529 -5.531404
-3.0576043 -2.1706839 -5.5882416
-3.022759 -2.1739051 -5.6247644
-3.000176 -2.1849279 -5.6540537
-2.9558411 -2.1934738 -5.6907148
-2.8921328 -2.1924512 -5.7266655
-2.858659 -2.1935928 -5.7538939
-2.8092074 -2.1932421 -5.7956524
-2.7591023 -2.1946707 -5.8366194
-2.724112 -2.1998806 -5.862052
-3.7496347 -2.2684603 -5.0033522
-3.6908348 -2.2485189 -5.0451508
-3.6408029 -2.2426834 -5.068646
-3.6057255 -2.2360196 -5.1003466
-3.5643818 -2.2361577 -5.1450477
-3.5106082 -2.2149696 -5.1928039
-3.4713719 -2.2062068 -5.2087269
-2.7298136 -2.2229595 -5.8688464
-2.6880255 -2.2143474 -5.8814292
-2.6318617 -2.2370629 -5.9114361
-3.800396 -2.3045053 -4.9295964
-3.763654 -2.3011913 -4.9529343
-3.7178936 -2.2975831 -4.9655242
-3.6660473 -2.2873044 -5.006186
-3.6087759 -2.2808309 -5.0368567
-3.9166896 -2.3400278 -4.7996907
-3.8776114 -2.3346157 -4.8202438
-3.8162997 -2.3282206 -4.8510261
-3.766583 -2.316309 -4.8892994
-3.7335873 -2.3148296 -4.9171023
-3.9709761 -2.3792398 -4.7301378
-3.9305029 -2.372575 -4.7490287
-3.8816864 -2.368042 -4.7675085
-3.8533161 -2.354573 -4.7912903
-4.0711899 -2.4501383 -4.5810685
-4.0333829 -2.4458678 -4.603137
-3.9991331 -2.4319642 -4.6379862
-3.9554851 -2.4165692 -4.6714015
-3.9074924 -2.3990381 -4.7182021
-3.8646879 -2.392966 -4.7377176
-4.1224427 -2.4866252 -4.5078998
-4.0594931 -2.4751644 -4.5345039
-4.0103388 -2.4659877 -4.5756736
-3.9874823 -2.447201 -4.6155591
-4.1264982 -2.514477 -4.4506125
-4.0941367 -2.5008202 -4.4741659
-4.1529016 -2.564708 -4.4099503
-4.1305943 -2.5496445 -4.4182653
-4.1530113 -2.6215601 -4.3411856
-4.1482186 -2.5870147 -4.3753109
-4.173604 -2.6711435 -4.3066993
-4.1925135 -2.7097766 -4.2621965
-4.2096128 -2.7543719 -4.2092614
-4.216846 -2.814949 -4.1572037
-3.6149971 -2.1983554 -5.2456403
-3.5893703 -2.1813214 -5.279058
-3.5505745 -2.1757026 -5.3031168
-3.5174971 -2.1751728 -5.3308282
-3.468538 -2.1751299 -5.3731627
-3.4217515 -2.1796021 -5.418097
-3.3830338 -2.1756554 -5.439075
-3.3531775 -2.1809201 -5.4760327
-3.3020999 -2.1953807 -5.5104342
-3.15169 -2.1998858 -5.6332479
-3.118845 -2.1993313 -5.6612253
-3.829663 -2.2433529 -5.0316005
-3.8000488 -2.234087 -5.0634332
-3.7566576 -2.2226067 -5.1124086
-3.6945391 -2.2212324 -5.1462812
-3.6622689 -2.2180212 -5.1677322
-3.6119726 -2.2159338 -5.2017636
-3.5525231 -2.2065647 -5.2383189
-3.5180571 -2.1966448 -5.2625618
-3.4883132 -2.1862113 -5.2960486
-3.439831 -2.1832652 -5.3389506
-3.3898401 -2.1843684 -5.3800664
-3.3580251 -2.1810396 -5.4092712
-3.3238437 -2.1840878 -5.4356556
-3.2739065 -2.1850476 -5.4768343
-3.2370348 -2.1939511 -5.5335855
-3.2042317 -2.1932845 -5.5616126
-3.1560037 -2.1901064 -5.5936346
-3.0919628 -2.1854653 -5.6291885
-3.0718114 -2.1938586 -5.6722941
-3.0386362 -2.1941807 -5.6998887
-2.983094 -2.2063346 -5.7373347
-2.929749 -2.2204006 -5.7714949
-2.8963459 -2.2213507 -5.7988071
-2.83429 -2.2118125 -5.8255444
-2.7821412 -2.2187479 -5.8640757
-3.8769259 -2.2939539 -4.9539528
-3.8526492 -2.2628684 -4.9897785
-3.7921059 -2.2656519 -4.9989119
-3.7575676 -2.2437942 -5.0318604
-3.7243106 -2.2320356 -5.0626717
-2.8768775 -2.2564645 -5.8212004
-2.8581562 -2.2491741 -5.8204265
-2.7599163 -2.2348886 -5.8705597
-4.0288138 -2.3367176 -4.7990661
-3.9937162 -2.3322551 -4.8280873
-3.9612176 -2.3240948 -4.8527575
-3.926528 -2.3162813 -4.8785405
-3.8668072 -2.3127923 -4.9080558
-3.8175397 -2.3037271 -4.9312263
-3.7824724 -2.2842097 -4.9753609
-4.1062565 -2.3886764 -4.6899838
-4.0807824 -2.3684931 -4.7265348
-4.0184269 -2.3581693 -4.7531252
-3.958303 -2.3464868 -4.7802553
-3.9277864 -2.3379631 -4.8129153
-3.898279 -2.3284101 -4.8448749
-3.867342 -2.3227088 -4.8751311
-4.1404691 -2.4093108 -4.6452799
-4.0933347 -2.400079 -4.6745844
-4.0436368 -2.4025888 -4.6824813
-4.0058918 -2.3879476 -4.7126646
-4.1578999 -2.4633141 -4.5691319
-4.1122618 -2.4417109 -4.5897417
-4.0653982 -2.4199319 -4.6339636
-4.1762776 -2.5058947 -4.5072103
-4.1408658 -2.4763036 -4.5298557
-4.2020612 -2.5616069 -4.4792609
-4.1624398 -2.5338197 -4.4684048
-4.2188368 -2.6196966 -4.4214034
-4.1882153 -2.5760818 -4.4366059
-4.2158327 -2.6444883 -4.3809633
-4.1837401 -2.6085539 -4.3942065
-4.24682 -2.7109032 -4.3291821
-4.2000475 -2.6792483 -4.3272419
-4.2651505 -2.7475243 -4.2862005
-4.2181005 -2.7186847 -4.2823715
-4.2724681 -2.7894716 -4.2181988
-4.2394438 -2.7548234 -4.2372255
-4.2732539 -2.8367159 -4.1506314
-4.2680373 -2.8327513 -4.1545
-3.7958426 -2.2100964 -5.1591072
-3.7463078 -2.2029183 -5.1962862
-3.7086079 -2.1988256 -5.2229571
-3.6550062 -2.1939101 -5.2597613
-3.6147776 -2.1961756 -5.312511
-3.5833347 -2.1918457 -5.3421588
-3.5509505 -2.1900346 -5.370697
-3.5006096 -2.1920977 -5.4113836
-3.4513841 -2.1911378 -5.4534116
-3.4183974 -2.1909657 -5.4812202
-3.3188241 -2.1946292 -5.5415521
-3.2873304 -2.2067626 -5.5841389
-3.2447138 -2.2136559 -5.6098576
-3.1954174 -2.2128968 -5.651794
-3.145751 -2.2131329 -5.6932912
-3.1113541 -2.2167616 -5.719419
-3.0771952 -2.2197332 -5.745842
-4.0054297 -2.2501388 -4.9725718
-3.9430819 -2.2446003 -5.0028224
-3.8942046 -2.2349374 -5.0413933
-3.8598816 -2.2299659 -5.0676141
-3.8256235 -2.224674 -5.0939116
-3.0328937 -2.2382622 -5.7690496
-4.0763626 -2.3244247 -4.8557324
-4.0378175 -2.3194914 -4.8769212
