# .PCD v0.7 - Point Cloud Data file format
VERSION 0.7
FIELDS x y z
SIZE 4 4 4
TYPE F F F
COUNT 1 1 1
WIDTH 1476
HEIGHT 1
VIEWPOINT 0 0 0 1 0 0 0
POINTS 1476
DATA ascii
1.9697564 -1.753094 -3.8557591
1.3483467 -1.7893298 -3.6366704
1.3795673 -1.7907041 -3.6242237
1.4175227 -1.8139694 -3.6229017
1.9179057 -1.8184965 -3.8230054
1.9477723 -1.819593 -3.8382304
1.972753 -1.7957567 -3.8438587
1.42026 -1.8476212 -3.6207438
1.922359 -1.8293293 -3.81077
1.9538271 -1.8315343 -3.8215947
1.3248163 -1.6699681 -3.7013195
1.5110277 -1.6710603 -3.7734318
1.6372961 -1.6701241 -3.8156714
1.7304287 -1.6706488 -3.8516531
1.7739373 -1.6648788 -3.8419268
1.8061862 -1.6627158 -3.8512301
1.8475003 -1.6670727 -3.8705046
1.8882949 -1.6607659 -3.8830996
1.9250804 -1.6464328 -3.9005756
1.9592036 -1.6611934 -3.9075081
1.9810041 -1.6703093 -3.9415059
1.3018303 -1.6979337 -3.6671915
1.3345768 -1.6952479 -3.6711988
1.3657854 -1.7024509 -3.6860404
1.3945488 -1.705832 -3.7043109
1.4303409 -1.6982856 -3.7113628
1.4748927 -1.6812646 -3.7267885
1.5215216 -1.678319 -3.7446001
1.5533139 -1.6840072 -3.7545493
1.5845261 -1.6834257 -3.7660756
1.6150621 -1.6754611 -3.7794609
1.6622084 -1.678105 -3.7958667
1.7093821 -1.6810507 -3.8121967
1.7400718 -1.6747644 -3.8251591
1.9789593 -1.6960201 -3.9060464
1.9889477 -1.6985378 -3.9196811
1.2963369 -1.7269337 -3.6546016
1.9895402 -1.7290853 -3.9044137
1.3094832 -1.7612851 -3.6416209
1.9857998 -1.7602973 -3.8902075
1.9938555 -1.7635852 -3.9061975
1.340663 -1.8084971 -3.6501768
1.3774027 -1.8241022 -3.6485422
1.908819 -1.810159 -3.847971
1.9399391 -1.8085682 -3.8597517
1.9741602 -1.7990224 -3.8794379
1.7771492 -1.6493473 -3.9198346
1.8256041 -1.6416881 -3.9306641
1.8724298 -1.6451931 -3.9479494
1.9088143 -1.6410174 -3.9452665
1.939826 -1.640795 -3.9573596
1.9718859 -1.644328 -3.9874184
1.2365988 -1.6810989 -3.7134171
1.2711598 -1.6767358 -3.7125387
1.3136574 -1.6725107 -3.7164207
1.3445818 -1.6797357 -3.7508545
1.4727235 -1.6798432 -3.7813892
1.4934101 -1.6730742 -3.7908487
1.5330479 -1.6706281 -3.7981291
1.5669171 -1.672713 -3.814456
1.6014351 -1.6720672 -3.8219526
1.6480676 -1.6676741 -3.8444469
1.693803 -1.668546 -3.8541422
1.7213303 -1.6630937 -3.8766508
1.7522225 -1.6590153 -3.8890576
1.7886097 -1.6505681 -3.8863816
1.8358128 -1.6538868 -3.9026158
1.8825978 -1.6525924 -3.9200132
1.9815582 -1.6640649 -3.9527605
2.0034637 -1.6706465 -3.9908233
1.2185771 -1.710386 -3.6975453
1.2631823 -1.7084603 -3.6802063
1.35431 -1.688236 -3.7175689
1.3804519 -1.6965487 -3.7430415
1.4119307 -1.6988717 -3.7538364
1.4425564 -1.6918314 -3.7669909
1.9991475 -1.7046316 -3.9475951
2.0149732 -1.7104005 -3.9762669
1.2302855 -1.7448341 -3.6815026
1.2669641 -1.7586896 -3.6656876
2.023551 -1.7399124 -3.9608107
2.0410759 -1.7453816 -3.9878926
1.2409581 -1.7775202 -3.6875093
1.2651495 -1.7779121 -3.6735566
1.9573003 -1.7853428 -3.9093497
1.9916952 -1.7831266 -3.9347191
2.0156164 -1.7797701 -3.9612358
1.2921215 -1.8033497 -3.6760831
1.3044333 -1.8010528 -3.6672456
1.929197 -1.8199059 -3.8892653
1.9447961 -1.8010528 -3.9003186
1.981261 -1.6215951 -4.0380821
1.5469006 -1.6573095 -3.869463
1.5772682 -1.6597505 -3.8832986
1.6249969 -1.6574826 -3.8978066
1.6758233 -1.6498758 -3.9043984
1.7062448 -1.64626 -3.918098
1.7370341 -1.6477711 -3.9307873
1.7641189 -1.6404592 -3.9536698
1.8102105 -1.6316497 -3.9729576
1.8574418 -1.6352262 -3.9891288
1.8891169 -1.6396914 -3.9993844
1.9203038 -1.6387753 -4.0109968
1.9627918 -1.62925 -4.0291767
2.0019324 -1.6436977 -4.0333233
1.1741642 -1.6892407 -3.7246003
1.2090123 -1.6746678 -3.7276273
1.2508466 -1.6693395 -3.7586188
1.2981977 -1.6742489 -3.7744534
1.3300056 -1.680162 -3.7843442
1.3673452 -1.6881597 -3.7934754
1.3937355 -1.6931841 -3.803827
1.4391133 -1.6876028 -3.8168981
1.4859029 -1.6753404 -3.8424611
1.5158473 -1.6608646 -3.8574877
2.0237312 -1.6858289 -4.0186944
2.0322862 -1.689712 -4.0372305
1.1720941 -1.7201693 -3.7082822
2.0292079 -1.7159901 -4.0036469
2.040472 -1.7218561 -4.031044
1.1792026 -1.7555683 -3.7044034
1.9947971 -1.7692988 -4.0008917
2.0553851 -1.7542064 -4.029007
1.214101 -1.7918539 -3.7062685
2.015501 -1.7797438 -3.9926577
1.2198738 -1.8201594 -3.7067947
1.2539258 -1.8143089 -3.70151
1.7197603 -1.6262023 -3.9782467
1.7513543 -1.6297295 -3.9887402
1.7983047 -1.6302917 -4.0056686
1.8450829 -1.6289232 -4.0230846
1.9384472 -1.6241399 -4.0584302
1.9841399 -1.6109531 -4.0788212
1.0934294 -1.6698226 -3.7533271
1.1279467 -1.6654238 -3.7509573
1.161841 -1.6636324 -3.7599466
1.194171 -1.6627254 -3.7684033
1.2403564 -1.659785 -3.7874403
1.2823755 -1.6670566 -3.808466
1.4680296 -1.6703004 -3.8915679
1.5055261 -1.6669028 -3.8899236
1.5349866 -1.6571012 -3.902184
1.5652126 -1.6457521 -3.9164212
1.6050403 -1.6418104 -3.9367211
1.6590288 -1.6458454 -3.950541
1.691762 -1.6361436 -3.9688482
1.7244053 -1.6309648 -3.9654846
1.7554773 -1.6311204 -3.9774125
1.8044567 -1.6294904 -3.988766
1.8487432 -1.6315408 -4.0130281
1.8770661 -1.632647 -4.0324936
1.9081928 -1.6335186 -4.0442715
1.9444988 -1.6300108 -4.0418038
2.0086284 -1.628763 -4.0601892
2.0334859 -1.6493957 -4.0859137
1.0991492 -1.6997874 -3.737612
1.1233644 -1.6964979 -3.7333612
1.3177911 -1.6754332 -3.817904
1.3494735 -1.6799257 -3.8281541
1.3853482 -1.6909215 -3.8268712
1.4278281 -1.6819443 -3.8560977
1.4739764 -1.6737547 -3.8752291
2.0444646 -1.6940802 -4.0590119
2.0547214 -1.6983235 -4.0795975
1.1058822 -1.7310069 -3.7272243
1.1417449 -1.7253629 -3.7178624
2.0487423 -1.7251807 -4.0472584
2.0584779 -1.7304676 -4.0717993
1.1380202 -1.7629137 -3.7270398
2.0151887 -1.779139 -4.0421643
2.0426121 -1.7598004 -4.0576601
1.1728606 -1.7961533 -3.73173
1.2714167 -1.6391487 -3.8480341
1.5991459 -1.632794 -3.9691298
1.6463171 -1.635715 -3.985466
1.6772753 -1.6323578 -3.9976912
1.7078636 -1.6249638 -4.0109329
1.7387227 -1.6204712 -4.0234451
1.7862005 -1.6267903 -4.0389242
1.832956 -1.6251721 -4.0564032
1.866493 -1.6129725 -4.0757837
1.8952216 -1.6078763 -4.0799093
1.9268522 -1.6100813 -4.0937576
1.9658755 -1.6200738 -4.1127858
2.0208435 -1.6282549 -4.1239095
1.0513479 -1.6782916 -3.7716463
1.0764681 -1.6641783 -3.7699416
1.1134886 -1.6418648 -3.7880659
1.1479377 -1.6564932 -3.7981458
1.1796983 -1.661891 -3.8081665
1.2317668 -1.6448543 -3.8294578
1.2751824 -1.6399553 -3.8376877
1.2986341 -1.655549 -3.8540368
1.3439914 -1.6739098 -3.8634341
1.3728346 -1.6753968 -3.8753705
1.4160416 -1.6727927 -3.8884807
1.4615744 -1.6670033 -3.9093034
1.4926991 -1.6654069 -3.921087
1.5233901 -1.6591374 -3.9340453
1.5538154 -1.6458967 -3.9567676
1.6207476 -1.6386855 -3.95842
1.6503808 -1.6399685 -3.9743011
2.0545745 -1.6576675 -4.1276231
2.080055 -1.6807446 -4.155807
1.0479726 -1.7052094 -3.7509503
2.0682135 -1.7049816 -4.1109514
2.0847468 -1.7115147 -4.1429157
1.0616063 -1.7391729 -3.7428646
2.0590568 -1.7336172 -4.1077747
1.0965247 -1.7698607 -3.7492945
1.0914366 -1.8091737 -3.7588022
1.1302258 -1.8033864 -3.7499478
1.8088577 -1.5938964 -4.122612
1.8820388 -1.606922 -4.1161289
1.1038207 -1.6448749 -3.8220582
1.1353456 -1.647645 -3.8327425
1.2290939 -1.6470526 -3.867033
1.2597907 -1.6408433 -3.8799763
1.2914201 -1.6448092 -3.8903575
1.5906378 -1.6262619 -4.0087194
1.628539 -1.6181388 -4.0190806
1.6672342 -1.6187851 -4.0338793
1.6947925 -1.6212881 -4.0468454
1.7257288 -1.6208739 -4.0591459
1.7728126 -1.6210289 -4.0757074
1.8212723 -1.6194401 -4.0909109
1.8513778 -1.6135757 -4.1030717
1.9137548 -1.6118314 -4.1262722
1.9623216 -1.6220841 -4.1461887
2.00984 -1.6367402 -4.1541419
2.0412722 -1.6385559 -4.1650648
0.98545551 -1.6760669 -3.7844369
1.0188411 -1.6731867 -3.7879961
1.0694109 -1.6584411 -3.8193173
1.0827303 -1.6512654 -3.8125596
1.1424737 -1.6499646 -3.8291383
1.1631923 -1.6590662 -3.8535166
1.2077143 -1.6555604 -3.8568254
1.3161399 -1.6565919 -3.9041138
1.3559271 -1.6663116 -3.9077048
1.3986393 -1.6587676 -3.9362931
1.4478197 -1.6534011 -3.947094
1.4782304 -1.6560476 -3.9608395
1.5089774 -1.6564685 -3.9736438
1.5388118 -1.6502644 -3.9788451
2.0741682 -1.6624125 -4.1724215
2.099509 -1.6899986 -4.1996398
0.98853135 -1.7165811 -3.7640479
2.0941939 -1.715548 -4.1623726
2.1037283 -1.7211392 -4.1880479
1.0202609 -1.7453644 -3.765116
2.0816488 -1.7379172 -4.1514282
1.0500351 -1.7760322 -3.7752531
1.0672543 -1.7798305 -3.770267
1.7937495 -1.583045 -4.1641216
0.95319366 -1.6231152 -3.8467588
0.98443949 -1.6228957 -3.8581941
1.4221327 -1.6223089 -4.0176687
1.4528146 -1.6158801 -4.0306687
1.4849114 -1.6249528 -4.0397644
1.5787991 -1.6258798 -4.0736723
1.6148741 -1.6140118 -4.0718551
1.6462975 -1.6157315 -4.0828018
1.6719211 -1.6184528 -4.109684
1.7035383 -1.6222321 -4.1201134
1.7564796 -1.6029897 -4.1281753
1.7978435 -1.5947797 -4.1256027
1.8343759 -1.5963328 -4.1477585
1.8579333 -1.6110508 -4.1672764
1.8966341 -1.6178571 -4.1733108
1.922662 -1.6249912 -4.1990814
0.89447713 -1.6647981 -3.8135021
0.91860616 -1.6325797 -3.8274648
0.9648279 -1.6361885 -3.8147941
1.0064384 -1.6360912 -3.8463936
1.0357952 -1.642706 -3.871237
1.0868006 -1.6519976 -3.8688204
1.1177986 -1.6490191 -3.8809521
1.1495951 -1.654809 -3.8908744
1.1999147 -1.6566668 -3.9147696
1.2428112 -1.6484103 -3.9266267
1.2738492 -1.6459227 -3.938633
1.3056023 -1.6511859 -3.9486895
1.3307872 -1.649121 -3.9767761
1.3828559 -1.6399612 -3.984009
1.4344907 -1.6276743 -3.9838934
1.4647349 -1.6335031 -3.9979179
1.493988 -1.6411322 -4.0148268
1.5197866 -1.6397932 -4.0393233
1.5661949 -1.6323662 -4.0452371
1.6838024 -1.6195214 -4.0770402
1.7151701 -1.62058 -4.0881553
1.9512472 -1.6237069 -4.1854095
1.9883658 -1.6346542 -4.1993561
2.0245175 -1.6485749 -4.2110977
2.0558643 -1.6494032 -4.222271
2.0823812 -1.6618692 -4.2466989
0.89498699 -1.6840992 -3.8062148
0.94224977 -1.6766632 -3.793884
1.0313134 -1.6584772 -3.8266907
1.0619704 -1.6579295 -3.8397603
1.1727338 -1.6598768 -3.8795195
1.1897267 -1.6618658 -3.8899608
1.3445505 -1.6603293 -3.9427726
2.0826845 -1.6598769 -4.2107143
2.0958424 -1.6805639 -4.2283478
0.89826751 -1.7061576 -3.8030882
0.93706715 -1.7281523 -3.7912722
2.1029778 -1.728466 -4.2168741
0.93310034 -1.7450814 -3.8046672
0.97365689 -1.7560799 -3.7950282
2.1009471 -1.7358817 -4.1956887
0.97052062 -1.7959688 -3.7991531
1.0138749 -1.7893393 -3.7888894
1.7516577 -1.5935214 -4.1824708
1.7808383 -1.5790656 -4.1930079
1.8142176 -1.5937736 -4.2051687
0.87964106 -1.6314633 -3.8542638
0.90828478 -1.6149981 -3.8728473
0.94027913 -1.6134142 -3.882241
0.98195863 -1.6171873 -3.8974376
1.0361695 -1.6335258 -3.9106474
1.3168937 -1.6260712 -4.0149484
1.3621504 -1.6148729 -4.0365453
1.4082876 -1.6163206 -4.0557075
1.4376447 -1.6111531 -4.0609188
1.4735783 -1.6045092 -4.0709019
1.5055118 -1.6119027 -4.086597
1.5514376 -1.6264498 -4.1002073
1.5976058 -1.6184247 -4.1192994
1.6286633 -1.6161537 -4.1312513
1.6601344 -1.6183918 -4.1420674
1.6915635 -1.6201197 -4.1530142
1.7264296 -1.6148592 -4.1672044
1.8540426 -1.6082746 -4.2076817
1.8797323 -1.6262689 -4.2197485
1.9428264 -1.6323521 -4.2409782
0.84933102 -1.6541461 -3.8402581
0.87292635 -1.6422312 -3.837122
1.0429754 -1.6404519 -3.8919485
1.0714599 -1.6440064 -3.9193983
1.0985345 -1.6481552 -3.9338799
1.1314092 -1.6492083 -3.94084
1.1770848 -1.647608 -3.9612777
1.2236408 -1.6482933 -3.9792972
1.2565535 -1.6500368 -3.9861526
1.2903714 -1.6463468 -4.0022917
1.3233377 -1.6412708 -3.9972436
1.3597342 -1.6372552 -3.9945428
1.5471309 -1.6374185 -4.0633979
1.9118279 -1.6353252 -4.228848
1.9746828 -1.6387973 -4.2507353
1.9977217 -1.6497653 -4.2559934
2.0394771 -1.6634319 -4.2672939
0.81848574 -1.6792958 -3.8277071
0.85024357 -1.6921812 -3.8220274
2.0715611 -1.6761314 -4.2712212
0.85600281 -1.7146922 -3.8219275
0.88980711 -1.7411624 -3.8269863
0.89389753 -1.7870274 -3.8150945
0.92295194 -1.7733023 -3.8286226
1.3654393 -1.6019573 -4.0761499
1.3967842 -1.6028185 -4.0873132
1.424953 -1.5968239 -4.1072178
1.4579939 -1.5895157 -4.1137199
1.487103 -1.5949092 -4.1310258
1.7385074 -1.5922534 -4.2186007
1.7570511 -1.5860361 -4.2232251
1.8061489 -1.58621 -4.235734
0.74381876 -1.6427298 -3.8382726
0.78576982 -1.6199067 -3.8587296
0.83623636 -1.6192117 -3.8762355
0.86763024 -1.6192493 -3.8872633
0.89734197 -1.6120009 -3.9029126
0.92820704 -1.6075742 -3.9154088
0.98259521 -1.6136926 -3.9281151
1.0243329 -1.6211827 -3.9462402
1.0535387 -1.6253346 -3.960207
1.0872791 -1.6373925 -3.9648037
1.119092 -1.6433606 -3.9746811
1.1658113 -1.6413748 -3.9922516
1.2121917 -1.6356921 -4.0107532
1.240694 -1.6277744 -4.029726
1.2731776 -1.6213424 -4.0369172
1.3077248 -1.6149292 -4.0401397
1.3344625 -1.6051114 -4.0639763
1.5410662 -1.6161997 -4.1287026
1.5875443 -1.6189141 -4.1469431
1.6203612 -1.6152589 -4.1540613
1.6503757 -1.6165452 -4.1688795
1.6800331 -1.6210134 -4.1846933
1.7134757 -1.6154189 -4.190093
1.8347797 -1.6054789 -4.2459717
1.8690308 -1.6210036 -4.2521725
1.9161936 -1.6409059 -4.265502
0.72007906 -1.6548133 -3.8314605
0.74731159 -1.6516166 -3.8286762
0.79752779 -1.6490216 -3.8366477
1.1270971 -1.6480362 -3.9526873
1.2520623 -1.6481171 -3.9984922
1.9635721 -1.6461143 -4.2812614
1.9884752 -1.6584399 -4.2868109
0.73602831 -1.6857128 -3.8231807
0.7493993 -1.6870695 -3.8229403
0.79127574 -1.7082851 -3.8308201
2.0253448 -1.6839976 -4.2856412
0.81428576 -1.7292608 -3.8392465
0.84782541 -1.74949 -3.8467808
0.8452909 -1.7768145 -3.8359504
0.88573563 -1.778953 -3.8375192
1.7125582 -1.5680299 -4.2574682
1.7516404 -1.5698242 -4.2798157
0.78010106 -1.6014194 -3.9007406
0.82087517 -1.5977862 -3.915638
0.85256183 -1.5997038 -3.9286633
0.88279295 -1.6027102 -3.9428859
0.91374493 -1.6024897 -3.9551432
0.95956004 -1.6046085 -3.9751904
1.0062476 -1.6062715 -3.9928572
1.0378155 -1.6069605 -4.003406
1.2280166 -1.5990155 -4.0645571
1.2587491 -1.601733 -4.0774174
1.2885983 -1.6047711 -4.092689
1.3375478 -1.5977632 -4.1043015
1.3866816 -1.5896593 -4.1150699
1.4152566 -1.5917392 -4.1338587
1.4465185 -1.5917008 -4.1452479
1.4861777 -1.5952744 -4.1586637
1.5193187 -1.6048005 -4.1722393
1.5735446 -1.6130058 -4.1854072
1.6046355 -1.6110969 -4.1972671
1.6357244 -1.6091661 -4.2091331
1.6638099 -1.6034924 -4.2292662
1.6985452 -1.5990713 -4.2361612
1.7577378 -1.5757768 -4.2630634
1.7902168 -1.589013 -4.2711105
1.8235296 -1.5967195 -4.2795115
0.66764951 -1.6415761 -3.8529816
0.70186567 -1.6316776 -3.8639376
0.73265958 -1.6244397 -3.8689322
1.0761478 -1.6243865 -3.9953868
1.1037837 -1.6308805 -4.0102258
1.1515088 -1.6338195 -4.0315475
1.1958374 -1.6273055 -4.0415568
1.8668237 -1.6235814 -4.2891359
1.8974988 -1.640666 -4.3006496
0.63413262 -1.6667964 -3.8477709
0.66941869 -1.6634586 -3.839808
1.9504298 -1.6600709 -4.3001518
0.70366788 -1.6950209 -3.839366
0.74547338 -1.7213795 -3.8531113
0.79335952 -1.7575008 -3.8643909
1.2686645 -1.5807594 -4.1474566
1.3154718 -1.5808351 -4.164794
1.3682057 -1.578583 -4.165832
1.3947531 -1.5799643 -4.1901913
1.6584853 -1.5760039 -4.270453
1.6985567 -1.5703623 -4.2797241
1.7484912 -1.5728636 -4.2971849
1.7674812 -1.5819089 -4.3335762
0.61709011 -1.6112503 -3.8945951
0.65794599 -1.6074252 -3.8910985
0.68603432 -1.604934 -3.8997521
0.71716928 -1.6057539 -3.9114914
0.75922644 -1.6015501 -3.9256661
0.80937147 -1.5915465 -3.9500461
0.84077597 -1.5930605 -3.9610448
0.8723619 -1.5965548 -3.9715447
0.90370107 -1.5973008 -3.9827385
0.9507364 -1.5987899 -3.9994333
0.99777246 -1.6002299 -4.0161424
1.0290495 -1.6003561 -4.0274906
1.0635672 -1.6050609 -4.0371022
1.0903001 -1.6133955 -4.0537863
1.1155297 -1.6126951 -4.0817504
1.1838039 -1.612386 -4.088748
1.205934 -1.6017575 -4.0914717
1.246974 -1.5899724 -4.1097693
1.278493 -1.592737 -4.1204529
1.3253832 -1.5925862 -4.1375628
1.4029223 -1.5857048 -4.1677465
1.4347514 -1.5918539 -4.177578
1.4661435 -1.5932307 -4.1886115
1.5215273 -1.604054 -4.2059083
1.5605384 -1.6077683 -4.2211413
1.587695 -1.6053483 -4.227921
1.6245444 -1.6027918 -4.23985
1.6531659 -1.5868183 -4.2585106
1.778643 -1.591278 -4.3029089
1.8179754 -1.6017385 -4.3142419
1.8397809 -1.6146529 -4.3295135
0.59095013 -1.6416864 -3.8691323
0.62196529 -1.6340536 -3.8664119
1.1407948 -1.6255311 -4.0609841
1.890807 -1.6421013 -4.3292408
0.58983362 -1.6770071 -3.8721995
0.6231122 -1.6736922 -3.85883
1.9233204 -1.6707988 -4.3328919
0.66307187 -1.7034609 -3.8626475
0.69601655 -1.7194207 -3.8723257
0.7279048 -1.7339416 -3.8749394
0.69742334 -1.7695495 -3.8684609
0.73119462 -1.7653861 -3.8729572
1.5741043 -1.5594635 -4.310854
1.5978696 -1.5563674 -4.3131385
1.630468 -1.5559564 -4.3208723
1.6617719 -1.5574765 -4.337821
0.56743717 -1.5970709 -3.9337337
0.59458578 -1.5908101 -3.9441385
0.6352433 -1.5880806 -3.9420176
0.66750455 -1.5835478 -3.9506624
0.69830477 -1.5848651 -3.9633217
0.74077141 -1.5863883 -3.9925842
0.79036558 -1.5899749 -4.0022645
0.8232944 -1.5852659 -4.0090752
0.85027468 -1.5869702 -4.0322289
0.88061202 -1.5894005 -4.046175
0.93237293 -1.58605 -4.0498867
0.97953963 -1.585716 -4.0662365
1.0065939 -1.5861157 -4.0891867
1.0376755 -1.5850911 -4.1010885
1.0693898 -1.5834231 -4.1112366
1.1170635 -1.5896528 -4.133656
1.2315196 -1.5893602 -4.1633515
1.2591597 -1.5746279 -4.1735711
1.3060361 -1.5743289 -4.1907182
1.3534304 -1.5797348 -4.2064266
1.3904538 -1.5809023 -4.21346
1.4200952 -1.5885806 -4.2334661
1.4427012 -1.5945642 -4.2530184
1.4971436 -1.5921562 -4.2735033
1.5373245 -1.5859001 -4.2849207
1.5693049 -1.5770888 -4.2943368
1.6096994 -1.5829217 -4.2804203
1.6388979 -1.5597053 -4.2977114
1.6880521 -1.5703065 -4.3247986
1.7284589 -1.5776997 -4.3435063
1.7629033 -1.5821824 -4.3486557
1.7731452 -1.5916021 -4.374135
0.50838196 -1.6238956 -3.9052503
0.5600971 -1.6161852 -3.9052596
0.600896 -1.6098083 -3.9056232
0.75099063 -1.5948882 -3.9645073
0.86019874 -1.5924088 -4.0049629
0.89146698 -1.5923815 -4.0163512
1.0165576 -1.5926228 -4.0618119
1.047924 -1.5936649 -4.0729313
1.0793613 -1.5955355 -4.0838399
1.1332635 -1.6112385 -4.0978923
1.1682686 -1.6063962 -4.1314311
1.199057 -1.6011851 -4.1441231
1.4543804 -1.5934511 -4.2209301
1.5015191 -1.59601 -4.2373571
1.5486728 -1.5987389 -4.2537417
1.5794257 -1.5931439 -4.2665305
1.7931324 -1.6010151 -4.3603973
1.8330003 -1.6136067 -4.3713174
1.8584249 -1.6311406 -4.3755717
0.51042461 -1.6559339 -3.8964081
0.55040181 -1.6575079 -3.886832
1.8887658 -1.653583 -4.3741059
0.574615 -1.6887954 -3.8918631
0.61990368 -1.6998556 -3.8868647
0.61075068 -1.7315426 -3.9101396
0.64333665 -1.7206285 -3.8894706
0.68746531 -1.7433944 -3.9042938
0.65696204 -1.7630081 -3.8823452
1.0301406 -1.5692251 -4.1516366
1.0578064 -1.5669386 -4.1559024
1.082642 -1.5695682 -4.1721087
1.2593777 -1.5680749 -4.2305045
1.2926178 -1.5664046 -4.2386446
1.5187448 -1.5650818 -4.3228564
1.5575439 -1.5597671 -4.3266501
1.5839616 -1.5585799 -4.3513508
1.6153409 -1.5597647 -4.3624339
1.6569229 -1.5654531 -4.3759465
0.48096263 -1.6002135 -3.93802
0.49447775 -1.5959766 -3.9396083
0.5436033 -1.5856129 -3.9505761
0.58556175 -1.5822325 -3.9812183
0.61669087 -1.5806857 -3.9929895
0.6480397 -1.5815909 -4.0041418
0.67912066 -1.5795722 -4.0160294
0.72585261 -1.5776962 -4.0335736
0.7731812 -1.5823313 -4.0494781
0.80431879 -1.5809326 -4.0612097
0.83562827 -1.5814097 -4.0724697
0.86724484 -1.5851837 -4.082901
0.91347468 -1.5778828 -4.1018095
0.96038723 -1.577976 -4.1188574
0.99167836 -1.5782557 -4.130167
1.0224146 -1.5724194 -4.1430178
1.1006893 -1.5735931 -4.1711731
1.1520733 -1.5886743 -4.1759272
1.1825613 -1.5955334 -4.1894445
1.2116916 -1.5906637 -4.206707
1.241681 -1.5767363 -4.2215934
1.3354499 -1.5763688 -4.2558274
1.3670945 -1.5804445 -4.2661829
1.3985455 -1.5824685 -4.2770529
1.4345355 -1.5900025 -4.2754536
1.4746633 -1.5853634 -4.294929
1.6791962 -1.5742077 -4.381557
1.7114789 -1.5852497 -4.3901587
1.7428851 -1.5867801 -4.4011531
1.7775035 -1.5986161 -4.4074221
0.46131253 -1.6257815 -3.9189353
1.8079027 -1.6138501 -4.4170985
1.8469617 -1.6264918 -4.4201441
0.46847677 -1.6619145 -3.9182179
0.50041521 -1.6766845 -3.923295
0.52730823 -1.6966348 -3.9273944
0.54673195 -1.7070026 -3.9257665
0.57388783 -1.747865 -3.9160104
0.59463012 -1.7412384 -3.9238257
0.41141891 -1.5810061 -3.9732299
0.44495261 -1.5792334 -3.978395
0.4832269 -1.5776057 -3.9858611
0.52935517 -1.5702029 -3.9897223
0.57497513 -1.5721629 -4.0103049
0.60571265 -1.573683 -4.0231519
0.63834429 -1.5764842 -4.0384173
0.66663957 -1.5775976 -4.0503211
0.71166646 -1.5754538 -4.0637841
0.76145506 -1.5754709 -4.0816956
0.79290605 -1.5750905 -4.0925665
0.82971466 -1.5756861 -4.107142
0.85422051 -1.5778615 -4.1186852
0.89891481 -1.5740197 -4.1305466
0.94998884 -1.5714421 -4.1474266
0.98083234 -1.573704 -4.159966
1.0099883 -1.5654047 -4.1771584
1.040639 -1.5586905 -4.1902285
1.0965337 -1.5556326 -4.2069149
1.1360648 -1.5547987 -4.2199101
1.1689057 -1.5712855 -4.226963
1.194142 -1.5771377 -4.242754
1.2307396 -1.5772989 -4.2550249
1.2761668 -1.5698094 -4.2727833
1.3251929 -1.5732193 -4.2840085
1.351534 -1.5776055 -4.3000293
1.3816774 -1.5802566 -4.3233976
1.4223289 -1.5782688 -4.326508
1.4687036 -1.5576727 -4.3402686
1.5098836 -1.5425599 -4.3603139
1.5294825 -1.5494452 -4.3707895
1.5724138 -1.561148 -4.3830781
1.6040444 -1.5650756 -4.3934708
1.6549582 -1.5699521 -4.3995094
1.675191 -1.5766881 -4.4160547
0.38510811 -1.6115706 -3.9482372
0.41619575 -1.6054136 -3.9472101
0.45366192 -1.5955303 -3.9544663
0.47996712 -1.5821348 -3.9794757
1.1989684 -1.580407 -4.2416635
1.3865939 -1.580632 -4.3098893
1.7002754 -1.5915751 -4.4209394
1.7317299 -1.5936322 -4.4318018
1.7745005 -1.6028311 -4.444746
1.7962945 -1.6157601 -4.4489918
0.38801014 -1.643743 -3.9402637
0.41840363 -1.6426103 -3.9334178
1.8352014 -1.6345911 -4.4577832
0.45197558 -1.6773164 -3.942147
0.49612761 -1.700917 -3.9514878
0.53383434 -1.7366092 -3.9519835
1.027948 -1.5487616 -4.2250972
1.0744616 -1.5445325 -4.2432327
1.1214387 -1.5453607 -4.2600946
1.4656726 -1.5485203 -4.3844848
1.4968914 -1.5479498 -4.3960099
0.33795929 -1.5895675 -3.9804955
0.37330365 -1.5839889 -3.9756556
0.40109622 -1.5622108 -4.0015907
0.43253529 -1.5616059 -4.0125113
0.46716595 -1.5710046 -4.014647
0.51359773 -1.5658538 -4.0330153
0.56038785 -1.564669 -4.0503836
0.59196985 -1.5680645 -4.0609102
0.62325478 -1.5682728 -4.0722375
0.65487504 -1.57214 -4.0826435
0.70161235 -1.5703217 -4.100173
0.74861348 -1.571383 -4.1169777
0.77999187 -1.5726118 -4.1280479
0.81100273 -1.5698307 -4.1401277
0.84226942 -1.5697868 -4.1515207
0.89166188 -1.5626717 -4.1779528
0.9337039 -1.5554512 -4.1921692
0.96418869 -1.5586936 -4.2056942
1.0017916 -1.5550542 -4.2162771
1.0304087 -1.551543 -4.2183361
1.0644773 -1.5493472 -4.2220154
1.1564766 -1.5516976 -4.2687426
1.1818193 -1.5631707 -4.2887802
1.2179025 -1.5744001 -4.2869244
1.264513 -1.5711994 -4.3048019
1.311211 -1.569008 -4.3224235
1.3429037 -1.5736102 -4.3326464
1.3742141 -1.5740983 -4.3439031
1.408371 -1.5600278 -4.3685875
1.4368008 -1.5507601 -4.3665276
1.5277252 -1.5537792 -4.4071364
1.5611866 -1.5671923 -4.4139247
1.5926322 -1.5691013 -4.4248257
1.6401534 -1.5758922 -4.4401855
1.6808647 -1.5852995 -4.4523211
0.3456924 -1.6179554 -3.959249
0.34878635 -1.6174378 -3.9583201
1.6882464 -1.5888704 -4.453989
1.7204931 -1.5995724 -4.4626746
1.7519407 -1.6015031 -4.4735699
1.7806096 -1.6215246 -4.4782958
0.37536573 -1.6527717 -3.9579186
1.8239621 -1.6436771 -4.4877577
0.4149766 -1.6808186 -3.9687409
0.44960713 -1.720576 -3.9656062
0.47765112 -1.7127509 -3.9733272
0.36027205 -1.5567094 -4.0164738
0.39115858 -1.5525734 -4.0288944
0.42238796 -1.5521182 -4.040391
0.45414305 -1.5574554 -4.0504274
0.89163995 -1.5547292 -4.2104402
0.92248535 -1.5500832 -4.2229919
0.9536252 -1.5487118 -4.2347169
0.98469913 -1.5465615 -4.2466402
1.0121596 -1.5355799 -4.2684755
1.0590372 -1.5352118 -4.2856112
1.109653 -1.545311 -4.2924757
1.1412472 -1.548893 -4.3029542
1.1731378 -1.5556562 -4.312633
1.4544429 -1.5545373 -4.4153385
1.4857771 -1.5552285 -4.4265461
0.26238179 -1.5997841 -3.9935629
0.31063426 -1.5782216 -3.9990013
0.35419965 -1.5608628 -4.0092316
0.45735037 -1.5595636 -4.041615
0.50204396 -1.5604088 -4.0647593
0.54936099 -1.5615621 -4.0835624
0.57837605 -1.5645013 -4.098259
0.61010659 -1.5633523 -4.1083622
0.64034176 -1.5656209 -4.1225734
0.68989539 -1.5623081 -4.1358004
0.73108983 -1.5622709 -4.1505675
0.76506042 -1.5670248 -4.1690712
0.79671872 -1.5656266 -4.1793728
0.82729852 -1.5606191 -4.184185
0.86173296 -1.5596497 -4.1953278
1.189104 -1.5617669 -4.3167014
1.2023685 -1.5679536 -4.3296037
1.248376 -1.5689688 -4.3491378
1.2960451 -1.5672145 -4.3640914
1.3286074 -1.5652444 -4.3719249
1.3640277 -1.5628889 -4.3814545
1.3924284 -1.5602365 -4.3911419
1.4235919 -1.5590627 -4.4028192
1.5202848 -1.5608783 -4.4374952
1.5498973 -1.572562 -4.4449415
1.5813918 -1.5750031 -4.4557085
1.628828 -1.5808668 -4.4713016
1.6771954 -1.5937698 -4.4846263
0.30311155 -1.620738 -3.9763136
1.7093759 -1.6068181 -4.4932189
1.7445669 -1.6231508 -4.5069637
0.33638239 -1.6554296 -3.984828
0.34292769 -1.658188 -3.9812245
0.37109864 -1.674847 -3.9867277
0.40023947 -1.6996435 -3.9902635
0.36785543 -1.7284307 -3.9956381
0.40444922 -1.7285715 -3.9923785
0.43363118 -1.7212737 -3.9911532
0.30358231 -1.5364196 -4.0749454
0.83487093 -1.5335728 -4.2691302
0.89746058 -1.5341487 -4.2917466
0.92848682 -1.5315378 -4.3037839
0.95993376 -1.5334575 -4.314682
0.99117661 -1.5332053 -4.3261256
1.0376701 -1.5287567 -4.3443165
1.0841748 -1.5244287 -4.3624768
0.21297765 -1.5713117 -4.0320187
0.24205947 -1.5468948 -4.0495973
0.2932086 -1.5451934 -4.0450683
0.34264088 -1.5383906 -4.0649147
0.37376416 -1.5394979 -4.0766859
0.40437114 -1.5417854 -4.0898914
0.43216324 -1.5481744 -4.1095247
0.48301518 -1.5535506 -4.1170406
0.52993286 -1.5537591 -4.134058
0.56149244 -1.5569104 -4.1446462
0.59257329 -1.5548918 -4.1565342
0.62140465 -1.5510757 -4.1746025
0.67069733 -1.5543913 -4.1851115
0.71269763 -1.5480551 -4.2107949
0.7467283 -1.5505565 -4.2194386
0.77788234 -1.5505164 -4.2311254
0.8102504 -1.5433211 -4.2394919
0.86207318 -1.5421631 -4.2527618
0.90872288 -1.540729 -4.2608042
0.94062328 -1.5390792 -4.2704391
0.96945715 -1.5380669 -4.2798395
1.0030183 -1.533864 -4.293591
1.0497231 -1.5317221 -4.3112011
1.0980672 -1.537528 -4.3264556
1.1235254 -1.5450137 -4.3600249
1.1552309 -1.5531147 -4.3618312
1.1869999 -1.5586054 -4.3718286
1.2339647 -1.5592705 -4.3887329
1.2749646 -1.549607 -4.4147539
1.3047438 -1.5509446 -4.426702
1.3439189 -1.5649327 -4.4271383
1.3754892 -1.5682541 -4.4376817
1.4224445 -1.5688123 -4.4546127
1.4691702 -1.5668719 -4.4721732
1.5006067 -1.5687342 -4.4830842
0.19506299 -1.6111352 -4.0141425
0.22227645 -1.5914619 -4.0143275
0.25965691 -1.5755851 -4.0140281
1.5274801 -1.5768236 -4.4905586
1.5645225 -1.5837831 -4.5020561
1.6121207 -1.5914145 -4.5172043
1.661756 -1.6062584 -4.5354977
0.22353232 -1.6359098 -4.0174403
0.26161373 -1.6347795 -3.99404
1.7053179 -1.6263056 -4.5228481
0.25208068 -1.6568335 -4.0218649
0.29833424 -1.6719174 -4.0148745
0.3091507 -1.7109227 -4.0272136
0.35522401 -1.7038935 -4.0194674
0.33272064 -1.7258177 -3.9948881
0.19845426 -1.5414122 -4.0719213
0.2290442 -1.53404 -4.0851569
0.27576923 -1.5321174 -4.1027122
0.32268047 -1.5322244 -4.1197557
0.35445726 -1.5378029 -4.1297307
0.38589919 -1.539668 -4.1406431
0.41746378 -1.5429263 -4.1512027
0.60491955 -1.5412971 -4.2198954
0.65193212 -1.542482 -4.2366686
0.69862378 -1.5401672 -4.254323
0.72931945 -1.5339468 -4.2672691
0.76071441 -1.5353565 -4.2782941
0.79150963 -1.5301673 -4.2909822
0.83590138 -1.5232649 -4.3089905
0.88354349 -1.5264738 -4.3299842
0.91630805 -1.5272218 -4.337245
0.94767606 -1.5282805 -4.3483601
0.9790616 -1.529586 -4.3594112
1.0268209 -1.5241412 -4.3799858
1.0740061 -1.5184263 -4.3904147
1.1049294 -1.5203937 -4.4027362
1.1301919 -1.5262756 -4.4173203
0.16885102 -1.5559311 -4.0572524
0.20543635 -1.5510048 -4.0527382
0.46795511 -1.5492637 -4.1584177
0.51514769 -1.5483308 -4.1746798
0.54546475 -1.5505596 -4.1886821
0.57787871 -1.5488048 -4.196907
0.66117716 -1.549155 -4.2112679
1.1443032 -1.5503496 -4.3918548
1.1698956 -1.5527866 -4.4188223
1.2190341 -1.5504169 -4.4297543
1.2624108 -1.5507703 -4.456501
1.3014408 -1.5538011 -4.4698434
1.3260323 -1.5626132 -4.4762812
1.3583866 -1.574489 -4.4846711
1.4057508 -1.5795081 -4.5004787
0.14278328 -1.5882487 -4.0410466
0.17279983 -1.6052811 -4.028399
1.4530529 -1.583858 -4.5164552
1.483482 -1.5875654 -4.5250692
1.516012 -1.5885205 -4.5380406
1.5481684 -1.5981858 -4.5469885
1.600422 -1.6122761 -4.5585365
0.17522883 -1.629205 -4.038434
0.20839262 -1.65295 -4.0370836
0.24627507 -1.6808028 -4.0495801
0.24631453 -1.7107418 -4.0377069
0.29942238 -1.7108531 -4.0377254
1.0109078 -1.5032308 -4.4178452
0.12189174 -1.5407714 -4.0876946
0.15424967 -1.5318261 -4.095078
0.18749392 -1.5276699 -4.1020346
0.21981859 -1.5258554 -4.1105042
0.26577246 -1.5287523 -4.130178
0.31220305 -1.529424 -4.1485424
0.33542907 -1.5337873 -4.1635804
0.37399399 -1.5383124 -4.1733522
0.40532827 -1.5390584 -4.1845446
0.45241511 -1.5410551 -4.2011132
0.49701262 -1.5353091 -4.2245054
0.52839506 -1.5361005 -4.2355804
0.55865371 -1.538527 -4.2497272
0.5908128 -1.5353168 -4.2586532
0.63411582 -1.5324638 -4.2703094
0.68805039 -1.532418 -4.2900038
0.71859372 -1.5284808 -4.2967377
0.75039518 -1.5258887 -4.3066459
0.78297019 -1.5233793 -4.3144441
0.82547212 -1.5175614 -4.3435941
0.87278497 -1.5220211 -4.3595428
0.90824306 -1.5250741 -4.3594036
0.93887734 -1.5248734 -4.3725343
0.96935022 -1.5230432 -4.3860931
1.0598639 -1.5162834 -4.4292703
1.0913577 -1.5187683 -4.4400244
1.1231487 -1.5244457 -4.4499764
1.1561735 -1.5315574 -4.4591246
1.203693 -1.5503583 -4.4719033
0.095181465 -1.5765827 -4.0637822
0.11686194 -1.5620929 -4.064537
1.2509714 -1.5544996 -4.4879303
1.2825047 -1.5573633 -4.4985914
1.3186818 -1.5613866 -4.504303
1.3468418 -1.5770665 -4.5163903
1.3946316 -1.5867317 -4.5310283
0.097523093 -1.596478 -4.0554891
0.13037241 -1.6265789 -4.0519328
1.4415303 -1.5959679 -4.541677
1.4739898 -1.5997045 -4.5562129
1.5058023 -1.6056671 -4.5660915
1.5374807 -1.6101156 -4.5763531
0.13260067 -1.6337736 -4.0582719
0.17041457 -1.6563704 -4.0655918
0.19972122 -1.6837888 -4.0684404
0.22837138 -1.6908686 -4.0693226
0.13753867 -1.5174477 -4.1419873
0.16852081 -1.5173447 -4.1541624
0.2040906 -1.5188612 -4.1537166
0.6422739 -1.5236225 -4.3118443
0.66892433 -1.5180063 -4.3359213
0.70251703 -1.5118473 -4.3409076
0.73656368 -1.508289 -4.3503461
0.76577532 -1.5090712 -4.3616858
0.81148124 -1.5116504 -4.3820329
0.8563633 -1.5153378 -4.4046602
0.88748193 -1.5160939 -4.4164433
0.92674243 -1.5117279 -4.4238234
0.95527542 -1.505838 -4.4247637
1.0000299 -1.5037217 -4.4477315
1.0415536 -1.5125036 -4.4667306
1.0797102 -1.5202326 -4.4720249
0.066189528 -1.5440462 -4.0977097
0.11097741 -1.5263815 -4.1176815
0.25173295 -1.5269465 -4.1687512
0.29863274 -1.5269301 -4.1858263
0.33009934 -1.5291241 -4.1966534
0.36416388 -1.5363247 -4.2003603
0.39528859 -1.5363414 -4.2121286
0.44248188 -1.5356987 -4.2284045
0.48676813 -1.5327171 -4.2526517
0.51762128 -1.5281588 -4.2651811
0.54922247 -1.5318176 -4.2756395
0.58038306 -1.5306711 -4.2873077
0.61108851 -1.5245001 -4.3002439
1.1116506 -1.527539 -4.4815669
1.1574531 -1.536077 -4.4958029
1.1857597 -1.5469798 -4.504961
1.2396703 -1.5597434 -4.5189791
0.029844522 -1.5749904 -4.0840883
0.054914951 -1.5709411 -4.0771317
1.2713116 -1.5637863 -4.5293436
1.3133709 -1.5687175 -4.5432458
1.3316349 -1.5782974 -4.5581703
1.3832415 -1.5910044 -4.5623212
0.068029761 -1.6168363 -4.0778236
0.097178698 -1.6369712 -4.0811253
1.4290403 -1.6062565 -4.5746417
1.4634936 -1.6137302 -4.5850506
1.4955573 -1.6224353 -4.5942383
0.12257016 -1.6528788 -4.0858307
0.15408564 -1.6675358 -4.086421
0.19438958 -1.697449 -4.0830889
0.87133884 -1.489378 -4.4607964
0.90245426 -1.4895 -4.4726052
-0.0029517412 -1.5228834 -4.1388378
0.050832033 -1.5204906 -4.1369905
0.089265823 -1.5151206 -4.1465998
0.12926185 -1.5133054 -4.1647277
0.16059232 -1.5139527 -4.1759462
0.19602466 -1.5156744 -4.1855469
0.23610198 -1.5232363 -4.2116966
0.28143823 -1.5253677 -4.233068
0.31339145 -1.524688 -4.2425585
0.3444252 -1.5271227 -4.2545919
0.375772 -1.5264038 -4.2657499
0.42376709 -1.5246495 -4.2798233
0.47014463 -1.5252516 -4.2983246
0.50318933 -1.5208342 -4.3048325
0.53503823 -1.5201422 -4.3146105
0.56594253 -1.5214894 -4.3269825
0.6165179 -1.5177593 -4.3420081
0.66054487 -1.5103433 -4.3589435
0.69118929 -1.5035635 -4.3720303
0.72240663 -1.5030364 -4.383543
0.75377846 -1.5041394 -4.3946466
0.80093145 -1.5069124 -4.4110184
0.84804392 -1.509186 -4.4275174
0.87897158 -1.5054998 -4.4398255
0.91028881 -1.5060045 -4.4510798
0.94176137 -1.5082591 -4.4618921
0.98862851 -1.5078859 -4.4790564
1.0360968 -1.5140734 -4.4945693
1.0573961 -1.5215472 -4.5001907
1.1002522 -1.5317363 -4.5128837
-0.029527307 -1.5536507 -4.1145554
0.0065162182 -1.5481606 -4.1093874
1.1319135 -1.5360532 -4.5231762
1.1797733 -1.5506843 -4.5364242
1.2283432 -1.5647194 -4.5500998
1.2599237 -1.5680985 -4.5606313
-0.016019344 -1.5825891 -4.0975742
0.012266874 -1.6013998 -4.0970249
1.2914788 -1.5712581 -4.5712156
1.3258734 -1.5797193 -4.5813217
1.3720068 -1.596987 -4.5931888
0.015075088 -1.6145542 -4.0990391
0.056466103 -1.637773 -4.1027408
1.420608 -1.6133047 -4.6058407
1.4530162 -1.6279764 -4.6138372
0.080144882 -1.6597418 -4.1050949
0.11353159 -1.6788707 -4.1138062
-0.051097274 -1.5083196 -4.1738181
-0.021052361 -1.5020022 -4.1863942
0.02709353 -1.5009879 -4.2022114
0.061372995 -1.5033244 -4.2161784
0.10498059 -1.5054667 -4.2314396
0.13655198 -1.5087426 -4.2419963
0.41766119 -1.5054882 -4.3452396
0.44912648 -1.5076659 -4.3560715
0.48047113 -1.5084716 -4.3672504
0.51142251 -1.5050395 -4.3794942
0.53959417 -1.501243 -4.3897386
0.5973326 -1.4948335 -4.3964071
0.64467776 -1.4926792 -4.4021492
0.67413008 -1.4940193 -4.4189
0.70471179 -1.4964354 -4.4321589
0.73531854 -1.4972584 -4.445365
0.78225672 -1.4968152 -4.4623265
0.83309269 -1.4945329 -4.4730992
0.86012363 -1.4926689 -4.4916096
0.89772594 -1.4924027 -4.4992619
0.92060339 -1.5001664 -4.5256128
-0.085430384 -1.5290869 -4.1513729
-0.034001112 -1.5298133 -4.1399913
-0.0071877241 -1.5176713 -4.150476
0.039002061 -1.5099378 -4.1694927
0.085803628 -1.5088207 -4.1868458
0.11711252 -1.5092902 -4.1981072
0.14863944 -1.5120819 -4.2087865
0.17414713 -1.5135311 -4.2359853
0.22139704 -1.5173364 -4.2520981
0.26858556 -1.5204679 -4.2683802
0.29946625 -1.5162691 -4.280817
0.33089566 -1.517997 -4.2917638
0.36225975 -1.5190669 -4.3028746
0.40568769 -1.5165734 -4.3132825
0.4620899 -1.5205621 -4.3204546
0.49292636 -1.5158228 -4.3330297
0.52380049 -1.5115486 -4.3454857
0.55490017 -1.509738 -4.3573217
0.58579302 -1.5056092 -4.3697429
0.92975497 -1.5058028 -4.4948797
0.97166526 -1.5156202 -4.5256624
1.0189804 -1.5201368 -4.5415959
1.0518318 -1.5296689 -4.5499811
1.0833892 -1.5405643 -4.5592146
1.1094903 -1.5484877 -4.584784
-0.11016059 -1.5641925 -4.1341209
-0.063018918 -1.5583901 -4.1211882
1.1206806 -1.5420372 -4.5540385
1.1686804 -1.55599 -4.5814075
1.2031683 -1.5721498 -4.5999136
1.2431136 -1.5775026 -4.6068168
1.2746447 -1.5804017 -4.6174664
-0.071399212 -1.597052 -4.1254249
-0.030614138 -1.6032698 -4.1175413
1.3138139 -1.5905495 -4.6288295
1.3553258 -1.607801 -4.6390195
-0.03262639 -1.6284845 -4.1372128
0.0019661188 -1.6498659 -4.1405511
0.036752343 -1.6539636 -4.1295514
1.3962797 -1.6277382 -4.6421309
1.44203 -1.6366539 -4.6440215
-0.035339355 -1.6802672 -4.1305237
-0.0044246912 -1.6763783 -4.1428847
0.52626228 -1.4803113 -4.4360037
0.55667961 -1.4809802 -4.4497309
0.74278235 -1.4785742 -4.5079112
0.76368165 -1.4786944 -4.5150599
-0.12577248 -1.5140371 -4.1844234
-0.10035002 -1.5071514 -4.1874714
-0.058803797 -1.4999989 -4.1949921
-0.032776713 -1.4955814 -4.2207813
0.014409781 -1.4987242 -4.2370596
0.066398501 -1.5042357 -4.2401609
0.097299099 -1.5038927 -4.2525444
0.12690353 -1.5065265 -4.2685051
0.15458822 -1.5110929 -4.2852349
0.20286644 -1.5112388 -4.3030109
0.24651408 -1.5104908 -4.3178411
0.28311551 -1.5068128 -4.3257403
0.31441712 -1.5053577 -4.3370385
0.34512401 -1.5071002 -4.3499541
0.39331698 -1.504724 -4.3634839
0.44114316 -1.5001988 -4.3780055
0.47182059 -1.5009196 -4.3910174
0.50358987 -1.4967031 -4.4010143
0.52900743 -1.4843338 -4.4284611
0.57598424 -1.4851274 -4.445333
0.62297714 -1.4860978 -4.4621601
0.65440392 -1.4878564 -4.4730973
0.68597603 -1.4911997 -4.4836349
0.71710455 -1.4896479 -4.4954076
0.81091106 -1.4896874 -4.5295391
0.84298968 -1.4985595 -4.5386848
0.87431562 -1.4991596 -4.5499153
0.91559839 -1.5064449 -4.5628638
0.93867695 -1.5191239 -4.5676484
-0.15512192 -1.5409415 -4.1618567
-0.11396205 -1.5363643 -4.1519742
0.97054648 -1.5256548 -4.5773859
1.00227 -1.5306503 -4.5875077
1.0337275 -1.5327401 -4.598361
1.0598617 -1.5466812 -4.603898
1.0984306 -1.5563819 -4.61517
-0.15318274 -1.5765409 -4.1482935
1.1505195 -1.5696776 -4.6342101
1.1835037 -1.5790117 -4.6396813
1.2265791 -1.5899359 -4.652245
1.2582397 -1.5942473 -4.662539
-0.11730671 -1.60811 -4.1520653
-0.083294392 -1.6267313 -4.1649976
1.2895417 -1.6078155 -4.6649537
-0.082616925 -1.674098 -4.163136
-0.050697565 -1.6649115 -4.1665964
-0.012140632 -1.6678779 -4.164084
-0.078781724 -1.6759732 -4.1525989
-0.17589986 -1.4914935 -4.2248487
-0.08004272 -1.4898839 -4.253345
-0.045913815 -1.4888597 -4.256875
-0.018657923 -1.4907863 -4.2792711
0.32468426 -1.4912584 -4.4061122
0.38759816 -1.490963 -4.4278374
0.42117524 -1.4891522 -4.4328671
0.45262647 -1.4864631 -4.4357443
0.48915315 -1.48087 -4.4406786
0.51651955 -1.476619 -4.4627714
0.57097709 -1.4803437 -4.4753036
0.61254871 -1.4838097 -4.4908118
0.64385498 -1.4812353 -4.50208
0.6740278 -1.4864889 -4.5164623
0.70514703 -1.4871193 -4.5282602
0.75159311 -1.4827816 -4.5465741
0.80075252 -1.4861692 -4.5609083
-0.18555558 -1.5162007 -4.1933146
-0.13777828 -1.5019327 -4.2174087
-0.10693038 -1.4973727 -4.2299366
-0.076219559 -1.4913164 -4.2428412
0.0023108721 -1.4952557 -4.2703009
0.049928665 -1.5030446 -4.2854114
0.081120372 -1.502234 -4.2969952
0.11228263 -1.5010469 -4.3086758
0.14384437 -1.5042799 -4.3192415
0.19062424 -1.5029531 -4.3366461
0.23744535 -1.5020771 -4.3539371
0.26862228 -1.501111 -4.3655605
0.29936945 -1.4953948 -4.3783813
0.33075356 -1.4966838 -4.3894372
0.37764096 -1.496505 -4.4065537
0.42398131 -1.4904131 -4.4251571
0.83135927 -1.5002027 -4.5706391
0.86316037 -1.505987 -4.580564
0.89456391 -1.5074883 -4.5915666
0.93085217 -1.5166006 -4.5969954
-0.22520721 -1.5519192 -4.1732612
-0.19011915 -1.547035 -4.1666346
0.95929968 -1.5314828 -4.6082859
0.99098194 -1.5360291 -4.6185212
1.0225829 -1.5396839 -4.6289806
1.0521638 -1.553156 -4.6359057
1.0874388 -1.5649934 -4.6453695
-0.19337535 -1.584039 -4.1699963
1.1358392 -1.583254 -4.6577787
1.1841003 -1.5961884 -4.6716566
1.2161137 -1.6042904 -4.6809988
-0.16016245 -1.6144714 -4.1816106
-0.13985145 -1.6268623 -4.1810312
1.2286634 -1.6157492 -4.6822987
1.2546146 -1.6109035 -4.6724992
-0.12289619 -1.6643217 -4.1765208
-0.093795538 -1.647737 -4.1912007
-0.25088799 -1.5012485 -4.2362971
-0.20613492 -1.4930121 -4.2304459
-0.1479665 -1.4898919 -4.2454009
-0.11698687 -1.4912477 -4.2575665
-0.08828187 -1.4882737 -4.2759824
-0.057219267 -1.4860001 -4.2879367
-0.0040102005 -1.4925928 -4.3038816
0.023632169 -1.4974843 -4.3212652
0.063497901 -1.4999108 -4.3454127
0.099509835 -1.4968227 -4.3437691
0.1306504 -1.4973342 -4.3554916
0.1823951 -1.4952122 -4.3727627
0.22564161 -1.4941337 -4.3863678
0.25725269 -1.4931655 -4.3967981
0.28985155 -1.4905063 -4.404532
0.31801677 -1.4862804 -4.4244313
0.3614316 -1.4870536 -4.434875
0.40808153 -1.4707605 -4.4688416
0.43919921 -1.470878 -4.4806437
0.4689219 -1.4727904 -4.4962635
0.50446892 -1.4737036 -4.4958801
0.55137944 -1.4737761 -4.5129337
0.5945909 -1.4711903 -4.5401506
0.63282573 -1.4641705 -4.545959
0.66023552 -1.4634256 -4.5550156
0.69337559 -1.4878509 -4.5606022
0.74040782 -1.4893081 -4.5773058
0.78734231 -1.4896398 -4.5942936
0.81397665 -1.4971706 -4.6076803
-0.26789355 -1.5290108 -4.2035542
-0.23922634 -1.5193187 -4.2042575
0.037904859 -1.500421 -4.3184466
0.069176912 -1.500488 -4.3298097
0.16284204 -1.4989883 -4.3643284
0.81946242 -1.4989653 -4.6033254
0.85175204 -1.5100796 -4.6119084
0.88334799 -1.5136797 -4.6223817
0.93288994 -1.5268708 -4.6366525
-0.26948285 -1.5593221 -4.189507
0.97991657 -1.5438639 -4.6489234
1.0095876 -1.5573313 -4.6646848
1.0366777 -1.5641662 -4.6637936
1.0765951 -1.5752466 -4.6751628
-0.23477662 -1.5906681 -4.1966972
-0.20200801 -1.6120366 -4.1992989
1.1095176 -1.5918 -4.6806459
1.204754 -1.6089156 -4.7122087
-0.18422914 -1.6243621 -4.2022552
-0.20225537 -1.6598868 -4.1999784
-0.13134408 -1.653326 -4.1997313
0.39814818 -1.4656594 -4.4961333
0.42928076 -1.4641492 -4.507895
0.46087778 -1.4677646 -4.5183649
0.54895425 -1.4574057 -4.5682378
0.58589101 -1.4671053 -4.5640535
0.61705518 -1.4659978 -4.5757117
0.64828992 -1.4656609 -4.5871768
-0.32355046 -1.5091852 -4.2413721
-0.2880218 -1.4967109 -4.2503657
-0.26173854 -1.4881781 -4.266109
-0.21487653 -1.4819952 -4.2832956
-0.16761291 -1.479732 -4.2993789
-0.13159716 -1.4853445 -4.297708
-0.10572886 -1.4822129 -4.3239174
-0.069068193 -1.4852594 -4.3204913
-0.021871448 -1.4885139 -4.3367414
0.025517225 -1.4938035 -4.3524814
0.056984663 -1.496002 -4.3633075
0.087831616 -1.4913728 -4.3758545
0.1189363 -1.4896182 -4.3876762
0.16586387 -1.4899056 -4.4046745
0.2084868 -1.4798069 -4.4335003
0.23990643 -1.4799874 -4.4444566
0.2706207 -1.4805254 -4.4573679
0.3028667 -1.4776468 -4.4660554
0.35208929 -1.4725709 -4.4777212
0.4941076 -1.4727997 -4.529902
0.53512335 -1.4705805 -4.5413837
0.66399753 -1.4722692 -4.5910091
0.67788708 -1.4807498 -4.6031566
0.72909987 -1.4944719 -4.6083736
0.77610183 -1.4955391 -4.6251764
0.81359363 -1.5023382 -4.6368842
-0.31485748 -1.5368612 -4.2154045
-0.28572905 -1.5094299 -4.2347407
0.84017289 -1.512283 -4.6437221
0.87227762 -1.5214365 -4.6527977
0.92502308 -1.5327232 -4.6687765
-0.30974722 -1.570357 -4.2157183
0.96694875 -1.5636842 -4.6845517
0.99548376 -1.5732054 -4.682879
-0.2748071 -1.5982571 -4.2238107
-0.24493158 -1.6134402 -4.2199321
-0.24129856 -1.6530826 -4.2099504
-0.21180141 -1.6332898 -4.2266088
-0.34330201 -1.4795043 -4.295639
-0.31315613 -1.4672841 -4.3100958
-0.28177869 -1.468503 -4.3211684
-0.23457682 -1.4717524 -4.3374224
-0.18769193 -1.4715451 -4.3545456
-0.1560216 -1.4759607 -4.3648138
-0.12475276 -1.4759948 -4.3761849
-0.093419313 -1.476675 -4.3873954
-0.046270728 -1.4794042 -4.4037781
0.00039041042 -1.4767535 -4.4215169
0.03173995 -1.4776678 -4.4326668
0.063079238 -1.4784117 -4.443861
0.093964577 -1.474262 -4.4562855
0.14076436 -1.4731548 -4.4736352
0.19351101 -1.4726503 -4.4746456
0.22450972 -1.46974 -4.4867582
0.2577467 -1.4639382 -4.5066204
0.28509593 -1.4583464 -4.5148802
0.33269548 -1.4548616 -4.5300407
0.37790179 -1.4586006 -4.5547647
0.41122162 -1.4599349 -4.5575118
0.43859756 -1.4581432 -4.5769844
0.47227836 -1.4576576 -4.5843229
0.51928294 -1.4522145 -4.5957718
0.56469524 -1.4511611 -4.6083159
0.59204185 -1.4642782 -4.6281967
0.63112915 -1.4712485 -4.6343255
0.66286135 -1.4762826 -4.6444397
-0.3731159 -1.5150995 -4.2695556
-0.34212124 -1.4961476 -4.2682157
-0.30270374 -1.4800714 -4.273591
-0.26902175 -1.4791276 -4.2861195
-0.22218013 -1.4784493 -4.3033619
-0.17532814 -1.4778831 -4.3205762
-0.14350843 -1.4809635 -4.331418
-0.11268246 -1.4791276 -4.3430223
-0.085468411 -1.4814785 -4.3533359
-0.036196232 -1.484622 -4.3760986
0.010925055 -1.4850279 -4.3925729
0.042135 -1.4858457 -4.4041066
0.073363185 -1.4853444 -4.415606
0.10598612 -1.4817481 -4.4232564
0.15274835 -1.4822756 -4.4407091
0.17342722 -1.4808807 -4.4466577
0.68174374 -1.4851873 -4.6487732
0.71189165 -1.4995419 -4.655653
0.75955093 -1.5077806 -4.67065
0.79109263 -1.5107952 -4.6812706
0.82272089 -1.5172737 -4.6907015
-0.36907554 -1.5512347 -4.2549901
-0.34942997 -1.5451622 -4.2380238
0.85535145 -1.5295856 -4.6993017
0.89732945 -1.5484533 -4.7081857
-0.36678147 -1.5645208 -4.2628508
-0.33470571 -1.5831411 -4.2447743
0.94882035 -1.5773026 -4.7013836
-0.32728219 -1.6201675 -4.2613602
-0.28938842 -1.6148249 -4.2400131
-0.28675294 -1.6452444 -4.2375541
-0.25696731 -1.6415851 -4.2441831
0.20546579 -1.4547777 -4.5390816
0.2364068 -1.451176 -4.5513701
0.26777101 -1.4522479 -4.5624804
0.3143295 -1.4484811 -4.5805001
0.36127019 -1.4489391 -4.5974545
0.39240682 -1.4474751 -4.6092048
0.42128932 -1.4381762 -4.6271329
0.45324254 -1.4361676 -4.6366234
0.48690498 -1.4550657 -4.6414351
-0.38855958 -1.4727198 -4.3226857
-0.35499263 -1.4667045 -4.3325515
-0.32286227 -1.4615016 -4.3367634
-0.29179335 -1.4617107 -4.3486838
-0.24650025 -1.4651835 -4.3701811
-0.19884467 -1.4657021 -4.3883867
-0.17038167 -1.4697175 -4.4042678
-0.13687456 -1.4722786 -4.4094896
-0.10746419 -1.4690461 -4.4259834
-0.0652318 -1.4703017 -4.4396601
-0.013279915 -1.4680878 -4.4590755
0.018265963 -1.4678637 -4.4696865
0.049135923 -1.4689742 -4.4821701
0.084126949 -1.4667723 -4.4926782
0.12908483 -1.4638339 -4.505724
0.17599177 -1.4633031 -4.5227795
0.21091282 -1.4625008 -4.5241156
0.24663794 -1.4590114 -4.5232601
0.40356421 -1.4585515 -4.5785503
0.5183593 -1.4571221 -4.652297
0.54954612 -1.4562023 -4.6639104
0.58324003 -1.465127 -4.671679
0.61399138 -1.4770871 -4.6814113
0.64576304 -1.4825522 -4.6914167
0.67772114 -1.4901044 -4.7008948
-0.41621959 -1.5302459 -4.2912869
-0.40598619 -1.5077236 -4.2975111
0.69703174 -1.499324 -4.6962118
0.74293685 -1.5193346 -4.7162967
0.77484024 -1.5262966 -4.7259235
0.80210888 -1.5274696 -4.7236953
-0.40999198 -1.5555279 -4.2892089
0.80678773 -1.5336776 -4.7354469
0.83953524 -1.5616548 -4.7362728
-0.37588263 -1.5938662 -4.2905178
-0.3736676 -1.6288323 -4.2817702
-0.35052717 -1.6245314 -4.2792277
-0.41548622 -1.4607618 -4.3480248
-0.36867261 -1.4597772 -4.365344
-0.33767569 -1.4568436 -4.3774629
-0.3063575 -1.4574152 -4.3886986
-0.25905764 -1.461735 -4.4046822
-0.21210396 -1.4622797 -4.421617
-0.1181823 -1.4635786 -4.455431
-0.071440578 -1.4618683 -4.4729314
-0.024593472 -1.4612479 -4.4901595
0.0063024759 -1.4572108 -4.5025558
0.037896991 -1.4607406 -4.5130486
0.069193482 -1.4610779 -4.5243435
0.11551261 -1.4547253 -4.5430136
0.15952897 -1.4480484 -4.5680113
0.18953514 -1.4409943 -4.5711727
0.23071206 -1.4406921 -4.5859666
0.25427866 -1.4446695 -4.5995498
0.29977965 -1.4465518 -4.6204758
0.3497411 -1.4426377 -4.6320524
0.38163686 -1.4397287 -4.6387954
0.41104269 -1.4382162 -4.6552854
0.44888663 -1.4398003 -4.6686077
0.49106872 -1.4584737 -4.6786361
0.53827715 -1.4617959 -4.6948714
-0.45769781 -1.4826857 -4.3289809
-0.42536139 -1.4710579 -4.3265162
-0.18053961 -1.4655385 -4.4321761
-0.14576256 -1.4680185 -4.4339089
-0.04745543 -1.4689457 -4.4556737
0.56991625 -1.4658704 -4.705225
0.59752011 -1.4772099 -4.7120385
0.6344564 -1.4877355 -4.7224817
0.66627967 -1.4938154 -4.7323303
-0.45784312 -1.5224303 -4.3135037
0.69674456 -1.5082507 -4.7393022
0.73138809 -1.5218735 -4.7480268
0.76386356 -1.5360334 -4.7437868
-0.44687665 -1.5565267 -4.3092928
0.76474845 -1.544733 -4.7536511
0.79673469 -1.5525377 -4.7630672
-0.41587532 -1.6006285 -4.3130221
-0.40933573 -1.6307411 -4.282486
0.2955153 -1.4253106 -4.6808329
0.33452761 -1.4202702 -4.6709294
-0.47507775 -1.4508915 -4.3654466
-0.42677188 -1.4479483 -4.3790321
-0.3807596 -1.4498448 -4.3985524
-0.34940875 -1.4509594 -4.4113593
-0.31976521 -1.4534981 -4.4255362
-0.27889633 -1.4582804 -4.442975
-0.22788548 -1.4572973 -4.4649763
-0.19659901 -1.4579303 -4.4762993
-0.16595888 -1.4591228 -4.489398
-0.13410902 -1.4577031 -4.4991894
-0.082560062 -1.4518578 -4.5096836
-0.037002325 -1.4502609 -4.5242524
-0.0052466393 -1.4490571 -4.5342865
0.025465965 -1.4510214 -4.5479221
0.062562108 -1.452172 -4.5627146
0.10431957 -1.447762 -4.5737667
0.14939773 -1.4412696 -4.5958462
0.18042278 -1.438647 -4.6078863
0.21150064 -1.436538 -4.6197991
0.24298596 -1.4389306 -4.6305761
0.28988647 -1.4388944 -4.6476574
0.36787391 -1.4369082 -4.676609
0.39959943 -1.441924 -4.6867256
0.43094027 -1.4427446 -4.6978984
0.47413683 -1.4526255 -4.7072825
0.52712119 -1.4686381 -4.7255225
0.55858278 -1.4707768 -4.7363634
-0.50411934 -1.4835851 -4.3481059
0.59247613 -1.4822211 -4.7429981
0.62324274 -1.4939469 -4.7532911
0.65512824 -1.5007076 -4.7629685
-0.49870539 -1.5340942 -4.3306737
0.68783653 -1.515254 -4.7705097
0.72079253 -1.5348334 -4.7771378
0.73541975 -1.5474706 -4.7788577
-0.47227859 -1.5796113 -4.3301272
-0.4591018 -1.5763409 -4.3219352
0.75420856 -1.5582975 -4.782609
-0.46097243 -1.6047467 -4.3270745
-0.42517161 -1.4416245 -4.4232759
