# .PCD v0.7 - Point Cloud Data file format
VERSION 0.7
FIELDS x y z
SIZE 4 4 4
TYPE F F F
COUNT 1 1 1
WIDTH 1435
HEIGHT 1
VIEWPOINT 0 0 0 1 0 0 0
POINTS 1435
DATA ascii
-0.49385792 -1.7217376 -1.6557506
-0.46511096 -1.7232533 -1.6726747
-0.43605408 -1.7220699 -1.6890694
-0.40363866 -1.7255166 -1.7040915
-0.37794197 -1.7305622 -1.7217312
-0.36279526 -1.7322216 -1.7342014
-0.33169651 -1.7361181 -1.7529542
-0.30343199 -1.739064 -1.7707136
-0.27473032 -1.740916 -1.7877237
-0.24595654 -1.7423123 -1.8046086
-0.22707868 -1.7455921 -1.8171675
-0.80023003 -1.7558868 -1.4747268
-0.75891453 -1.7581365 -1.4772987
-0.73306239 -1.7534127 -1.4900464
-0.71351749 -1.7460668 -1.5024548
-0.3224349 -1.739099 -1.7369126
-0.2921387 -1.7439754 -1.7511532
-0.26331669 -1.7437339 -1.7679547
-0.2339946 -1.7452245 -1.78389
-0.20226496 -1.7523177 -1.8016649
-0.17850518 -1.7548982 -1.8212173
-0.15935045 -1.757844 -1.8325169
-0.13061166 -1.7602812 -1.8494589
-0.10165864 -1.7618339 -1.8660299
-0.072407782 -1.7601987 -1.8820887
-0.047950149 -1.7606349 -1.9064417
-0.019380987 -1.7632031 -1.9236811
0.0095216632 -1.7630661 -1.9403353
0.032184005 -1.7665243 -1.9534068
0.068579018 -1.7703369 -1.9714905
0.088232636 -1.7717042 -1.9819258
0.10872537 -1.7759774 -1.9909085
-0.75686538 -1.7722189 -1.4616675
-0.04925108 -1.7692237 -1.8642184
-0.032841444 -1.7694722 -1.8802726
-0.0037508607 -1.7692459 -1.8966089
0.026796997 -1.7725964 -1.9157376
0.053186893 -1.7740307 -1.9314276
0.080578148 -1.77272 -1.9467506
0.10114723 -1.775548 -1.9595572
0.12888283 -1.7797816 -1.9826852
0.15655392 -1.7830756 -2.0051467
0.18419796 -1.7893449 -2.0090852
0.21391296 -1.7943363 -2.0311172
0.24214607 -1.7950191 -2.0489388
0.26855713 -1.7891694 -2.0717392
0.20435488 -1.7958884 -2.0031953
0.22506773 -1.8009242 -2.0117965
0.26173788 -1.8073952 -2.0272968
0.27885872 -1.8214338 -2.0553489
0.27479219 -1.8352165 -2.0146322
0.27808619 -1.8360755 -2.0387402
0.27746958 -1.8609788 -2.0052354
0.28052676 -1.8612607 -2.0332427
-0.83571142 -1.7038352 -1.5361824
-0.80049354 -1.7027422 -1.5493157
-0.77384675 -1.7021018 -1.5624683
-0.74253058 -1.6998184 -1.5804707
-0.71588844 -1.6980376 -1.5955201
-0.68696511 -1.6977509 -1.6121432
-0.65802157 -1.6976532 -1.6287304
-0.63723862 -1.6987734 -1.6410764
-0.61028844 -1.7007267 -1.6572536
-0.58139992 -1.7010536 -1.6739399
-0.55271113 -1.7029104 -1.6909647
-0.52373409 -1.7012603 -1.7074977
-0.49950469 -1.7028974 -1.7248335
-0.47063425 -1.7048373 -1.748964
-0.8447051 -1.7264113 -1.5072801
-0.82623857 -1.7181121 -1.5192454
-0.7989254 -1.712544 -1.5317733
-0.76334727 -1.7126787 -1.5442827
-0.73283637 -1.7108076 -1.5581559
-0.70255721 -1.7092037 -1.5724298
-0.68253112 -1.7083194 -1.5822233
-0.58658373 -1.7087274 -1.6384342
-0.5679971 -1.7095075 -1.6507257
-0.53981125 -1.7103188 -1.6686213
-0.50971377 -1.7089267 -1.6832137
-0.48250097 -1.709893 -1.7102078
-0.4592472 -1.7119898 -1.729241
-0.43057069 -1.7139851 -1.7462907
-0.40169224 -1.714838 -1.762991
-0.38320166 -1.7183779 -1.7750208
-0.35664397 -1.724896 -1.7887517
-0.32158947 -1.7309157 -1.8021634
-0.86501819 -1.7477516 -1.4776059
-0.83969128 -1.740828 -1.4880247
-0.81194657 -1.740597 -1.4950205
-0.78435147 -1.7292511 -1.5139437
-0.36909139 -1.7279048 -1.7510012
-0.34326887 -1.7314489 -1.7729981
-0.31602478 -1.7333477 -1.7925251
-0.29030848 -1.7346412 -1.8147058
-0.26544303 -1.7387745 -1.830759
-0.2288897 -1.7423639 -1.8462108
-0.200589 -1.7451289 -1.8594676
-0.1818375 -1.7466044 -1.8714657
-0.15288711 -1.7460251 -1.8880411
-0.12102801 -1.753201 -1.8995786
-0.09224838 -1.7550323 -1.9164536
-0.063172102 -1.7534554 -1.932807
-0.033354938 -1.7564651 -1.9511877
-0.0059633255 -1.7569115 -1.9671562
0.018144906 -1.7593066 -1.9847095
0.18166906 -1.7625792 -2.0869656
0.21097332 -1.7621028 -2.1029315
0.23974854 -1.7622337 -2.1198068
0.25946599 -1.761708 -2.1301394
0.039994836 -1.7662804 -1.9765153
0.058997571 -1.768706 -1.9880861
0.078112006 -1.7700385 -1.9994553
0.10592777 -1.7740391 -2.0179963
0.13111007 -1.7766243 -2.0336461
0.16476125 -1.7764487 -2.0529962
0.19219089 -1.7744251 -2.0687408
0.22134537 -1.7716665 -2.0849667
0.25067508 -1.7689952 -2.1008811
0.27252507 -1.7713639 -2.1145039
0.2859475 -1.7790465 -2.1287484
0.18625331 -1.7864044 -2.034548
0.20409584 -1.7880402 -2.048121
0.23386598 -1.7870259 -2.0632803
0.28373796 -1.8011582 -2.0946555
0.28729761 -1.8346615 -2.0835299
0.28069216 -1.8433536 -2.0488901
0.28500241 -1.8557869 -2.0762453
0.28299701 -1.8663752 -2.044898
0.28906989 -1.8723817 -2.0604169
-0.86046064 -1.6810558 -1.5790493
-0.83085608 -1.6802311 -1.5944921
-0.79577571 -1.6838541 -1.6004503
-0.76661599 -1.6833919 -1.6166639
-0.73799115 -1.6839701 -1.6338031
-0.7097168 -1.6846442 -1.6515502
-0.68772185 -1.6817522 -1.6801728
-0.66878164 -1.6821203 -1.691844
-0.95496774 -1.7192216 -1.4981024
-0.9277066 -1.7082636 -1.5176044
-0.89035493 -1.7060674 -1.5265478
-0.86318326 -1.7001979 -1.5392853
-0.84679443 -1.6926765 -1.5553787
-0.81938136 -1.6902884 -1.570951
-0.78757954 -1.6892979 -1.5862541
-0.75869644 -1.6893065 -1.6029469
-0.72989094 -1.6894042 -1.6197731
-0.70071948 -1.6890798 -1.6359664
-0.67416787 -1.6910914 -1.6550038
-0.65429926 -1.6918627 -1.6667598
-0.62544841 -1.692311 -1.6835115
-0.60003924 -1.6900401 -1.6973122
-0.56923389 -1.6922455 -1.7158989
-0.53953427 -1.696147 -1.7348644
-0.51067144 -1.6970849 -1.7515876
-0.48176095 -1.6981798 -1.7682359
-0.45012119 -1.7035811 -1.780153
-0.42193571 -1.7058121 -1.7980535
-0.40038404 -1.7075913 -1.8084223
-0.37407804 -1.7130256 -1.8189484
-0.34763664 -1.7184882 -1.8472784
-0.32078528 -1.7208443 -1.867493
-0.29092795 -1.7197292 -1.8825012
-0.94494337 -1.7333295 -1.4807397
-0.9147867 -1.7282865 -1.4903581
-0.88569534 -1.7235107 -1.5041448
-0.35331345 -1.7221395 -1.8126342
-0.33425301 -1.7254564 -1.8240972
-0.30398732 -1.7284858 -1.8426318
-0.27733594 -1.7314466 -1.8589594
-0.24833125 -1.7307482 -1.8754368
-0.22033828 -1.7294128 -1.8912679
-0.20028627 -1.7332623 -1.90342
-0.17244208 -1.7370405 -1.9219114
-0.14342219 -1.7393275 -1.9383664
-0.13138086 -1.7391016 -1.9619944
-0.92626089 -1.7487085 -1.4709268
-0.90318871 -1.7441537 -1.4751381
-0.13396001 -1.7455163 -1.9219774
-0.10765189 -1.7486409 -1.943512
-0.082210243 -1.7484124 -1.9580389
-0.049858153 -1.7486525 -1.9768131
-0.022235334 -1.7538681 -1.9953401
0.0057814121 -1.7570556 -2.0135365
0.042950511 -1.7644298 -2.0158806
0.066292822 -1.766989 -2.0307066
0.087966859 -1.7651666 -2.0524673
0.11592036 -1.7612922 -2.0674076
0.14522851 -1.7592397 -2.0833633
0.17087901 -1.755259 -2.1056545
0.19975138 -1.7548881 -2.1223686
0.22830582 -1.7563684 -2.139626
0.25307208 -1.7644892 -2.1412139
0.27429849 -1.766757 -2.1499577
0.28716379 -1.7915606 -2.1544785
0.29180241 -1.8147483 -2.131628
0.2888841 -1.8449798 -2.1082294
0.29227674 -1.8410716 -2.1177859
0.29267186 -1.8642389 -2.0975771
-0.98090315 -1.6776922 -1.550437
-0.95419121 -1.675282 -1.563477
-0.92825037 -1.6736405 -1.5782855
-0.89622283 -1.6719928 -1.5965115
-0.87671781 -1.6699178 -1.6072077
-0.84768343 -1.6680806 -1.6236379
-0.8186326 -1.6676595 -1.6400397
-0.7897777 -1.6699061 -1.6567812
-0.76118171 -1.6713339 -1.6739703
-0.73234892 -1.671921 -1.6907502
-0.70310056 -1.6708641 -1.7068095
-0.68371689 -1.6706128 -1.7177126
-0.65757906 -1.6760906 -1.7351925
-0.62759733 -1.679917 -1.7539563
-0.59834033 -1.6785022 -1.7699966
-1.0255944 -1.7019057 -1.5092325
-1.0042504 -1.6958946 -1.5215783
-0.97906649 -1.6880677 -1.5324293
-0.9384799 -1.6927196 -1.5362642
-0.91017789 -1.6866658 -1.5539629
-0.88152963 -1.6826885 -1.5702734
-0.86291683 -1.6793559 -1.5833037
-0.83453417 -1.6775973 -1.6008626
-0.80586505 -1.6768315 -1.6179255
-0.77708459 -1.67645 -1.634796
-0.74772477 -1.6780772 -1.6506623
-0.71820188 -1.680268 -1.6662468
-0.68923342 -1.6805393 -1.6827909
-0.66183573 -1.6820135 -1.6976261
-0.64064837 -1.6840709 -1.7098386
-0.61222458 -1.6859713 -1.72733
-0.58326775 -1.686244 -1.7438903
-0.55861437 -1.6878799 -1.767912
-0.52961957 -1.688714 -1.7844067
-0.50077486 -1.6904337 -1.801169
-0.47179368 -1.6926595 -1.8176908
-0.44270033 -1.6939627 -1.8340188
-0.42741957 -1.6936271 -1.8545969
-0.40017635 -1.6969687 -1.8715646
-0.36728185 -1.7060709 -1.8813049
-1.0302497 -1.7128451 -1.493243
-0.99201477 -1.7158008 -1.4955504
-0.96361488 -1.7116213 -1.5067009
-0.94060695 -1.7020171 -1.5233419
-0.40549082 -1.7013153 -1.832759
-0.38472348 -1.7045968 -1.8447995
-0.35683745 -1.7129269 -1.8632146
-0.33308136 -1.7154546 -1.8865277
-0.30725837 -1.7133095 -1.9023583
-0.27383119 -1.7188129 -1.9135886
-0.23924977 -1.7226629 -1.9264299
-0.22008574 -1.7244774 -1.9377135
-0.19531953 -1.7274153 -1.961536
-0.16658944 -1.7299296 -1.9784931
-0.13726735 -1.7318866 -1.9962983
-0.11287189 -1.7365229 -2.0188894
0.0024620891 -1.7367885 -2.0860085
0.025598764 -1.7360604 -2.0904112
0.054311275 -1.7344389 -2.1073987
0.082887053 -1.7357411 -2.1246231
0.10192817 -1.7360954 -2.1361194
-0.18295383 -1.7329993 -1.9401182
-0.15375292 -1.734076 -1.9562596
-0.12125736 -1.7411795 -1.9714998
-0.098962784 -1.7425995 -1.9947982
-0.070024252 -1.7438457 -2.0113976
-0.041215956 -1.7473582 -2.0282152
-0.016051292 -1.7491448 -2.0469043
0.011829853 -1.7469826 -2.0697832
0.034458816 -1.7477632 -2.0750651
0.071125984 -1.7471681 -2.0856891
0.09811753 -1.7453759 -2.0982432
0.12674797 -1.7445034 -2.1198211
0.15271163 -1.744827 -2.1371212
0.17340457 -1.7540225 -2.1549134
0.006550014 -1.7556261 -2.0344439
0.027056098 -1.7592783 -2.0434105
0.04557699 -1.7598664 -2.0542214
0.064703166 -1.756918 -2.0671573
0.19947284 -1.7567339 -2.1450894
0.21778214 -1.7620132 -2.1620262
0.23153663 -1.7715394 -2.1735015
0.26303577 -1.7820982 -2.1797061
0.28442842 -1.7956642 -2.1780705
0.2877211 -1.8094397 -2.1905584
0.29537594 -1.829181 -2.1545167
0.29805285 -1.8383298 -2.1772633
0.29816276 -1.8595786 -2.1427839
0.30434173 -1.8672199 -2.1616342
0.29174262 -1.8752887 -2.1191401
-1.0599118 -1.6564034 -1.5686722
-1.0399973 -1.6556479 -1.5786587
-1.0043286 -1.6589618 -1.583598
-0.97542131 -1.6559358 -1.6002486
-0.94659233 -1.6549624 -1.6170347
-0.91770661 -1.6544473 -1.6337224
-0.89871913 -1.6541816 -1.6453149
-0.87024295 -1.6550071 -1.6627121
-0.84158283 -1.6559161 -1.6797906
-0.81182176 -1.6559693 -1.6949626
-0.78279489 -1.6554126 -1.7114055
-0.75460184 -1.6577069 -1.7292933
-0.71950793 -1.6646262 -1.7352279
-1.1138892 -1.6922493 -1.506485
-1.0864729 -1.6811118 -1.525718
-1.0543048 -1.6792718 -1.5335845
-1.0219841 -1.6707106 -1.5535891
-0.99736917 -1.6654634 -1.5715438
-0.96674985 -1.6634672 -1.5852293
-0.93705904 -1.6625428 -1.6005225
-0.90776604 -1.6620779 -1.6165049
-0.88782048 -1.6612866 -1.626438
-0.85808784 -1.6603138 -1.6416588
-0.82948762 -1.6606488 -1.658841
-0.8027485 -1.6631329 -1.6792473
-0.77383226 -1.6631029 -1.6958817
-0.7454446 -1.6636834 -1.7134326
-0.71804017 -1.6653991 -1.7326857
-0.70044875 -1.6665823 -1.7450509
-0.67107558 -1.6685843 -1.7625401
-0.6425457 -1.6715672 -1.7798475
-0.61421508 -1.6725445 -1.7974925
-0.58154607 -1.6765199 -1.8076309
-0.55321753 -1.6783688 -1.8252797
-0.52044225 -1.6831036 -1.8352339
-0.49166527 -1.6843287 -1.8521094
-0.46726018 -1.6864741 -1.8671296
-0.44440782 -1.6889031 -1.881453
-0.41590887 -1.691317 -1.8988142
-0.39251781 -1.6932721 -1.9250147
-1.0995438 -1.7072699 -1.4934428
-1.0740435 -1.6983244 -1.5041896
-1.0498304 -1.699563 -1.5067309
-0.37941915 -1.6984481 -1.9023272
-0.35244602 -1.705735 -1.920616
-0.32387722 -1.7099115 -1.939571
-0.29447615 -1.7089812 -1.9553618
-0.26585382 -1.7121049 -1.9725095
-0.24749172 -1.7153363 -1.985182
-0.21853435 -1.7159817 -2.0017452
-0.051277518 -1.7141229 -2.1123655
-0.021812141 -1.7134607 -2.1280529
-0.0030971169 -1.7140887 -2.1401138
-0.25381798 -1.7179186 -1.9516628
-0.23547447 -1.7189758 -1.9643676
-0.20799041 -1.7205993 -1.9834827
-0.18311572 -1.7245433 -2.0052679
-0.15358782 -1.725527 -2.0226965
-0.12506807 -1.7296147 -2.0400138
-0.093209326 -1.7352273 -2.0515554
-0.064282238 -1.7355969 -2.0681672
-0.034802675 -1.7322981 -2.0838304
-0.0089292526 -1.7250283 -2.1057391
0.010786235 -1.7241764 -2.1170921
0.040135384 -1.7241913 -2.1338651
0.071980178 -1.7376456 -2.1435144
0.10272586 -1.744578 -2.1566434
0.13559914 -1.7578709 -2.1667609
0.16461313 -1.7656033 -2.1783576
0.19891906 -1.777061 -2.1905255
0.22143316 -1.7804501 -2.1970315
0.25963134 -1.7978227 -2.2088673
0.29014969 -1.818671 -2.213202
0.30011392 -1.8504394 -2.1972187
-1.0655149 -1.6337513 -1.6228564
-1.0362672 -1.6333386 -1.6389171
-1.0075289 -1.6335143 -1.6558607
-0.89161575 -1.633108 -1.7219704
-0.87253642 -1.6333169 -1.7334038
-1.1434267 -1.6510291 -1.5592718
-1.1151807 -1.6465206 -1.5754414
-1.0860928 -1.6436367 -1.591779
-1.0569485 -1.6409373 -1.6080191
-1.0234772 -1.6407934 -1.6212124
-0.99498403 -1.6410289 -1.6341323
-0.9660458 -1.6430304 -1.6507291
-0.93713939 -1.6442039 -1.667381
-0.91801143 -1.644272 -1.6787301
-0.89279431 -1.6426611 -1.6973243
-0.86015701 -1.642812 -1.711962
-0.83107382 -1.6426189 -1.7283081
-0.80226851 -1.6448205 -1.7451348
-0.77764732 -1.646733 -1.7692094
-0.74902368 -1.6485255 -1.7863507
-0.73196715 -1.650682 -1.7970868
-0.70422494 -1.6548724 -1.8125439
-0.67000794 -1.6581771 -1.8274137
-0.64061654 -1.6599193 -1.8432214
-1.1836727 -1.6716741 -1.5229161
-1.1676605 -1.6661856 -1.5329
-1.1274096 -1.6678262 -1.5373163
-1.0999695 -1.6617701 -1.5490948
-1.0769725 -1.6570433 -1.563398
-1.0441397 -1.6520556 -1.5858335
-1.0256236 -1.6494787 -1.5982419
-0.8714819 -1.6496857 -1.6870975
-0.76476908 -1.6523926 -1.7469035
-0.73399937 -1.6568424 -1.7603278
-0.71724951 -1.6588578 -1.770555
-0.68628407 -1.6602094 -1.7888819
-0.65774906 -1.6633781 -1.8061806
-0.62905324 -1.6652441 -1.8231932
-0.60409522 -1.6659391 -1.8466872
-0.57540059 -1.6696005 -1.8637018
-0.55145085 -1.6713477 -1.880226
-0.52280891 -1.6723669 -1.9060519
-0.49388587 -1.6732811 -1.9226748
-0.47159803 -1.6783038 -1.9285479
-0.44188255 -1.6811571 -1.9438019
-0.41236591 -1.6833332 -1.9593927
-0.38284546 -1.6855109 -1.9749844
-1.2012702 -1.6896303 -1.5021549
-1.1872573 -1.6872606 -1.5055062
-1.1485168 -1.6924388 -1.5039912
-1.1242013 -1.6799217 -1.5221038
-0.53448641 -1.6758485 -1.8595592
-0.50967592 -1.6780143 -1.8775387
-0.47888786 -1.6812559 -1.8966974
-0.460109 -1.6842011 -1.9086483
-0.43151629 -1.6858218 -1.9258471
-0.40276963 -1.6883938 -1.9427714
-0.37120843 -1.6945083 -1.953517
-0.35331494 -1.6938385 -1.9838632
-0.31320018 -1.7008219 -1.9922407
-0.28858125 -1.7007923 -2.0118744
-0.26994914 -1.7041436 -2.0240796
-0.24126917 -1.7064177 -2.0411234
-0.21096259 -1.7073332 -2.0590389
-0.18424577 -1.7113794 -2.0757976
-0.15508175 -1.7105519 -2.0919991
-0.12773955 -1.7070795 -2.107121
-0.096702933 -1.7038124 -2.1243217
-0.066763639 -1.7036899 -2.1391883
-0.042670727 -1.7101114 -2.1549842
-0.33535135 -1.7054675 -1.9594448
-0.31611991 -1.7053721 -1.9706118
-0.27736902 -1.7061676 -1.9924544
-0.25654525 -1.711588 -2.0008633
-0.22744256 -1.7123243 -2.0171747
-0.19564736 -1.7157592 -2.0328994
-0.16897011 -1.7187246 -2.0493393
-0.14037961 -1.720641 -2.0665343
-0.11102366 -1.7214516 -2.0824108
-0.080721915 -1.7166446 -2.0993543
-0.054256558 -1.711782 -2.1175253
-0.02508384 -1.712755 -2.1337197
-0.0077669024 -1.7181231 -2.1500244
0.016734719 -1.7297235 -2.1655359
0.052227557 -1.7423372 -2.1753283
0.091811061 -1.7578754 -2.1853156
0.12019932 -1.771244 -2.1934342
0.15187627 -1.7798771 -2.2059677
0.18363029 -1.7908186 -2.2170064
0.20656765 -1.7975119 -2.2257872
0.24207711 -1.8100318 -2.2349763
0.25727516 -1.8235402 -2.2525387
0.27920151 -1.8309844 -2.2454076
0.29062682 -1.8501098 -2.2540817
0.29974627 -1.8509374 -2.2291391
0.30157077 -1.8591735 -2.2466648
-1.241408 -1.6478169 -1.5494359
-1.2088683 -1.6436027 -1.5597942
-1.1927166 -1.6384853 -1.57285
-1.1625053 -1.6339117 -1.5906905
-1.1327932 -1.6307473 -1.6059471
-1.1034408 -1.62894 -1.6218266
-1.0785599 -1.6255463 -1.6454511
-1.0500224 -1.6269529 -1.6627419
-1.0213275 -1.6278492 -1.6797605
-0.98837459 -1.6313503 -1.6894037
-0.95964122 -1.6314986 -1.7063553
-0.93982482 -1.6292393 -1.7165121
-0.91423935 -1.6269146 -1.7344682
-0.88640618 -1.6273177 -1.7574269
-0.85409808 -1.6333597 -1.7637393
-0.82133341 -1.6374147 -1.7781562
-0.79134452 -1.6407106 -1.7972397
-0.76484692 -1.6436051 -1.8137573
-0.74694943 -1.6439786 -1.8272347
-0.71915221 -1.6452425 -1.8458112
-0.6914866 -1.6466584 -1.8646158
-1.2854676 -1.6687716 -1.51455
-1.2634362 -1.6655718 -1.5208702
-1.2309413 -1.6613253 -1.5310084
-1.2022301 -1.6521978 -1.5482967
-1.1763878 -1.6540161 -1.5480163
-0.74446476 -1.6448963 -1.8229311
-0.70829904 -1.6500926 -1.8344259
-0.68094897 -1.6528389 -1.846364
-0.65198004 -1.6558404 -1.8629035
-0.62354195 -1.657129 -1.8803699
-0.59525037 -1.6611602 -1.8980827
-0.56598723 -1.6611803 -1.9149754
-0.53809714 -1.6656498 -1.932532
-0.5096215 -1.6670281 -1.9499297
-0.49051523 -1.669065 -1.9613134
-0.467125 -1.669023 -1.9875231
-1.2514325 -1.6815908 -1.5084723
-1.2206576 -1.6752181 -1.513495
-0.4784494 -1.674421 -1.9404148
-0.45405513 -1.6747998 -1.9648855
-0.42515683 -1.6758032 -1.9815472
-0.39496815 -1.6797971 -2.0005431
-0.36886412 -1.6845918 -2.0174906
-0.34193933 -1.6907781 -2.0301576
-0.30640125 -1.6945574 -2.0427396
-0.28685373 -1.6955566 -2.0533593
-0.26664776 -1.6988372 -2.0628381
-0.23388833 -1.6935627 -2.0950582
-0.20344055 -1.6897303 -2.1164567
-0.17650747 -1.6894504 -2.1291094
-0.14892292 -1.6907275 -2.1406415
-0.11291146 -1.6976407 -2.1523957
-0.33004493 -1.6955361 -2.016969
-0.3012715 -1.6956728 -2.0338545
-0.28311515 -1.6969461 -2.0468838
-0.25438607 -1.7001034 -2.0691013
-0.23046029 -1.6997122 -2.0828164
-0.20168483 -1.6991332 -2.0985901
-0.1669482 -1.6962459 -2.1125524
-0.1378445 -1.6960011 -2.1288657
-0.10855991 -1.6955438 -2.1448586
-0.086778641 -1.702456 -2.1632864
-0.045663953 -1.7160611 -2.1724324
-0.026637852 -1.7296175 -2.1808877
0.0039074421 -1.7407026 -2.191133
0.038007796 -1.7533995 -2.2023563
0.046499491 -1.7576168 -2.2044473
0.071419358 -1.7690625 -2.2112045
0.090909123 -1.7768757 -2.217248
0.10487378 -1.7848732 -2.2199788
0.13830125 -1.7948484 -2.2326281
0.16837686 -1.8046976 -2.2434261
0.18906051 -1.8096217 -2.2520852
0.1993891 -1.815397 -2.2541981
0.22179294 -1.8229377 -2.2621059
0.24864167 -1.8346593 -2.2697926
0.26511925 -1.8463697 -2.2714994
-1.2243028 -1.608726 -1.6310074
-1.1954141 -1.6077638 -1.6476902
-1.166536 -1.6073376 -1.6643914
-1.1376824 -1.6075903 -1.6811348
-1.1077183 -1.6097341 -1.6959549
-1.079924 -1.6084321 -1.7145329
-1.054531 -1.6053927 -1.7284929
-1.0200137 -1.6056073 -1.7483883
-0.99344313 -1.6085961 -1.764902
-1.314827 -1.6286631 -1.5654016
-1.2985992 -1.6244678 -1.5750217
-1.2665198 -1.6201158 -1.5929307
-1.2373703 -1.6165336 -1.6091613
-1.2094939 -1.6223779 -1.6053575
-1.1804757 -1.6191417 -1.6218163
-1.151381 -1.6164832 -1.6381422
-1.1224424 -1.6156198 -1.6547384
-1.0936934 -1.6164722 -1.6716629
-1.0650508 -1.6185881 -1.688772
-1.0358914 -1.6176004 -1.704986
-1.0068427 -1.6159953 -1.7213914
-0.97793806 -1.6154966 -1.7380464
-0.9633801 -1.6149044 -1.757311
-0.93462813 -1.6190701 -1.7742305
-0.9057101 -1.6219556 -1.7908623
-0.88038319 -1.6226382 -1.8092666
-0.85647684 -1.6271558 -1.8307834
-0.82681751 -1.6286654 -1.8469613
-0.79314411 -1.6319416 -1.8627695
-0.77400184 -1.6315373 -1.8740909
-0.74375641 -1.6362263 -1.8884269
-1.3447783 -1.6537781 -1.5290711
-1.3153017 -1.6477228 -1.5395364
-1.2792555 -1.6482718 -1.5438095
-1.2511382 -1.6345767 -1.5671694
-1.222532 -1.6300662 -1.5834606
-0.85634196 -1.6312313 -1.7943138
-0.83716792 -1.6339486 -1.8064027
-0.80922842 -1.634169 -1.8225743
-0.78008592 -1.6362791 -1.840152
-0.76085949 -1.6365993 -1.8513277
-0.73291445 -1.6411198 -1.8696481
-0.70769548 -1.6413747 -1.8926904
-0.67553675 -1.6467624 -1.903705
-0.6457324 -1.6466453 -1.9244605
-0.62096119 -1.6506069 -1.9335855
-0.59257627 -1.6501722 -1.9601737
-0.5606854 -1.6537657 -1.9716558
-0.5318054 -1.6562471 -1.9883534
-0.51308817 -1.6589062 -2.0004108
-0.4854961 -1.6643426 -2.0188653
-0.45762396 -1.6657312 -2.037782
-1.3011377 -1.6685529 -1.5171618
-0.60004336 -1.6559154 -1.928623
-0.58058375 -1.656599 -1.9394021
-0.55120981 -1.6582755 -1.9552436
-0.52158409 -1.660823 -1.9706495
-0.50145024 -1.6638536 -1.9802535
-0.4713496 -1.6680413 -1.9948404
-0.44307369 -1.6703242 -2.0164232
-0.41714579 -1.6738608 -2.0343943
-0.38813472 -1.6768121 -2.050868
-0.36301136 -1.6787213 -2.0696206
-0.33529985 -1.6804502 -2.0927935
-0.31636173 -1.676002 -2.1044686
-0.28645146 -1.6734784 -2.1193812
-0.25323308 -1.6754493 -2.1285644
-0.22414714 -1.6770324 -2.1449089
-0.19534326 -1.6811012 -2.1637778
-0.33883238 -1.6883032 -2.0544276
-0.31995726 -1.6907423 -2.0662193
-0.30069357 -1.6901737 -2.0773306
-0.27192831 -1.6885198 -2.0942264
-0.15641236 -1.692224 -2.1693337
-0.13532645 -1.7052187 -2.1838257
-0.10863572 -1.7124476 -2.1894743
-0.089567006 -1.7176198 -2.1956682
-0.064874947 -1.7305973 -2.2026398
-0.047188997 -1.7386959 -2.2074518
-0.0083211064 -1.7539394 -2.2197297
0.022808135 -1.7674685 -2.2286828
0.040559649 -1.7687378 -2.2232602
0.051978707 -1.7816358 -2.2390449
0.085867226 -1.795841 -2.2510343
0.12440217 -1.8098702 -2.2590704
0.15435576 -1.8228493 -2.2677114
0.16016304 -1.8376372 -2.2760313
0.18111312 -1.8265195 -2.2660024
0.21376097 -1.8436584 -2.2786727
-1.4010321 -1.6216557 -1.5590349
-1.369894 -1.6190604 -1.5718219
-1.3420532 -1.6131438 -1.5885916
-1.3133273 -1.6066096 -1.6072841
-1.2839499 -1.6046556 -1.6231203
-1.2544869 -1.6031227 -1.638808
-1.2394248 -1.5986133 -1.6571996
-1.2105141 -1.5984256 -1.6738443
-1.1817142 -1.5991369 -1.6906807
-1.1527953 -1.5989504 -1.7073112
-1.1213905 -1.6008096 -1.7174696
-1.0946325 -1.595873 -1.7400088
-1.065776 -1.5968633 -1.7567475
-1.0387889 -1.5992891 -1.7733433
-1.0092802 -1.6038604 -1.7923325
-0.98152089 -1.609268 -1.7887318
-0.95354307 -1.6122577 -1.8069922
-0.9256022 -1.6170936 -1.8253164
-0.89778036 -1.6177473 -1.8415935
-0.86806893 -1.6190073 -1.8591045
-0.84344673 -1.6200774 -1.8757639
-0.81510317 -1.623397 -1.9008037
-0.79548931 -1.6229872 -1.9113082
-0.77573729 -1.6224216 -1.9215811
-1.4240793 -1.6405874 -1.5322349
-1.3931693 -1.6358137 -1.5427177
-1.3634428 -1.6279194 -1.560648
-1.3378477 -1.629975 -1.5607958
-0.82220006 -1.6262587 -1.8686169
-0.80314577 -1.6285518 -1.8800929
-0.78373134 -1.6276864 -1.8909428
-0.75555253 -1.6302233 -1.9088584
-0.72670102 -1.6323341 -1.9256089
-0.69809246 -1.6340742 -1.9427724
-0.67280877 -1.6375747 -1.9588275
-0.64123827 -1.6394594 -1.9777361
-0.61258149 -1.6405854 -1.9948237
-0.58587396 -1.6444139 -2.0078697
-1.4063874 -1.6561534 -1.5222238
-1.3763119 -1.6567364 -1.5236317
-0.61791217 -1.6472147 -1.9595726
-0.57127023 -1.6489588 -1.9899894
-0.5478701 -1.6529007 -2.0161784
-0.5264498 -1.6557266 -2.0300593
-0.50083727 -1.6583004 -2.0459144
-0.47249162 -1.6612064 -2.0635335
-0.43938631 -1.6640764 -2.072916
-0.41103607 -1.6658026 -2.0905344
-0.38181275 -1.664196 -2.1066332
-0.35226631 -1.6607463 -2.1221802
-0.33451235 -1.6581181 -2.1348026
-0.30368334 -1.6613717 -2.1492276
-0.27080768 -1.668015 -2.1590044
-0.2463879 -1.6740472 -2.1782403
-0.23331338 -1.6808658 -2.1830235
-0.21160442 -1.689353 -2.1898992
-0.1913982 -1.6952187 -2.1984389
-0.16762215 -1.7082701 -2.2026808
-0.14841926 -1.7154491 -2.2089818
-0.11345297 -1.7291183 -2.2200565
-0.090832412 -1.7388499 -2.2266288
-0.059939206 -1.7539778 -2.2372189
-0.01833117 -1.7673705 -2.2452757
0.0072386861 -1.7802505 -2.2556498
0.034152329 -1.7922754 -2.2630968
0.072130382 -1.8118198 -2.272069
0.09957242 -1.8285872 -2.2817075
0.14265537 -1.8487881 -2.2890751
-1.4226261 -1.5863717 -1.6186767
-1.4037889 -1.5849056 -1.6305295
-1.3782049 -1.5811659 -1.6470071
-1.3465152 -1.5795326 -1.6647671
-1.3176086 -1.5800158 -1.6814191
-1.2888569 -1.5808023 -1.6983385
-1.2707016 -1.5822365 -1.7092873
-1.2400975 -1.5822037 -1.7269558
-1.2130001 -1.5821602 -1.7425714
-1.1829495 -1.5811589 -1.75954
-1.1507688 -1.5811824 -1.7780639
-1.1247084 -1.5842384 -1.7921017
-1.095203 -1.5863684 -1.8077167
-1.4727378 -1.6129379 -1.5720339
-1.4587067 -1.5987673 -1.5879571
-1.4231536 -1.5967228 -1.5973506
-1.3896382 -1.5977989 -1.6060197
-1.3606371 -1.5941461 -1.6225077
-1.3290174 -1.5905998 -1.6405435
-1.3026264 -1.5891964 -1.6554689
-1.2735598 -1.5882761 -1.6718432
-1.2501177 -1.5895703 -1.685811
-1.2258234 -1.591084 -1.7003608
-1.197018 -1.5916622 -1.7171879
-1.1702518 -1.5890269 -1.7317177
-1.1383303 -1.5860412 -1.7489763
-1.1096274 -1.5877455 -1.7659806
-1.0837044 -1.5908452 -1.7824028
-1.0570606 -1.5933082 -1.8083714
-1.0282602 -1.5973201 -1.825207
-1.0090266 -1.6009929 -1.8363732
-0.9847784 -1.599992 -1.8610933
-0.95588565 -1.6013381 -1.8781548
-0.92659986 -1.6033118 -1.8937641
-0.89647377 -1.6075932 -1.9083031
-0.86706614 -1.6093845 -1.9240873
-0.83734572 -1.6122608 -1.9393289
-0.81722903 -1.6152323 -1.9489625
-0.79822099 -1.6143514 -1.9605241
-1.5078269 -1.6248239 -1.5438513
-1.471542 -1.6253188 -1.5507963
-1.4388758 -1.619144 -1.5578632
-1.4169704 -1.6091752 -1.5760739
-1.3810476 -1.6062564 -1.5911405
-1.3608538 -1.6051785 -1.6006435
-0.99576247 -1.6061634 -1.813399
-0.96942019 -1.6074884 -1.8344921
-0.94080353 -1.6090819 -1.8516458
-0.91270512 -1.6095381 -1.8680229
-0.88368905 -1.6128664 -1.8861593
-0.85515833 -1.6150165 -1.9034623
-0.82638836 -1.6177245 -1.9203502
-0.8076328 -1.6182618 -1.9323413
-0.77531755 -1.6196587 -1.9505053
-0.75006735 -1.6231673 -1.9660805
-0.72162712 -1.6250644 -1.9808116
-0.68959773 -1.6294589 -1.9947819
-0.66398644 -1.6308101 -2.0126894
-0.63615787 -1.636435 -2.0356591
-0.6073432 -1.6370261 -2.0524697
-0.57881981 -1.6385542 -2.0697846
-0.56447423 -1.6408288 -2.0778263
-0.53030843 -1.6417164 -2.0969601
-0.50610512 -1.638705 -2.1122041
-0.47267407 -1.6360228 -2.1305721
-0.44367754 -1.6358997 -2.1470714
-0.41456401 -1.6368538 -2.1633601
-0.39747816 -1.6398757 -2.1748769
-1.4505057 -1.6396451 -1.5335269
-0.64437962 -1.6357677 -2.0054154
-0.62426257 -1.6387293 -2.0150559
-0.58988047 -1.6423973 -2.0296371
-0.56177747 -1.6474332 -2.0447755
-0.5448541 -1.6498741 -2.0554311
-0.51597148 -1.6505257 -2.0721276
-0.48731863 -1.6526769 -2.0892148
-0.45809859 -1.6510345 -2.1053267
-0.43138832 -1.647496 -2.1201406
-0.3999334 -1.6464045 -2.1380191
-0.37577355 -1.6469066 -2.1628959
-0.35400164 -1.6494975 -2.17079
-0.33457083 -1.6602005 -2.1900401
-0.3087799 -1.6640828 -2.1802976
-0.29357976 -1.6727796 -2.1971898
-0.25668389 -1.686904 -2.207022
-0.2476815 -1.6976559 -2.2228417
-0.2270574 -1.7025443 -2.2166646
-0.20010889 -1.712646 -2.2284539
-0.17783964 -1.7173597 -2.2203782
-0.15969819 -1.7292024 -2.2354672
-0.12899327 -1.7420074 -2.246973
-0.10236603 -1.7536658 -2.2545743
-0.070960104 -1.7672201 -2.2636702
-0.051755726 -1.7760518 -2.2688701
-0.027332425 -1.7871325 -2.2755837
-0.0069038868 -1.7979814 -2.2801456
-0.0010201931 -1.8132164 -2.2882113
0.031978846 -1.8164005 -2.2784991
0.065265059 -1.8255868 -2.2885833
0.083893299 -1.8406186 -2.2893169
-1.4492677 -1.5719192 -1.6425816
-1.4205495 -1.5713227 -1.6595597
-1.3921707 -1.569551 -1.6771255
-1.3630679 -1.5702872 -1.6934371
-1.2856681 -1.5715297 -1.7372954
-1.2568257 -1.5713637 -1.7540582
-1.227951 -1.5713096 -1.7707654
-1.4899052 -1.5953677 -1.6051471
-1.471616 -1.5783782 -1.6218354
-1.4416091 -1.5786282 -1.6293164
-1.4121591 -1.5779821 -1.6450272
-1.3886656 -1.571372 -1.6710544
-1.3600605 -1.5717014 -1.6882282
-1.3330057 -1.5730462 -1.7080874
-1.3041855 -1.5728434 -1.7248884
-1.2839777 -1.5728079 -1.7343675
-1.2545745 -1.5722157 -1.7501591
-1.21898 -1.5730698 -1.7724179
-1.1983825 -1.5744905 -1.7862704
-1.1696038 -1.5750973 -1.8031436
-1.1365396 -1.5804924 -1.8125939
-1.1040915 -1.5833085 -1.823112
-1.0762817 -1.5879407 -1.8416632
-1.0482118 -1.5924524 -1.8597641
-1.0289135 -1.5922506 -1.8708181
-0.99980903 -1.5914643 -1.8871272
-0.97392815 -1.5941195 -1.9031448
-0.94273126 -1.5958292 -1.9217045
-0.91397214 -1.5975881 -1.9386111
-1.4800606 -1.6059488 -1.5847176
-0.92829573 -1.6026599 -1.8967015
-0.90148628 -1.6050626 -1.916985
-0.8775171 -1.6053138 -1.9421889
-0.84911942 -1.6075073 -1.9597216
-0.83050799 -1.6101419 -1.9719623
-0.80184233 -1.611307 -1.9890347
-0.77288437 -1.6124516 -2.0060463
-0.74461198 -1.6149211 -2.0233467
-0.71277213 -1.6212337 -2.0349212
-0.6831426 -1.6238009 -2.0503166
-0.55184609 -1.6212318 -2.1342642
-0.52006781 -1.6215954 -2.1459379
-0.49051327 -1.6238914 -2.1614704
-1.4901932 -1.6210877 -1.5577879
-0.72056067 -1.6219834 -2.003927
-0.70410728 -1.6252269 -2.0199132
-0.67670447 -1.6269424 -2.0391653
-0.65168941 -1.6298915 -2.0625606
-0.62560189 -1.6316298 -2.0782533
-0.59412318 -1.6308619 -2.0962911
-0.57015079 -1.6335502 -2.0992463
-0.5377273 -1.6349871 -2.1098099
-0.51206934 -1.6258759 -2.1320841
-0.48480564 -1.6277556 -2.1515846
-0.45840693 -1.6295958 -2.1725833
-0.43348444 -1.6341276 -2.1858702
-0.39263564 -1.6477069 -2.1952372
-0.37344927 -1.662457 -2.203347
-0.34280807 -1.672315 -2.2144659
-0.30395943 -1.6870674 -2.2270601
-0.27610022 -1.6994432 -2.234894
-0.2541095 -1.7087753 -2.2413692
-0.24245209 -1.7159313 -2.2433288
-0.20959115 -1.7277888 -2.254396
-0.17097193 -1.7435591 -2.2661793
-0.14426935 -1.7558051 -2.273432
-0.11572093 -1.769652 -2.2806835
-0.087420344 -1.7857993 -2.2864218
-0.049138427 -1.8006122 -2.2865789
-0.012413144 -1.8172436 -2.2896879
-1.4665898 -1.5543898 -1.694824
-1.4475447 -1.5546385 -1.7063168
-1.4192386 -1.5553131 -1.7240084
-1.3908129 -1.5558494 -1.741493
-1.3717135 -1.5560354 -1.7528918
-1.3334577 -1.5563408 -1.7755893
-1.3143388 -1.5565041 -1.7869544
-1.4837435 -1.5710096 -1.6529398
-1.4631253 -1.561795 -1.6665837
-1.4343817 -1.561548 -1.6835178
-1.405584 -1.5621842 -1.7003579
-1.3769114 -1.5637338 -1.7174147
-1.3480573 -1.5640006 -1.7341576
-1.3184512 -1.5606985 -1.7495973
-1.2994688 -1.5618458 -1.7611988
-1.2708187 -1.5657108 -1.7793071
-1.2430081 -1.56577 -1.7953755
-1.2137898 -1.5676743 -1.8129566
-1.1849328 -1.5679078 -1.8296943
-1.1566706 -1.5721676 -1.8474618
-1.1282146 -1.5749309 -1.8648944
-1.0994482 -1.5770726 -1.8817888
-1.0711349 -1.5782145 -1.8994681
-1.0449476 -1.5825423 -1.8985901
-1.5121534 -1.597542 -1.6220124
-1.1167643 -1.5798846 -1.8450619
-1.0897937 -1.5821013 -1.8650668
-1.0612386 -1.5824884 -1.8823272
-1.0387897 -1.5842601 -1.8988315
-1.0156248 -1.5866272 -1.9145207
-0.98655033 -1.5859917 -1.9308816
-0.95837939 -1.5896649 -1.9488078
-0.93001938 -1.5918612 -1.9664057
-0.89789629 -1.5977261 -1.9774866
-0.86948049 -1.5991403 -1.994988
-0.85066342 -1.6004132 -2.0068727
-0.81405115 -1.603158 -2.016783
-0.78861725 -1.6065137 -2.032851
-0.76455951 -1.6089845 -2.0504839
-0.73615372 -1.6108736 -2.0754192
-0.70774335 -1.6114258 -2.0929263
-0.6789881 -1.6115834 -2.1098433
-0.64860463 -1.609859 -2.1239367
-0.61788762 -1.6077496 -2.1374524
-0.59879148 -1.6079377 -2.1488535
-0.57056785 -1.6087091 -2.1666915
-0.54127252 -1.6082393 -2.1826656
-0.52576077 -1.6125702 -2.2002828
-0.74763608 -1.6116724 -2.050823
-0.72368038 -1.6162895 -2.0538149
-0.69517881 -1.6176096 -2.0711639
-0.66705394 -1.6217396 -2.0891728
-0.64149392 -1.6225549 -2.1041784
-0.60930777 -1.6171575 -2.1225915
-0.58948779 -1.61537 -2.1327391
-0.56449199 -1.6122625 -2.1561677
-0.53149986 -1.6152771 -2.1657388
-0.5017823 -1.6184752 -2.1809893
-0.48011297 -1.6290233 -2.1937103
-0.43996888 -1.6445761 -2.2065189
-0.40194142 -1.6596243 -2.2184417
-0.38379592 -1.6710995 -2.2212679
-0.35075504 -1.6809728 -2.2337618
-0.31946927 -1.6937771 -2.2432888
-0.30375302 -1.700634 -2.2477911
-0.29305977 -1.7089738 -2.256856
-0.26019073 -1.7198963 -2.2601004
-0.25277883 -1.7246429 -2.2612154
-0.21807337 -1.7368433 -2.2731187
-0.18776608 -1.749697 -2.2820475
-0.15944648 -1.7655976 -2.2877977
-0.14283401 -1.7796009 -2.2931845
-0.12463218 -1.7892628 -2.2887788
-1.485541 -1.5505942 -1.7276484
-1.4689163 -1.5483766 -1.7345734
-1.4357406 -1.5438443 -1.7525908
-1.4068227 -1.5422741 -1.7692226
-1.378402 -1.5468463 -1.7867162
-1.3497406 -1.5489709 -1.8037922
-1.3303638 -1.54819 -1.8147105
-1.3071054 -1.5501993 -1.8298609
-1.2758067 -1.5530518 -1.8536538
-1.505277 -1.5687922 -1.7012926
-1.4861317 -1.5565667 -1.701362
-1.4514834 -1.5531251 -1.7131388
-1.4226671 -1.5528687 -1.7299469
-1.393662 -1.5532665 -1.7464278
-1.3605099 -1.5557965 -1.7631395
-1.3352001 -1.5556266 -1.7786072
-1.3088559 -1.556713 -1.7930931
-1.2874566 -1.5576187 -1.8115608
-1.2622712 -1.5571769 -1.8302096
-1.2335376 -1.5605239 -1.8471609
-1.204794 -1.5617247 -1.864095
-1.1793221 -1.563646 -1.8822477
-1.1507421 -1.5647769 -1.903913
-1.1223878 -1.5669606 -1.9215213
-1.0995253 -1.5696088 -1.935895
-1.0746474 -1.5691324 -1.9500316
-1.0485559 -1.5729519 -1.9641459
-1.0147361 -1.5760008 -1.9797008
-1.5234971 -1.5927825 -1.6599517
-1.5085475 -1.5803519 -1.6744324
-1.1580633 -1.5687717 -1.8721141
-1.138412 -1.5701259 -1.8825568
-1.1088992 -1.5722823 -1.8981586
-1.0791587 -1.5752275 -1.9133656
-1.0603155 -1.5770904 -1.9231732
-1.0308776 -1.5794542 -1.9409394
-1.0020074 -1.5793073 -1.957654
-0.97750068 -1.5828266 -1.9819269
-0.94860709 -1.5836904 -1.9986006
-0.91968775 -1.5865724 -2.0152307
-0.8909716 -1.5889244 -2.0348761
-0.87668312 -1.5893893 -2.05194
-0.84805298 -1.5914401 -2.0690739
-0.81657362 -1.5952566 -2.0812728
-0.78717375 -1.5970283 -2.0970657
-0.75810158 -1.5976528 -2.1134341
-0.7320984 -1.5920688 -2.1351104
-0.70465434 -1.5877092 -2.150599
-0.67632031 -1.5882863 -2.1671164
-0.64550412 -1.589859 -2.1852853
-0.6227895 -1.5993589 -2.1904192
-0.60179257 -1.6053677 -2.1985359
-1.5252793 -1.5961925 -1.6418211
-0.85652333 -1.5953165 -2.0285115
-0.83283651 -1.5985808 -2.0427182
-0.80418122 -1.5998499 -2.0598085
-0.77553034 -1.6025512 -2.0768988
-0.74697852 -1.605167 -2.0941684
-0.71776623 -1.6048665 -2.1102865
-0.68800509 -1.6016898 -2.1254611
-0.65899742 -1.598083 -2.1419373
-0.6304847 -1.5996695 -2.159271
-0.61126065 -1.5998106 -2.1704507
-0.58491069 -1.6073279 -2.1960368
-0.55355513 -1.6167948 -2.2039397
-0.53089637 -1.6200432 -2.2148561
-0.51088578 -1.6311642 -2.2189951
-0.48808265 -1.6391413 -2.2246454
-0.46604538 -1.6530545 -2.2302902
-0.44533497 -1.6592408 -2.235178
-0.4306004 -1.6692419 -2.2449059
-0.40213031 -1.6802361 -2.2510324
-0.36316597 -1.6960937 -2.2614346
-0.33486694 -1.7071565 -2.2699583
-0.30506611 -1.7198081 -2.2787297
-0.26904392 -1.7370781 -2.2880135
-0.22953922 -1.7528336 -2.296447
-0.19857663 -1.7722801 -2.3010986
-0.17222339 -1.781288 -2.2996116
-0.16815788 -1.791519 -2.3024001
-1.4061533 -1.5298837 -1.8347831
-1.5167599 -1.5606524 -1.7297405
-1.5110027 -1.551899 -1.7450615
-1.4780233 -1.5426916 -1.7655244
-1.4506102 -1.5371394 -1.7783456
-1.4213579 -1.5348047 -1.7943983
-1.393263 -1.5369066 -1.8124564
-1.3647938 -1.5398667 -1.8298651
-1.3454791 -1.5399178 -1.840891
-1.3189837 -1.5427996 -1.8571841
-1.2886908 -1.5467703 -1.8759698
-1.2561772 -1.5506918 -1.886374
-1.2230917 -1.553403 -1.8957874
-1.1995963 -1.5551621 -1.9173634
-1.1666247 -1.5608377 -1.9322619
-1.1402056 -1.5601935 -1.9473526
-1.1117425 -1.5637649 -1.9698025
-1.093383 -1.5648049 -1.9824826
-1.0652041 -1.5656266 -2.0003948
-1.0368102 -1.5661997 -2.0179341
-1.018388 -1.5671676 -2.0305061
-0.75054598 -1.5692458 -2.189301
-1.5268705 -1.5825782 -1.7132419
-1.1666178 -1.5613788 -1.9314106
-1.1279153 -1.5620099 -1.9533348
-1.1076995 -1.56532 -1.9627998
-1.0882181 -1.5660859 -1.9735367
-1.0525619 -1.5700969 -1.9859109
-1.0254822 -1.5725745 -1.9983135
-0.99701321 -1.5757796 -2.0157237
-0.96779323 -1.5759082 -2.031832
-0.93782842 -1.5790195 -2.0507259
-0.91111708 -1.5813515 -2.0671048
-0.89208376 -1.5827603 -2.0786147
-0.86353302 -1.5848109 -2.0958862
-0.83461452 -1.5857968 -2.1125205
-0.80540586 -1.585403 -2.1286447
-0.77241063 -1.5809743 -2.1467202
-0.74699193 -1.5782266 -2.1609068
-0.71795106 -1.5786593 -2.1773291
-0.6930145 -1.5817126 -2.190753
-0.82254446 -1.5925485 -2.0916145
-0.79451561 -1.593541 -2.1097822
-0.76467562 -1.5924462 -2.1248207
-0.65587676 -1.5959326 -2.2032514
-0.636751 -1.6001593 -2.2133386
-0.602229 -1.6149747 -2.2215302
-0.58745635 -1.6184328 -2.2277539
-0.56945097 -1.6284485 -2.231472
-0.53495687 -1.6379144 -2.2480197
-0.50046134 -1.6542981 -2.2540703
-0.47117782 -1.6686363 -2.2614183
-0.44489348 -1.6802249 -2.2688677
-0.41367793 -1.694213 -2.2775648
-0.37712157 -1.7091705 -2.2886992
-0.3498432 -1.7219955 -2.295898
-0.31903297 -1.7413955 -2.3054838
-0.29148996 -1.7532556 -2.308748
-0.28157097 -1.7583407 -2.3110847
-0.25825417 -1.7707847 -2.3116381
-0.23171461 -1.7898335 -2.3136923
-1.4265798 -1.5243068 -1.8643682
-1.3964018 -1.5253139 -1.8823158
-1.3763124 -1.5265563 -1.8942958
-1.3588288 -1.5273972 -1.908493
-1.5471923 -1.5443724 -1.7823312
-1.528733 -1.540107 -1.7846674
-1.5006875 -1.53713 -1.7983629
-1.4693667 -1.5339967 -1.8141332
-1.4423242 -1.5301079 -1.8307132
-1.4104298 -1.5285399 -1.84219
-1.3797905 -1.5310842 -1.8558402
-1.3619975 -1.5335345 -1.8671297
-1.3369384 -1.5342226 -1.8928175
-1.3079075 -1.5380393 -1.909254
-1.2827786 -1.540403 -1.9280009
-1.2547369 -1.5424557 -1.9505985
-1.225596 -1.5419176 -1.9668442
-1.1984613 -1.5448321 -1.9838389
-1.1669911 -1.548968 -1.9987767
-1.1371115 -1.5523953 -2.0137429
-1.1174439 -1.5538064 -2.0241573
-1.0983396 -1.5532657 -2.0355475
-1.5709033 -1.5834944 -1.7441649
-1.5490496 -1.5629675 -1.7519492
-1.5302082 -1.5472922 -1.7605345
-1.2609649 -1.5459063 -1.9169062
-1.2393314 -1.5496106 -1.9239153
-1.207985 -1.5498557 -1.9437544
-1.1819776 -1.5522461 -1.9580146
-1.154292 -1.5532075 -1.9742632
-1.1249914 -1.5573509 -1.9927503
-1.1060237 -1.5593321 -2.0043769
-1.0774199 -1.5595486 -2.026001
-1.0520333 -1.5612419 -2.0443015
-1.0199196 -1.563482 -2.0585759
-0.99142337 -1.5677445 -2.0728376
-0.96242464 -1.5707756 -2.0892532
-0.93344653 -1.5707648 -2.1057804
-0.91759455 -1.5681491 -2.1228006
-0.88899565 -1.5668221 -2.1409695
-0.85327566 -1.5664735 -2.1525078
-0.82745945 -1.5655266 -2.1668427
-0.79715145 -1.5649694 -2.1873133
-0.77254015 -1.5696545 -2.1977448
-0.74161637 -1.5779167 -2.2129424
-1.5705338 -1.5855224 -1.7414217
-1.5419726 -1.5732574 -1.7364322
-0.95442462 -1.5736421 -2.0753965
-0.92552698 -1.5736684 -2.0920634
-0.90592539 -1.5748551 -2.1025891
-0.87643433 -1.5769309 -2.1182318
-0.84848535 -1.5736651 -2.1365454
-0.7320205 -1.5767977 -2.2016981
-0.69978797 -1.5927536 -2.2197447
-0.69463646 -1.6021518 -2.2360349
-0.6716609 -1.6079745 -2.2305903
-0.64773065 -1.6144122 -2.2401147
-0.61796665 -1.6271777 -2.2487886
-0.59037381 -1.6384803 -2.2571843
-0.55029267 -1.6490647 -2.2703032
-0.54200882 -1.6599354 -2.2856324
-0.51410121 -1.6656555 -2.2781608
-0.49084765 -1.6809132 -2.2893226
-0.45768452 -1.6958973 -2.2955146
-0.4292267 -1.7119095 -2.3052397
-0.39296448 -1.726102 -2.3087068
-0.35875088 -1.7356162 -2.3113265
-0.35353428 -1.74843 -2.314642
-0.32967252 -1.7633271 -2.3129156
-1.5395579 -1.534539 -1.8197342
-1.5232869 -1.5267386 -1.8375063
-1.4948831 -1.5282085 -1.8505806
-1.4606016 -1.5273712 -1.8623706
-1.4405899 -1.5216701 -1.8944288
-1.4107786 -1.5184375 -1.9095135
-1.3916583 -1.5192931 -1.9208757
-1.3587404 -1.5235289 -1.935028
-1.330881 -1.5271341 -1.9490453
-1.3028177 -1.5297658 -1.9627097
-1.2656904 -1.5347795 -1.9794104
-1.2415118 -1.5373598 -1.9944113
-1.2143914 -1.5385334 -2.0141568
-1.1854261 -1.538447 -2.0307069
-1.1585073 -1.5407236 -2.0508015
-1.5722349 -1.5596367 -1.7935609
-1.555209 -1.5496475 -1.8038373
-1.2114162 -1.5396308 -2.0090039
-1.1767309 -1.5441506 -2.0156465
-1.1479901 -1.5469013 -2.0325851
-1.1284963 -1.5490992 -2.0433006
-1.0998758 -1.5501605 -2.0604479
-1.0719161 -1.5546534 -2.0787394
-1.042974 -1.5545424 -2.09533
-1.0164895 -1.5558997 -2.1110988
-0.98565805 -1.5585994 -2.1294947
-0.95588231 -1.5556173 -2.1459763
-0.93702483 -1.5539283 -2.156455
-0.90795255 -1.5527924 -2.1728232
-0.87898231 -1.5527189 -2.1893678
-0.84758496 -1.5538476 -2.2067833
-1.5862485 -1.575722 -1.7694865
-0.97295523 -1.5668657 -2.1074927
-0.94417775 -1.5669957 -2.1243675
-0.8182354 -1.5672578 -2.2175889
-0.78720307 -1.576319 -2.229465
-0.74993205 -1.5920053 -2.2405257
-0.72024024 -1.6064881 -2.248013
-0.69410896 -1.6174324 -2.2558036
-0.65896779 -1.6288731 -2.2684653
-0.63331878 -1.6407148 -2.2753792
-0.60263187 -1.6532073 -2.2847679
-0.56903803 -1.6632329 -2.2974796
-0.54919595 -1.6710545 -2.3037212
-0.53585869 -1.6780856 -2.3067338
-0.50572795 -1.6943436 -2.3132915
-0.49256897 -1.7145581 -2.3207071
-0.47985607 -1.7095726 -2.3180757
-0.41507465 -1.743156 -2.319921
-1.5192258 -1.5187435 -1.893726
-1.4928102 -1.5164225 -1.9181577
-1.4595439 -1.5173281 -1.9272586
-1.4303739 -1.5140026 -1.9434533
-1.4111953 -1.5137098 -1.9547147
-1.3823388 -1.5147103 -1.9714532
-1.3535476 -1.5169307 -1.988305
-1.3292215 -1.5199143 -2.0134108
-1.2997887 -1.5226195 -2.0286305
-1.2705802 -1.5237223 -2.044759
-1.2408662 -1.5265749 -2.0600126
-1.2107937 -1.5306696 -2.074645
-1.181576 -1.531804 -2.0907576
-1.0175472 -1.5329012 -2.1847284
-0.98875475 -1.532563 -2.2015772
-1.5607393 -1.5487918 -1.8456948
-1.5438519 -1.5318811 -1.8667188
-1.4945776 -1.5250275 -1.876739
-1.4773487 -1.5239803 -1.8913773
-1.310962 -1.5236044 -1.988677
-1.2829242 -1.5276345 -2.0048685
-1.25669 -1.5296304 -2.0207005
-1.2280082 -1.5313348 -2.0377419
-1.2000257 -1.5345546 -2.0559943
-1.1713043 -1.5361861 -2.0729666
-1.1521385 -1.5398307 -2.0842502
-1.1233892 -1.5413338 -2.1011744
-1.0946068 -1.5417968 -2.1180408
-1.0662196 -1.5434418 -2.1329362
-1.0348763 -1.5428454 -2.1492195
-1.0045403 -1.5426141 -2.1621997
-0.97573292 -1.5419048 -2.1790228
-0.95944703 -1.5405343 -2.1952913
-0.93190658 -1.5425225 -2.21013
-0.89563906 -1.5508194 -2.2248468
-1.5988691 -1.5763199 -1.7904999
-1.5885704 -1.5665039 -1.8128755
-1.5715314 -1.5598245 -1.8321083
-0.86736214 -1.5638814 -2.2359562
-0.83826447 -1.5737724 -2.2461617
-0.79766762 -1.5891988 -2.2582462
-0.76917255 -1.6037791 -2.2660475
-0.75254142 -1.6106918 -2.2710409
-0.73599494 -1.6186318 -2.275301
-0.70646721 -1.632463 -2.283128
-0.67408061 -1.6411493 -2.2910929
-0.65193164 -1.6548865 -2.3026309
-0.61706573 -1.6698561 -2.3098154
-0.58245379 -1.6822184 -2.3218999
-0.5527764 -1.6897334 -2.3287385
-0.52880383 -1.7066574 -2.3312964
-0.50399476 -1.7206919 -2.3263779
-1.5275375 -1.5115143 -1.9335916
-1.5071956 -1.5080801 -1.9430739
-1.4796779 -1.5118272 -1.9617358
-1.4487497 -1.5123537 -1.9798266
-1.430847 -1.5098788 -1.9887527
-1.4018068 -1.508597 -2.005173
-1.3698587 -1.510733 -2.0246406
-1.3447779 -1.5127252 -2.0398347
-1.3159469 -1.5134641 -2.0566173
-1.2919445 -1.5161786 -2.0743501
-1.0897629 -1.5177425 -2.1986108
-1.0705475 -1.5177938 -2.2098076
-1.0500152 -1.5163251 -2.2187243
-1.5521245 -1.5363325 -1.9034535
-1.542523 -1.5268723 -1.9153038
-1.3021415 -1.5217788 -2.0327058
-1.2742245 -1.5215086 -2.0584846
-1.2509325 -1.5228922 -2.0774479
-1.2227389 -1.5254531 -2.0953345
-1.1937424 -1.526407 -2.1118302
-1.1747816 -1.5274386 -2.1234691
-1.1463016 -1.5291241 -2.1408598
-1.1173757 -1.528615 -2.1574779
-1.0882879 -1.5261588 -2.173816
-1.059237 -1.5252963 -2.1902173
-1.0300604 -1.5253496 -2.2064018
-0.99969661 -1.5269216 -2.2205291
-0.98551404 -1.5332868 -2.2352939
-1.5811571 -1.5630592 -1.8694357
-0.94343203 -1.5488167 -2.2457685
-0.91573644 -1.5630991 -2.2530277
-0.89199352 -1.5667272 -2.2583368
-1.606171 -1.5732667 -1.847627
-0.87202823 -1.5810789 -2.2662764
-0.84692514 -1.5848993 -2.2697508
-0.82824206 -1.5993168 -2.2793975
-0.80751932 -1.6043873 -2.2879817
-0.79312551 -1.6130517 -2.2905157
-0.75886077 -1.6232829 -2.2956166
-0.74026453 -1.6371965 -2.3049383
-0.71857935 -1.6469558 -2.3109522
-0.68862259 -1.661064 -2.3188422
-0.66190636 -1.6751229 -2.3248944
-0.64792967 -1.6872232 -2.3304207
-0.62261641 -1.7021672 -2.3235574
-0.60131598 -1.6998137 -2.3311481
-0.55856949 -1.7206137 -2.3460701
-1.5401608 -1.5212332 -1.9500982
-1.5257982 -1.5104904 -1.9752945
-1.4980106 -1.5051793 -1.9867473
-1.4669948 -1.5093648 -2.0068824
-1.4474391 -1.5075418 -2.0174909
-1.4179606 -1.5036209 -2.0323215
-1.3873973 -1.5032383 -2.0498199
-1.360543 -1.5073522 -2.0671408
-1.3319348 -1.5086346 -2.0843091
-1.3033656 -1.5109947 -2.1015449
-1.2711068 -1.5153921 -2.112391
-1.2421813 -1.5153868 -2.1290097
-1.2136952 -1.5173936 -2.1463895
-1.19426 -1.5169868 -2.1572068
-1.1649572 -1.5152756 -2.173172
-1.135887 -1.5144186 -2.1895404
-1.1097546 -1.5113928 -2.2065494
-1.0824809 -1.5139558 -2.2304769
-1.042172 -1.5229309 -2.2371001
-1.5648869 -1.545687 -1.9195204
-1.5532123 -1.5343503 -1.9338182
-1.0132014 -1.5368611 -2.2439198
-0.99122 -1.5411278 -2.2537665
-0.96961391 -1.5544108 -2.2573853
-1.5839853 -1.562022 -1.8986663
-0.94600749 -1.5599456 -2.2673247
-0.92627931 -1.5710849 -2.2712886
-0.90222645 -1.5790883 -2.2798395
-0.88220644 -1.5903274 -2.2839057
-0.85777175 -1.5980026 -2.2928963
-0.83847606 -1.6083721 -2.2971234
-0.81775939 -1.6134214 -2.3057182
-0.80158496 -1.623301 -2.30847
-0.77044392 -1.6366098 -2.3175771
-0.75194311 -1.6569996 -2.3251662
-0.73018503 -1.6607107 -2.324753
-0.7034651 -1.6765261 -2.3283203
-1.4171743 -1.4940939 -2.0985096
-1.3909628 -1.4926518 -2.1198297
-1.2779835 -1.4912416 -2.1910212
-1.2496603 -1.4918962 -2.208683
-1.5440252 -1.5217056 -2.0068645
-1.5159851 -1.5044037 -2.0236855
-1.4857473 -1.5003263 -2.0393627
-1.4666593 -1.5023855 -2.0507815
-1.4376028 -1.4995964 -2.0671732
-1.4041313 -1.4968417 -2.0759184
-1.3756883 -1.5002453 -2.0933731
-1.3510768 -1.5018514 -2.1174641
-1.3221381 -1.5037147 -2.1340599
-1.2932494 -1.5045938 -2.150743
-1.2643592 -1.5018229 -2.1674232
-1.2351115 -1.5001642 -2.1834836
-1.215902 -1.5002415 -2.1946917
-1.1870948 -1.5013068 -2.2115157
-1.1573123 -1.5016259 -2.22665
-1.1358562 -1.5080819 -2.2437592
-1.1009445 -1.5220363 -2.2624569
-1.5619068 -1.5382679 -1.9736367
-1.5389667 -1.5181314 -1.992397
-1.1103011 -1.5118581 -2.234184
-1.0912676 -1.5182718 -2.2507827
-1.0619819 -1.5346847 -2.2616913
-1.0443418 -1.5396185 -2.2685869
-1.6077521 -1.567827 -1.9393243
-1.5857927 -1.5596515 -1.9442136
-1.5639535 -1.5416255 -1.9524225
-1.0290024 -1.548851 -2.2712879
-1.0037438 -1.5563352 -2.2808819
-0.97989166 -1.5707098 -2.2900126
-0.95946717 -1.5673292 -2.2842872
-0.94648373 -1.5808614 -2.2975898
-0.91434205 -1.5943199 -2.3071747
-0.89770877 -1.6033517 -2.3107564
-0.87025809 -1.6130972 -2.3201084
-0.85368872 -1.6224004 -2.3234725
-0.83337331 -1.6368229 -2.333709
-0.81048942 -1.6498979 -2.3332908
-0.78133869 -1.6492865 -2.3347013
-0.76076591 -1.6688782 -2.3313079
-1.5053157 -1.4960604 -2.0710075
-1.4857552 -1.4943334 -2.0838563
-1.4616995 -1.493412 -2.1044621
-1.4323796 -1.4910426 -2.124846
-1.4070098 -1.4874123 -2.1476238
-1.3738886 -1.4894803 -2.1569753
-1.3449334 -1.4892118 -2.1735425
-1.3153715 -1.4862363 -2.1890597
-1.2901868 -1.4828631 -2.2121577
-1.2610893 -1.4817215 -2.2284787
-1.2384484 -1.4873214 -2.2337432
-1.2038535 -1.4960173 -2.2456014
-1.5546069 -1.5294577 -2.0251927
-1.5343812 -1.5143517 -2.0469406
-1.1746702 -1.5112091 -2.2567148
-1.1442134 -1.5195694 -2.2687256
-1.1110586 -1.5314085 -2.2799749
-1.5815411 -1.5529386 -1.9939762
-1.56335 -1.5370209 -2.0151029
-1.0999384 -1.5370209 -2.2826536
-1.0775422 -1.5474331 -2.2886426
-1.0531914 -1.5562812 -2.2968028
-1.0444889 -1.5618548 -2.2981114
-1.0164552 -1.5713909 -2.3079393
-0.99007797 -1.5835403 -2.3150685
-0.95885205 -1.5957366 -2.324966
-0.92792541 -1.6091737 -2.3338633
-0.91320133 -1.6297332 -2.3375905
-0.88879222 -1.6330104 -2.3430459
-1.4264737 -1.4663727 -2.2035758
-1.4072062 -1.462853 -2.2139094
-1.3777065 -1.4615443 -2.2303073
-1.3567188 -1.4650831 -2.2416723
-1.5122771 -1.4981831 -2.1297939
-1.4799982 -1.4858658 -2.1450524
-1.4572005 -1.4833703 -2.1638763
-1.4256482 -1.4782763 -2.1754584
-1.3919257 -1.4751129 -2.1882164
-1.3628628 -1.4724658 -2.2045972
-1.3381569 -1.4705253 -2.2184298
-1.3093711 -1.4751784 -2.243062
-1.2854038 -1.4872924 -2.2581544
-1.2570895 -1.4925852 -2.2660306
-1.5378098 -1.520932 -2.0850587
-1.5268196 -1.5118276 -2.0974736
-1.5051805 -1.4928703 -2.1146345
-1.4621377 -1.4891657 -2.1319091
-1.2460667 -1.4959219 -2.2701702
-1.2240968 -1.5067961 -2.275605
-1.2001864 -1.5183178 -2.2866712
-1.5671732 -1.5378548 -2.056824
-1.5553839 -1.5267729 -2.0710182
-1.1854573 -1.5183258 -2.2753985
-1.1571736 -1.5337799 -2.2962537
-1.1262735 -1.5454289 -2.3063278
-1.5871387 -1.5554235 -2.0370593
-1.5774183 -1.548142 -2.0292227
-1.0999683 -1.5585737 -2.3159914
-1.0607667 -1.5733389 -2.3260579
-1.0289819 -1.5868295 -2.3348989
-1.0052135 -1.5978359 -2.341284
