# .PCD v0.7 - Point Cloud Data file format
VERSION 0.7
FIELDS x y z
SIZE 4 4 4
TYPE F F F
COUNT 1 1 1
WIDTH 1483
HEIGHT 1
VIEWPOINT 0 0 0 1 0 0 0
POINTS 1483
DATA ascii
-0.9764185 -0.7578454 1.8191078
-1.0605921 -0.78698456 1.5469954
-1.1164247 -0.77982467 1.5356026
-0.86593741 -0.84566402 1.8730025
-0.92798001 -0.84999847 1.8463099
-1.0573101 -0.84715092 1.5517592
-1.1032121 -0.85025847 1.5432961
-0.86250722 -0.91905379 1.8857381
-0.92292291 -0.91720784 1.8541046
-1.0581406 -0.91946054 1.5587049
-1.110932 -0.91626167 1.5478833
-0.86237037 -0.99396908 1.8881623
-0.92018282 -0.99843764 1.8635352
-1.0577052 -0.99885702 1.5667193
-1.1090791 -0.97313714 1.5536555
-0.86850768 -1.0633428 1.8938289
-0.92014331 -1.0676409 1.8724985
-1.0492572 -1.0610731 1.5743822
-0.82407188 -1.1358232 1.9118121
-0.87210745 -1.1336956 1.9005302
-0.92116767 -1.1084017 1.87309
-0.99422932 -1.1394812 1.599265
-1.0507178 -1.133078 1.5797138
-0.823928 -1.1979275 1.9114052
-0.85760969 -1.2195387 1.9073997
-0.99755406 -1.2206407 1.6089287
-1.0397806 -1.1995537 1.5936594
-0.8474955 -1.2837894 1.9010935
-0.99293828 -1.2830282 1.6371253
-0.83896148 -1.3472019 1.8975155
-0.95447439 -1.358459 1.6763191
-0.98849899 -1.3232312 1.6615275
-0.79561752 -1.426071 1.903435
-0.84492952 -1.4235826 1.9009554
-0.91342628 -1.4437481 1.7159654
-0.94651651 -1.4152921 1.705891
-0.74698758 -1.5264539 1.9619524
-0.79971313 -1.5013566 1.9253633
-0.90779501 -1.5034211 1.7379518
-0.74341631 -1.5758102 1.9600022
-0.80152738 -1.5797672 1.9269147
-0.85821253 -1.5935651 1.7733405
-0.89732403 -1.5716939 1.7579348
-0.74509335 -1.6133547 1.9477359
-0.77980465 -1.6365843 1.9135685
-0.82526791 -1.6488376 1.8688319
-0.85970271 -1.6304994 1.8096354
-1.0798752 -0.0061473548 1.8065028
-1.1231627 0.012865707 1.791881
-1.1679652 0.038396835 1.7300096
-1.2034905 0.029800326 1.6602812
-1.2366265 0.0013344139 1.605525
-1.1183643 -0.053697459 1.7772431
-1.1606593 -0.074126557 1.7581272
-1.2292868 -0.055379212 1.5788717
-1.2710857 -0.066994563 1.5738246
-1.1044028 -0.12742759 1.7480357
-1.1537035 -0.12795937 1.7412295
-1.2158101 -0.11577996 1.5648677
-1.2609406 -0.13511501 1.5551724
-1.1009965 -0.19467923 1.7421675
-1.1491127 -0.1993001 1.7366378
-1.2150564 -0.16777852 1.5493174
-1.2471633 -0.1977959 1.5393565
-1.0959526 -0.28471005 1.748428
-1.1382885 -0.27257735 1.7427527
-1.2527277 -0.27755636 1.51832
-1.0938761 -0.34379822 1.7552557
-1.1425146 -0.34861755 1.7506868
-1.2448313 -0.34141397 1.5028253
-1.2919238 -0.35130581 1.4962382
-1.0918787 -0.41020858 1.7651167
-1.2374359 -0.41096494 1.4928958
-1.2850999 -0.41441816 1.4892812
-1.0357511 -0.51681447 1.78334
-1.0883553 -0.49270201 1.7740827
-1.2364887 -0.4969213 1.4949853
-1.2825305 -0.47789299 1.4906055
-1.0403025 -0.5558902 1.7874982
-1.0876296 -0.56127042 1.7802179
-1.2272868 -0.56086791 1.5018713
-1.0400193 -0.6345607 1.7956556
-1.0874777 -0.62647617 1.7873304
-1.2271626 -0.62526304 1.5082014
-1.0400574 -0.70919192 1.8039763
-1.0804076 -0.69704765 1.7983544
-1.1736392 -0.73269117 1.522207
-1.2058718 -0.70514947 1.5166523
-1.0277672 -0.78865588 1.8143535
-1.1650048 -0.7864936 1.5277479
-1.2120972 -0.79007059 1.5230231
-1.0200582 -0.85611612 1.821229
-1.1612799 -0.85696191 1.5350964
-1.2029825 -0.85318756 1.5297174
-0.97019333 -0.92630434 1.8362916
-1.0264845 -0.92550343 1.8245387
-1.1583455 -0.92208207 1.5405791
-1.2048657 -0.9298771 1.5354599
-0.97058874 -1.0085473 1.8456964
-1.0193763 -1.0018003 1.8331656
-1.1564754 -1.0059104 1.5487118
-1.2077165 -0.97999734 1.5396358
-0.96500355 -1.0707431 1.8526199
-1.0211068 -1.0699701 1.8392513
-1.1548681 -1.0733935 1.5555111
-0.96063834 -1.1448859 1.8612366
-1.0182633 -1.1142737 1.8391482
-1.1063654 -1.1525035 1.5748906
-1.150897 -1.1364594 1.5656228
-0.90791368 -1.2166756 1.8925123
-0.97038388 -1.2182109 1.8645908
-1.0614575 -1.2438028 1.6270785
-1.1096475 -1.2150168 1.6137993
-0.90345836 -1.2802606 1.8965306
-0.96168947 -1.2860205 1.8698795
-1.0689508 -1.2865636 1.6564537
-1.3137038 -1.3052943 1.2878445
-1.3267422 -1.2875558 1.240283
-0.9077816 -1.360366 1.8989725
-0.95603681 -1.3488035 1.8760757
-1.0248891 -1.3762964 1.699761
-1.0539088 -1.34439 1.6857008
-1.3112316 -1.3474251 1.2809312
-1.3218794 -1.3520403 1.2374761
-0.90612274 -1.4438808 1.9120793
-0.95252305 -1.4250754 1.8894317
-1.0144188 -1.4337432 1.7256361
-1.3331895 -1.4086013 1.2379051
-0.85837609 -1.5280223 1.9313837
-0.9018389 -1.5136518 1.931608
-0.96733892 -1.5112363 1.7443464
-1.0154724 -1.5164042 1.741811
-0.85667694 -1.5695903 1.9307835
-0.89733809 -1.5855452 1.9257843
-0.97214645 -1.5893171 1.7673929
-1.0200607 -1.5596563 1.7519414
-0.89192164 -1.6338751 1.8967919
-0.93197161 -1.6518017 1.8439618
-0.9576813 -1.6262249 1.7997595
-1.2856849 0.051854655 1.7093732
-1.3242195 0.049098924 1.6692564
-1.1876267 0.0015161037 1.8024908
-1.233443 0.019275337 1.7754314
-1.255005 0.043564215 1.6774573
-1.3050346 0.030600086 1.6353209
-1.3339384 0.00041139126 1.593585
-1.2220814 -0.065596454 1.7582003
-1.2702128 -0.09884426 1.7369125
-1.336839 -0.071228035 1.5680633
-1.2209505 -0.13577257 1.7369359
-1.2693763 -0.13765293 1.7308801
-1.3263764 -0.13146399 1.5518104
-1.3761328 -0.14372261 1.5440927
-1.2156949 -0.20285532 1.7304099
-1.2628517 -0.20451435 1.7267513
-1.3156362 -0.196879 1.5359615
-1.3606695 -0.21039052 1.5296085
-1.2060555 -0.28489918 1.7388959
-1.2556026 -0.27369824 1.7316223
-1.3169534 -0.25554079 1.5201082
-1.3511468 -0.28463912 1.5092995
-1.2102798 -0.35155427 1.7469172
-1.3583539 -0.35296637 1.4927216
-1.1880836 -0.41901398 1.7564666
-1.3555101 -0.42106625 1.4858823
-1.1434978 -0.50403428 1.7693008
-1.192652 -0.49759239 1.7642121
-1.3367891 -0.50218642 1.491231
-1.1404083 -0.56969953 1.7771297
-1.1856616 -0.5617004 1.7714285
-1.3248614 -0.56667519 1.4976474
-1.142228 -0.63324219 1.781816
-1.1911964 -0.63583237 1.7793219
-1.2777046 -0.64960271 1.5080502
-1.3272196 -0.63198853 1.503408
-1.1393164 -0.71365362 1.7922933
-1.276046 -0.71950716 1.5127211
-1.3240626 -0.71302462 1.5091968
-1.4698592 -0.71758878 1.2835145
-1.4826553 -0.72518182 1.2582333
-1.0797744 -0.80588084 1.8087567
-1.1339917 -0.79305589 1.8008857
-1.2791359 -0.79474008 1.5185819
-1.3269572 -0.79338664 1.515045
-1.4899583 -0.79225433 1.2348942
-1.0859866 -0.86670816 1.8116388
-1.1335568 -0.85988766 1.8062901
-1.277565 -0.86115599 1.5248859
-1.0846086 -0.92851174 1.8152792
-1.1307461 -0.92998284 1.8117541
-1.2738224 -0.93071306 1.531132
-1.0754919 -1.0154804 1.8226945
-1.1239127 -1.0082058 1.8132875
-1.2547218 -1.0123056 1.5398254
-1.0777054 -1.0776597 1.8286231
-1.1229615 -1.0807182 1.8201531
-1.2153938 -1.0894605 1.5500976
-1.2489148 -1.0756664 1.5468643
-1.4930074 -1.1089647 1.1742728
-1.0734824 -1.1486292 1.831728
-1.1170264 -1.1210666 1.823373
-1.214031 -1.1605996 1.5721105
-1.2504781 -1.1333382 1.5599697
-1.4609017 -1.1628217 1.1993427
-1.4888283 -1.1468558 1.1541275
-1.0654683 -1.2225089 1.8372966
-1.1711097 -1.2349967 1.6421406
-1.2114917 -1.1987114 1.6092855
-1.4223131 -1.2466847 1.2669452
-1.4280964 -1.2243363 1.2023754
-1.4608257 -1.2239635 1.1343542
-1.5091163 -1.2445195 1.121084
-1.01104 -1.3042324 1.8564899
-1.0642111 -1.296263 1.8433453
-1.1403956 -1.306249 1.6843396
-1.1719221 -1.2804577 1.6757956
-1.3573461 -1.3080331 1.3066436
-1.3768556 -1.2842898 1.2635736
-1.4106952 -1.2941546 1.1790498
-1.4489187 -1.2909223 1.1292584
-1.5047357 -1.295693 1.1159818
-1.0043626 -1.3629997 1.862115
-1.0619018 -1.3625985 1.8463354
-1.1223364 -1.3675371 1.7107631
-1.3545108 -1.3491453 1.3018219
-1.3777255 -1.3739338 1.2619885
-1.4196733 -1.3672988 1.1960542
-1.455198 -1.3634311 1.1280979
-1.4996333 -1.3629558 1.1133314
-1.0065138 -1.44628 1.8746309
-1.0625796 -1.42951 1.8590533
-1.0774369 -1.4500985 1.7353593
-1.1203928 -1.4373 1.7339475
-1.3741249 -1.4345585 1.2602158
-1.4247241 -1.4432735 1.2042806
-1.4587719 -1.4416317 1.1365625
-1.495417 -1.4271939 1.1134633
-0.95355999 -1.5253863 1.9232297
-1.0037699 -1.5130595 1.9037616
-1.079019 -1.5239279 1.7417816
-1.1237831 -1.5143108 1.7392752
-1.4099226 -1.4927392 1.2510281
-1.4429653 -1.4997395 1.1903601
-1.45447 -1.5269215 1.1444175
-1.4880583 -1.5185746 1.1027659
-0.94987196 -1.584812 1.919095
-1.0002234 -1.5926758 1.9090166
-1.0344329 -1.6044189 1.7817407
-1.0777895 -1.5844607 1.7668244
-1.450731 -1.5911231 1.1468527
-1.4821461 -1.5969112 1.0989139
-0.99190617 -1.641093 1.8793235
-1.0302033 -1.6448151 1.8227839
-1.4589462 -1.6320254 1.1417139
-1.3362243 0.054890037 1.7323129
-1.3714354 0.057172149 1.6777894
-1.40374 0.054532036 1.65281
-1.298938 0.0066507459 1.7869354
-1.3383366 -0.024175271 1.7709541
-1.3973415 0.019490778 1.6052952
-1.4344499 -0.0097666681 1.5772603
-1.283576 -0.041668966 1.7649841
-1.3181049 -0.074119523 1.743227
-1.3886509 -0.046398371 1.5721751
-1.4230371 -0.081125997 1.5590503
-1.3174548 -0.14271188 1.7284181
-1.4224999 -0.13685882 1.5432041
-1.3123095 -0.20986243 1.7232513
-1.4269654 -0.20845491 1.524785
-1.3000685 -0.28958815 1.7296379
-1.4164822 -0.28907761 1.5040741
-1.4522586 -0.30130705 1.4980241
-1.2402306 -0.36801311 1.7454915
-1.2920805 -0.35406452 1.7387903
-1.395956 -0.34163502 1.4924111
-1.4367672 -0.35801175 1.4862731
-1.2555331 -0.42772084 1.751116
-1.2949382 -0.42654741 1.7460464
-1.431373 -0.42514107 1.4810553
-1.2573047 -0.50979495 1.7614806
-1.3946726 -0.50945002 1.4890337
-1.4341805 -0.5019967 1.4862639
-1.2503511 -0.57473969 1.7699245
-1.3965367 -0.56774461 1.494162
-1.4326324 -0.57029068 1.4921298
-1.2437757 -0.63791049 1.7746162
-1.394493 -0.64248067 1.4997355
-1.5115776 -0.67419273 1.3158565
-1.5344416 -0.66703266 1.2644529
-1.5801066 -0.66926432 1.2174987
-1.2042823 -0.74681211 1.7919371
-1.2281773 -0.71947181 1.7836354
-1.3820913 -0.71998978 1.5021675
-1.4342442 -0.73189974 1.4658242
-1.4646828 -0.73632586 1.3955094
-1.4763203 -0.71421534 1.3305959
-1.5123749 -0.7111721 1.236123
-1.5640682 -0.72074091 1.1995881
-1.6065257 -0.7368564 1.177451
-1.1863655 -0.80531365 1.7970539
-1.2233224 -0.8026045 1.7950345
-1.3821412 -0.80168533 1.5063813
-1.4376168 -0.78793693 1.4603368
-1.4709862 -0.77432829 1.385797
-1.4818406 -0.80118012 1.3204118
-1.4952259 -0.8027072 1.2379143
-1.5463696 -0.80057955 1.1892095
-1.5902245 -0.80050665 1.1676496
-1.1882744 -0.87215644 1.8047197
-1.2248702 -0.8618598 1.7992231
-1.3648293 -0.86950308 1.5169644
-1.4922146 -0.86038399 1.3041553
-1.494023 -0.86648017 1.2372198
-1.5410101 -0.86775202 1.1849089
-1.5907662 -0.87317491 1.1607347
-1.1870692 -0.94193089 1.810585
-1.233773 -0.92577255 1.8041263
-1.3339467 -0.96201718 1.529696
-1.3599172 -0.929775 1.5244138
-1.4975306 -0.93357301 1.304302
-1.4916689 -0.93388444 1.2455326
-1.5354574 -0.93493199 1.1811508
-1.5884988 -0.93776023 1.153934
-1.1790423 -1.0149429 1.8121915
-1.3223989 -1.0195403 1.5368207
-1.3608663 -1.0105718 1.5349549
-1.4939163 -1.0173866 1.2990885
-1.4891337 -1.0152994 1.239598
-1.5294031 -1.0169618 1.1740278
-1.5801595 -1.0181047 1.1460638
-1.1722128 -1.0839448 1.8148254
-1.3232231 -1.0837672 1.5490267
-1.5037549 -1.0734913 1.3052021
-1.4918518 -1.0856408 1.2434301
-1.521709 -1.0822327 1.1641234
-1.5683486 -1.0880026 1.1394221
-1.1669939 -1.1493227 1.8194125
-1.273055 -1.1835234 1.5964048
-1.30793 -1.1501193 1.5704494
-1.4855682 -1.1828809 1.2920129
-1.4812894 -1.1451721 1.2489445
-1.5590552 -1.1490532 1.1307275
-1.1149993 -1.2431442 1.8290939
-1.1541853 -1.2323145 1.8234637
-1.2370999 -1.249518 1.6682961
-1.2705867 -1.2122234 1.631804
-1.4523543 -1.2329935 1.2929296
-1.5621884 -1.2304769 1.1190302
-1.1216682 -1.3070536 1.8325093
-1.1548305 -1.3018878 1.8231103
-1.2167487 -1.2993654 1.7007697
-1.4173256 -1.3117261 1.3240883
-1.4351388 -1.2901514 1.328583
-1.5631287 -1.2998459 1.1097786
-1.1188687 -1.3714185 1.8403635
-1.1560627 -1.350176 1.8293855
-1.1980579 -1.3660429 1.7223164
-1.4245774 -1.339802 1.3337244
-1.4286908 -1.3869544 1.3183492
-1.5561004 -1.3660935 1.1016837
-1.1020622 -1.4470636 1.8702619
-1.1807778 -1.4434448 1.7364047
-1.4346678 -1.4504933 1.2968787
-1.5414712 -1.4486557 1.0967197
-1.5942758 -1.4634032 1.0768358
-1.0741123 -1.5260198 1.9096442
-1.1700158 -1.531545 1.7411327
-1.4407049 -1.5269428 1.26949
-1.4477619 -1.5320303 1.2169114
-1.5307767 -1.5286868 1.0835377
-1.5769107 -1.5295743 1.070442
-1.0656836 -1.5936468 1.903676
-1.1357019 -1.6044389 1.7835491
-1.1603708 -1.5782081 1.7611635
-1.4648268 -1.5891225 1.2188002
-1.5368848 -1.5944155 1.0814928
-1.586104 -1.5845584 1.0721178
-1.0577509 -1.6330378 1.8879197
-1.0968425 -1.6410167 1.8522604
-1.1296738 -1.6354482 1.8149472
-1.4697964 -1.6518104 1.1948378
-1.4782339 -1.6800215 1.1550221
-1.5221572 -1.6604215 1.1025127
-1.4947066 -1.7489049 1.1608231
-1.5206313 -1.7383927 1.1271418
-1.5010329 -1.8071128 1.1569937
-1.5275038 -1.7995828 1.1318278
-1.4985987 -1.853605 1.1775008
-1.4018302 0.051024005 1.7576702
-1.4261098 0.065472588 1.7124934
-1.4590842 0.057559147 1.6532727
-1.5097942 0.049088001 1.6236614
-1.3438382 0.015148208 1.7919736
-1.3907442 -0.0040641576 1.775815
-1.4510157 0.032546982 1.6093814
-1.5003494 0.0026552081 1.5799662
-1.3778162 -0.069452658 1.7387433
-1.4236002 -0.083353005 1.7282227
-1.4884425 -0.074328601 1.555367
-1.5384153 -0.09252698 1.5471423
-1.3659799 -0.13879892 1.7228981
-1.4141881 -0.14956561 1.7175484
-1.4742885 -0.1457155 1.537482
-1.5230622 -0.14981531 1.5346808
-1.3608267 -0.2208714 1.7205212
-1.4092811 -0.21691152 1.7164351
-1.4761646 -0.18660657 1.5274751
-1.5176948 -0.21597187 1.5170064
-1.364665 -0.29867423 1.7263855
-1.4122565 -0.29297203 1.7229609
-1.5136156 -0.29247931 1.4957604
-1.5496 -0.32581699 1.4843508
-1.3580561 -0.36336768 1.7346275
-1.4036088 -0.36616784 1.7301545
-1.5030906 -0.36339056 1.4806762
-1.5493287 -0.3661679 1.4777603
-1.3640523 -0.43256626 1.7426019
-1.4987245 -0.42998648 1.4773843
-1.5440481 -0.43341941 1.4751391
-1.341653 -0.51251364 1.756458
-1.5050865 -0.50868356 1.48248
-1.2953336 -0.59011644 1.7700787
-1.338949 -0.57719243 1.7641692
-1.4846714 -0.58020991 1.4898167
-1.2887094 -0.64794707 1.7723563
-1.3366081 -0.64742756 1.7694187
-1.4829121 -0.65224993 1.4879891
-1.5544182 -0.67073059 1.355587
-1.5918714 -0.64585292 1.2931132
-1.6232848 -0.64573795 1.2306786
-1.6623738 -0.66337615 1.2084824
-1.2928028 -0.72212374 1.7760782
-1.3406706 -0.73159903 1.7707912
-1.4729681 -0.70170057 1.4612374
-1.5185069 -0.70027506 1.4187609
-1.5510032 -0.69905519 1.3859684
-1.6183037 -0.69771689 1.1918507
-1.6551486 -0.72389483 1.1789334
-1.292202 -0.80794251 1.7899849
-1.4549754 -0.82766646 1.4481318
-1.5090467 -0.81815481 1.4092284
-1.5428869 -0.79254282 1.3568079
-1.5789233 -0.82618839 1.316659
-1.6539394 -0.80645657 1.1568664
-1.2916138 -0.87942195 1.7933657
-1.4203111 -0.87176406 1.5060192
-1.4683489 -0.87199378 1.4803081
-1.5089993 -0.85758519 1.4297259
-1.528187 -0.86658788 1.3172247
-1.5721203 -0.87543476 1.306655
-1.6532741 -0.87010115 1.1458478
-1.2342601 -0.96672428 1.8099632
-1.2730589 -0.94311339 1.8034911
-1.4290073 -0.9485653 1.522583
-1.4696004 -0.93108076 1.5170069
-1.5155003 -0.95693511 1.3236771
-1.5681458 -0.94255841 1.2988735
-1.6417254 -0.94105518 1.1370658
-1.6876662 -0.94859296 1.1303986
-1.2285714 -1.0205266 1.8104022
-1.2763597 -1.0214264 1.8064296
-1.4208119 -1.0223718 1.5336746
-1.5145741 -1.0208368 1.3221191
-1.570812 -1.0290005 1.2933183
-1.6251076 -1.0208038 1.1299151
-1.6713934 -1.0238359 1.1190569
-1.222876 -1.0877786 1.8084992
-1.2712126 -1.0909053 1.8043841
-1.3702234 -1.1012281 1.5509329
-1.409716 -1.0886021 1.545646
-1.5122041 -1.0863245 1.3119854
-1.5654315 -1.0920058 1.2833232
-1.6189797 -1.0901808 1.1228646
-1.6694613 -1.0924079 1.1108196
-1.2169071 -1.1662229 1.8151023
-1.2633649 -1.1530166 1.8092213
-1.3657434 -1.1704592 1.590149
-1.4107212 -1.1419544 1.5614629
-1.514097 -1.1621724 1.3118556
-1.5599831 -1.1593183 1.2825646
-1.6134336 -1.1548709 1.1166488
-1.6698042 -1.1582037 1.1019276
-1.2096628 -1.2396522 1.8167884
-1.2553452 -1.2355381 1.8104628
-1.298957 -1.2498168 1.7004352
-1.3301501 -1.217875 1.6484804
-1.3737274 -1.2030081 1.6354823
-1.5148916 -1.2306737 1.3405205
-1.5624087 -1.2153509 1.303708
-1.6127946 -1.2357321 1.1072519
-1.6604432 -1.2387457 1.0936213
-1.2156399 -1.3102673 1.8199083
-1.2557815 -1.2978941 1.8139646
-1.2851884 -1.3069496 1.721982
-1.4897759 -1.3008816 1.3530387
-1.61079 -1.2895341 1.1013099
-1.6495734 -1.3069539 1.0881159
-1.1740983 -1.412819 1.863215
-1.2075948 -1.3711302 1.843712
-1.2379167 -1.3836851 1.7306709
-1.2790289 -1.3696653 1.7290133
-1.4843224 -1.3693242 1.3480759
-1.6482072 -1.3771433 1.0786358
-1.1749372 -1.4530119 1.8887935
-1.2266302 -1.4562367 1.7356822
-1.2750698 -1.45439 1.7334867
-1.4957597 -1.4483597 1.3271399
-1.6461678 -1.4517139 1.0682795
-1.1171428 -1.5450878 1.9116156
-1.1624377 -1.5307466 1.9079919
-1.2321105 -1.5333933 1.7411439
-1.2757064 -1.5227289 1.7342085
-1.5025715 -1.5358464 1.306879
-1.6433653 -1.534263 1.0625213
-1.1568222 -1.6069511 1.88796
-1.191103 -1.6205013 1.810977
-1.2265246 -1.5953946 1.7787135
-1.4867501 -1.5631343 1.2953844
-1.5068748 -1.6067251 1.2745174
-1.6319172 -1.6012914 1.0725688
-1.1456823 -1.6413646 1.8507009
-1.1950872 -1.6426193 1.8267655
-1.5328022 -1.6577928 1.2437069
-1.5327418 -1.6953949 1.2196898
-1.5932325 -1.6788408 1.1086588
-1.6312461 -1.6560066 1.0965296
-1.5397148 -1.7522246 1.2110803
-1.5788622 -1.7484357 1.132338
-1.5265601 -1.8180341 1.2011936
-1.5621251 -1.8187333 1.1447382
-1.5377111 -1.8968608 1.2310843
-1.5280826 -1.8815565 1.1793604
-1.5794461 -1.8806335 1.1611335
-1.5333091 -1.993906 1.2264816
-1.544678 -1.9628727 1.1894023
-1.5282943 -2.020582 1.2252541
-1.5403651 -2.0229886 1.1987633
-1.4949739 -2.1826069 1.2689483
-1.4531517 0.045601547 1.7706039
-1.5020336 0.059634089 1.7534486
-1.5306304 0.074128017 1.691447
-1.5724964 0.058656424 1.6260843
-1.6176095 0.040793732 1.5933415
-1.4546032 0.0077899843 1.7778623
-1.4949913 -0.018365234 1.7532552
-1.556542 0.023174554 1.5832045
-1.6013989 -0.0092032403 1.5659605
-1.4779643 -0.087569758 1.7230868
-1.5262051 -0.085382909 1.7192739
-1.5970657 -0.083821706 1.5457517
-1.6359216 -0.11767229 1.533896
-1.4677551 -0.15612805 1.7128209
-1.509792 -0.15224993 1.7079794
-1.5901663 -0.15626132 1.5275972
-1.638155 -0.15802321 1.5229671
-1.4679531 -0.22098729 1.7147766
-1.514496 -0.22463104 1.7106663
-1.5813283 -0.22392562 1.5090162
-1.6296799 -0.22262472 1.5061709
-1.4724033 -0.30568388 1.7211441
-1.5141612 -0.27905485 1.7165653
-1.5638661 -0.27318591 1.4958122
-1.6171737 -0.30390912 1.484794
-1.4603199 -0.36788201 1.7276881
-1.6082143 -0.37032068 1.4731314
-1.4588878 -0.43769431 1.7368932
-1.6045871 -0.43681264 1.4720187
-1.410149 -0.51348758 1.7518849
-1.4575378 -0.52012271 1.7480643
-1.5429398 -0.54213661 1.4837303
-1.5994669 -0.51612198 1.4786515
-1.4094069 -0.59101635 1.7588625
-1.4568517 -0.57987612 1.7523432
-1.5497208 -0.5932216 1.4873542
-1.5940151 -0.58477157 1.4846292
-1.4070778 -0.65316784 1.7660162
-1.4506433 -0.65568417 1.7606678
-1.5473983 -0.63235956 1.4867077
-1.5886931 -0.65866941 1.4691336
-1.6260808 -0.68050086 1.4052342
-1.6599956 -0.64824784 1.3438261
-1.7002559 -0.6315316 1.2783371
-1.7249452 -0.66503477 1.2351331
-1.4089054 -0.734052 1.7654746
-1.5706789 -0.69539773 1.4373826
-1.5781561 -0.70261902 1.4105207
-1.6848205 -0.72923017 1.3373489
-1.7349215 -0.73286259 1.203885
-1.3899624 -0.81146467 1.7785692
-1.5747805 -0.82929277 1.4440917
-1.603202 -0.82003945 1.3903226
-1.6083821 -0.83895385 1.3394241
-1.7301185 -0.79842484 1.1795245
-1.7533976 -0.84281129 1.17643
-1.3468033 -0.89308345 1.7905564
-1.3880352 -0.87834638 1.7891185
-1.5415444 -0.89418304 1.4916514
-1.5613931 -0.8608824 1.4677031
-1.6402488 -0.86855513 1.3952186
-1.6217664 -0.88064951 1.343153
-1.7426918 -0.88348854 1.1632572
-1.3349007 -0.95129937 1.7990465
-1.386632 -0.9456833 1.7884088
-1.5276738 -0.94810033 1.5199698
-1.63464 -0.94303364 1.346453
-1.7477767 -0.95136052 1.1425542
-1.3388591 -1.0284529 1.8005695
-1.3846374 -1.0304461 1.7981756
-1.474509 -1.0406529 1.5347013
-1.5211476 -1.0273554 1.530731
-1.6263589 -1.031685 1.341019
-1.740617 -1.0302144 1.122797
-1.3359694 -1.0959884 1.8002919
-1.3828025 -1.102247 1.7952777
-1.4817716 -1.0969162 1.5436953
-1.5265386 -1.0938439 1.53965
-1.6300181 -1.0952179 1.3285398
-1.7512813 -1.0939671 1.1134962
-1.3338233 -1.1706116 1.8031912
-1.3790047 -1.1481594 1.7956911
-1.4430012 -1.1938052 1.6201017
-1.4799972 -1.1538649 1.5721145
-1.6158576 -1.1630023 1.3137424
-1.7378011 -1.1614025 1.1002369
-1.7763532 -1.1667967 1.1070888
-1.3249907 -1.2442856 1.8096519
-1.3541266 -1.2540518 1.7197309
-1.3958766 -1.232426 1.6978294
-1.4290011 -1.2151451 1.6595985
-1.5622675 -1.2691287 1.3474032
-1.6080227 -1.2444617 1.3314278
-1.7223222 -1.241436 1.0882304
-1.7634209 -1.2519379 1.0929022
-1.2766737 -1.3234936 1.8367124
-1.3150399 -1.3098943 1.8348417
-1.3604145 -1.3113356 1.7235475
-1.4089706 -1.3141866 1.718522
-1.5742712 -1.3115256 1.3603256
-1.6221538 -1.3013017 1.3506346
-1.7102091 -1.3096381 1.0788791
-1.7625641 -1.3152514 1.0839746
-1.2822802 -1.3856616 1.8671293
-1.3508177 -1.3807831 1.7263113
-1.3977931 -1.3820018 1.725118
-1.5735862 -1.3775346 1.3627808
-1.6108189 -1.4089023 1.3514395
-1.7142266 -1.3503927 1.0741417
-1.7467598 -1.382637 1.0713614
-1.2279196 -1.4845315 1.8946931
-1.2699223 -1.4613652 1.8881125
-1.3424419 -1.4592769 1.7301255
-1.3890591 -1.4627047 1.7261243
-1.5581732 -1.4477189 1.3477218
-1.606594 -1.4695122 1.3333838
-1.7348211 -1.4615221 1.0583438
-1.2338017 -1.535995 1.9061455
-1.2741196 -1.5537555 1.8998306
-1.3392816 -1.5414176 1.7385976
-1.3877009 -1.5165069 1.7190626
-1.5498363 -1.5290347 1.3283761
-1.5993567 -1.5454563 1.305017
-1.729659 -1.5387647 1.05407
-1.2190304 -1.5916283 1.8885995
-1.2624668 -1.6132339 1.8699439
-1.2992976 -1.6163409 1.7983238
-1.3384414 -1.5874358 1.7738991
-1.5729067 -1.6021967 1.2837954
-1.6196073 -1.6034436 1.2398499
-1.6895417 -1.6197116 1.0692945
-1.733724 -1.6094781 1.0640032
-1.2556913 -1.6451006 1.8167808
-1.6200039 -1.6760122 1.2214304
-1.6946214 -1.6805779 1.0938858
-1.7441572 -1.6510109 1.0781274
-1.6188349 -1.7541531 1.2201388
-1.64403 -1.7561309 1.1365545
-1.693404 -1.7536547 1.1163573
-1.605831 -1.8238354 1.218099
-1.6386095 -1.82209 1.1497326
-1.6936727 -1.8198866 1.1357279
-1.5621539 -1.8904568 1.2454691
-1.6155578 -1.8936622 1.2261626
-1.6483998 -1.891084 1.1576931
-1.5679443 -1.9658785 1.2518588
-1.609998 -1.9716115 1.2375929
-1.625195 -1.9687572 1.1664288
-1.5688772 -2.0382574 1.2593275
-1.5756762 -2.0434418 1.1972603
-1.634841 -2.0387416 1.1758932
-1.5646662 -2.1148779 1.2643549
-1.5852892 -2.1020236 1.2067858
-1.630823 -2.1100492 1.1723857
-1.5284894 -2.1587334 1.2700654
-1.5614504 -2.1562891 1.1967392
-1.5894524 -2.1582265 1.167594
-1.5571899 0.045585468 1.7750251
-1.5881803 0.073971108 1.7355206
-1.6307912 0.075785428 1.6515889
-1.665536 0.04853043 1.5964701
-1.5481901 0.0087327361 1.7663088
-1.5831561 -0.023709625 1.7377596
-1.6671138 -0.0092180669 1.5617566
-1.7034253 -0.020723045 1.5554092
-1.5838337 -0.095390625 1.7110839
-1.6480935 -0.078395829 1.5444409
-1.6900374 -0.095341116 1.536817
-1.5785158 -0.16310573 1.7032444
-1.6860772 -0.15995118 1.5187389
-1.5735428 -0.22851747 1.7077525
-1.6839455 -0.22648536 1.5009004
-1.7175316 -0.2485401 1.4924543
-1.5554842 -0.31259304 1.7178469
-1.6720769 -0.28993469 1.4847105
-1.7054169 -0.31182131 1.4776284
-1.546207 -0.37929481 1.7206573
-1.6996026 -0.3771466 1.4684529
-1.5200799 -0.45378953 1.7344556
-1.5515492 -0.44063187 1.7305956
-1.6683495 -0.46973369 1.4703367
-1.6947987 -0.43907824 1.4673245
-1.5156887 -0.52250004 1.7434903
-1.5541131 -0.51351774 1.739628
-1.6522747 -0.52843261 1.4767959
-1.6899951 -0.52773726 1.4739947
-1.5089567 -0.59594953 1.7507572
-1.6547866 -0.59385747 1.4808547
-1.6907264 -0.58920401 1.4774573
-1.4977832 -0.66185629 1.7586381
-1.6479332 -0.64002734 1.4741307
-1.6839637 -0.66503304 1.4435651
-1.7218353 -0.6713236 1.3645533
-1.7586811 -0.65834343 1.3207116
-1.7878835 -0.67409128 1.264291
-1.4913721 -0.74620032 1.7589703
-1.7157528 -0.74106467 1.3552936
-1.7491074 -0.73993903 1.3087678
-1.7959216 -0.75002658 1.2412137
-1.4499583 -0.8274349 1.7743845
-1.4903884 -0.8161912 1.7629218
-1.7476306 -0.79125971 1.3524605
-1.7636062 -0.79866165 1.3117944
-1.794636 -0.81152266 1.2572089
-1.8016868 -0.83406895 1.2027488
-1.4487895 -0.88722968 1.7843187
-1.4925475 -0.87635666 1.7753623
-1.5813266 -0.89840025 1.505893
-1.6310753 -0.88249612 1.4953169
-1.6666439 -0.87073982 1.421667
-1.6878284 -0.90029079 1.3793776
-1.8065341 -0.88657838 1.1851655
-1.4504175 -0.95181835 1.7868773
-1.4775883 -0.95630002 1.7698255
-1.5963254 -0.95020247 1.5169945
-1.634114 -0.95158446 1.5148826
-1.6894193 -0.95379817 1.3800609
-1.8216817 -0.95497024 1.1544541
-1.4432663 -1.0360464 1.7933204
-1.5927294 -1.0366809 1.5275421
-1.6153386 -1.0101025 1.5218208
-1.6846423 -1.0339096 1.3767921
-1.8064398 -1.0249132 1.1354579
-1.8251221 -1.0541495 1.1326854
-1.4328743 -1.1016539 1.8010647
-1.574156 -1.1045132 1.5392693
-1.6749645 -1.1071697 1.3634851
-1.8257223 -1.1063361 1.1266007
-1.4228883 -1.1744473 1.7957652
-1.5015435 -1.2067664 1.6573987
-1.5403991 -1.1792425 1.6068976
-1.5684555 -1.1442963 1.5635974
-1.6841779 -1.1627136 1.3577589
-1.8211913 -1.166895 1.1202042
-1.3896852 -1.2742105 1.8279319
-1.4102606 -1.2321501 1.8108957
-1.4596484 -1.2498571 1.7112905
-1.4944625 -1.2345891 1.6947941
-1.6634794 -1.2483735 1.3650712
-1.8130219 -1.2507926 1.109357
-1.3786769 -1.3206288 1.8558969
-1.4570978 -1.3183259 1.7158852
-1.6610883 -1.3149048 1.365522
-1.8057698 -1.3149691 1.0971905
-1.3403454 -1.397806 1.8760648
-1.3662573 -1.3793256 1.8691057
-1.4461324 -1.3842915 1.7216842
-1.6531379 -1.3895625 1.3602196
-1.8170124 -1.394534 1.0892992
-1.333565 -1.4726565 1.8914306
-1.36848 -1.4493258 1.8811955
-1.4377464 -1.4658659 1.7231719
-1.6612163 -1.4705652 1.3417243
-1.8054823 -1.4692506 1.0724599
-1.3282576 -1.5451207 1.9002986
-1.3724376 -1.5767833 1.8841844
-1.4081602 -1.5699763 1.7514651
-1.4296281 -1.5330076 1.7239527
-1.6565536 -1.5439538 1.325297
-1.7982981 -1.5460755 1.0642065
-1.3154035 -1.5968776 1.8801358
-1.3526325 -1.6214979 1.8422213
-1.3908269 -1.6059674 1.7832661
-1.6660922 -1.5897179 1.3053843
-1.6802818 -1.6199942 1.2755096
-1.7975441 -1.6160039 1.0689667
-1.6846812 -1.684873 1.2470984
-1.7798272 -1.6823549 1.0897781
-1.6770071 -1.753785 1.245374
-1.7547051 -1.7671516 1.1118309
-1.7803534 -1.7364193 1.1089176
-1.6822795 -1.8245177 1.227226
-1.6983355 -1.8526002 1.2306478
-1.736727 -1.832056 1.131668
-1.6727688 -1.9027812 1.2254859
-1.6962402 -1.8894355 1.2286559
-1.7236251 -1.8950897 1.1436108
-1.6607136 -1.9733025 1.2467772
-1.6942188 -1.9799879 1.1607071
-1.728837 -1.9597591 1.156597
-1.6014165 -2.0550988 1.2680438
-1.6452427 -2.0451269 1.2610432
-1.6968476 -2.0397246 1.167689
-1.6143932 -2.1253188 1.2955811
-1.6445911 -2.0923877 1.2710569
-1.6909261 -2.1126575 1.1606929
-1.7103549 0.092339456 1.6947153
-1.7405481 0.090540409 1.6601772
-1.6061531 0.036671147 1.7751013
-1.6459183 0.052346021 1.7615335
-1.6832812 0.087557137 1.7010639
-1.7287129 0.071907267 1.6221348
-1.7683648 0.042109072 1.5742682
-1.642707 -0.0093096644 1.7384559
-1.6887685 -0.036365926 1.7177918
-1.7553368 -0.015016332 1.5528129
-1.8029932 -0.04032059 1.5417813
-1.6318187 -0.097831979 1.7071127
-1.6795191 -0.096234061 1.7003311
-1.742499 -0.092906259 1.533658
-1.7880392 -0.1011443 1.5285816
-1.6665555 -0.16989653 1.6959574
-1.7366995 -0.16508366 1.5136859
-1.7821933 -0.16492298 1.5104375
-1.6201874 -0.2323353 1.7037232
-1.6678311 -0.23298925 1.701467
-1.776101 -0.23501712 1.4920532
-1.6167547 -0.31365216 1.7126925
-1.6638772 -0.31328043 1.7080154
-1.770969 -0.31081158 1.4735032
-1.8098258 -0.34464502 1.4640372
-1.6161456 -0.38167578 1.7165428
-1.6671903 -0.37850085 1.7144748
-1.7649465 -0.3818925 1.4637661
-1.8073283 -0.38499594 1.4613023
-1.6173507 -0.45105523 1.7257655
-1.7617731 -0.45603558 1.4644085
-1.8037549 -0.42534679 1.4604311
-1.6032043 -0.53190899 1.7375174
-1.7598718 -0.53236622 1.4688237
-1.5587935 -0.59549499 1.7465158
-1.6009563 -0.59970474 1.7439477
-1.754526 -0.5982793 1.4711455
-1.5533344 -0.67005891 1.7564774
-1.5931227 -0.66152316 1.7515566
-1.7466667 -0.65855473 1.455067
-1.7624494 -0.69888598 1.4298968
-1.7972807 -0.67062324 1.3219579
-1.8177582 -0.68727052 1.2858152
-1.5476856 -0.73504347 1.7595584
-1.5934336 -0.74775338 1.7590783
-1.7625602 -0.7747426 1.4696347
-1.7732134 -0.7514568 1.415956
-1.8063411 -0.71654487 1.2965698
-1.8220253 -0.74519736 1.2705183
-1.5408127 -0.82644361 1.7599273
-1.5886495 -0.83251166 1.757556
-1.7371807 -0.82807046 1.4614331
-1.781 -0.82120168 1.408812
-1.7923875 -0.83907938 1.3396525
-1.83417 -0.82430506 1.2607012
-1.84877 -0.8522253 1.2264454
-1.5545697 -0.88265973 1.769654
-1.593401 -0.88342714 1.7623109
-1.6810772 -0.89771938 1.4999813
-1.718099 -0.88547581 1.4692731
-1.7564108 -0.89713144 1.4175155
-1.7968477 -0.89324164 1.3244802
-1.8189132 -0.88952863 1.2742535
-1.8737726 -0.89492702 1.2117498
-1.5680784 -0.95589733 1.7777462
-1.6865854 -0.96150196 1.5135651
-1.7529578 -0.96310389 1.4083843
-1.8030627 -0.96756864 1.3173338
-1.8086988 -0.97011626 1.2731681
-1.877008 -0.95399082 1.2318127
-1.8943951 -0.96989965 1.1641043
-1.5325998 -1.0399089 1.7831638
-1.6819875 -1.0415062 1.5231482
-1.743551 -1.0427048 1.3993392
-1.835706 -1.0382242 1.2466291
-1.8754116 -1.0378522 1.2410054
-1.8866774 -1.0415666 1.1515028
-1.482654 -1.1019449 1.7937424
-1.5334603 -1.1097038 1.7935702
-1.6375997 -1.1151603 1.5433886
-1.681371 -1.1098146 1.5386463
-1.7521348 -1.1081045 1.3909267
-1.8292191 -1.0944322 1.24129
-1.8654436 -1.1082944 1.2323302
-1.8791434 -1.105875 1.1440043
-1.4948463 -1.1849908 1.8001442
-1.5329089 -1.162218 1.7958792
-1.5651641 -1.190235 1.6871753
-1.5890689 -1.1951355 1.6374521
-1.6329534 -1.1593843 1.5829014
-1.746295 -1.174549 1.3840401
-1.8616204 -1.1557466 1.2294383
-1.8717211 -1.1785792 1.1410781
-1.4734876 -1.2541122 1.8317327
-1.5473777 -1.2549045 1.7106647
-1.7216717 -1.2543855 1.3865345
-1.8751415 -1.2569134 1.1370646
-1.4372575 -1.3213817 1.8608983
-1.4865105 -1.32342 1.859323
-1.5036519 -1.3218116 1.7149351
-1.5424975 -1.3228595 1.7142556
-1.7398793 -1.3214648 1.3745005
-1.8744819 -1.3241652 1.1264397
-1.4355671 -1.3924412 1.8677771
-1.4849281 -1.3674563 1.861376
-1.5003407 -1.3963755 1.7211759
-1.5381186 -1.3879493 1.7205503
-1.7278591 -1.3890179 1.3614898
-1.7653313 -1.4072204 1.3551772
-1.8738307 -1.3949305 1.1151857
-1.3794327 -1.4966639 1.8994941
-1.4277704 -1.4706368 1.8871284
-1.4985999 -1.4653267 1.7202576
-1.5344784 -1.4815211 1.7167277
-1.7146353 -1.467062 1.3473864
-1.7606258 -1.4816953 1.3396435
-1.8748146 -1.4721186 1.0999745
-1.3755111 -1.5370169 1.8992255
-1.4194015 -1.551915 1.890626
-1.4900614 -1.5576279 1.7450929
-1.533231 -1.5292751 1.7256739
-1.7065084 -1.5509049 1.3335917
-1.7574339 -1.5510614 1.3250762
-1.8715744 -1.55282 1.0914661
-1.4133179 -1.6041788 1.8604481
-1.4483318 -1.6216737 1.8067238
-1.5004873 -1.6010103 1.7799916
-1.701506 -1.5870525 1.3258305
-1.7367741 -1.6202745 1.2996341
-1.8648058 -1.6200718 1.0914223
-1.7244898 -1.6849703 1.2688882
-1.7782147 -1.7288986 1.2765758
-1.8522915 -1.6869568 1.102489
-1.7310846 -1.7719927 1.263923
-1.7757167 -1.7646323 1.2732751
-1.8315699 -1.764783 1.1215928
-1.7326432 -1.8206507 1.2581301
-1.7565094 -1.842707 1.2552906
-1.8105953 -1.8369949 1.1409622
-1.850466 -1.8135345 1.1366236
-1.7254107 -1.9282509 1.2518297
-1.7530482 -1.8956758 1.2507651
-1.7953671 -1.904453 1.1594975
-1.7220728 -1.9878633 1.2641008
-1.7659844 -1.9771405 1.2695148
-1.7736338 -1.9850986 1.1744957
-1.7166649 -2.0519316 1.2685707
-1.7531631 -2.0534365 1.2150625
-1.787117 -2.0393643 1.1912609
-1.6588022 -2.150672 1.3011755
-1.706514 -2.1203036 1.2865186
-1.7450584 -2.0982325 1.1790202
-1.7667828 -2.1286709 1.1807666
-1.7672569 0.090726316 1.7223711
-1.8025231 0.094230026 1.6686771
-1.8479226 0.087515756 1.6182351
-1.7109594 0.048341706 1.7642442
-1.7555593 0.050680399 1.7508578
-1.7890661 0.084116474 1.6258314
-1.8254366 0.067988768 1.5940437
-1.8669441 0.041647702 1.5641677
-1.7513508 -0.018714577 1.7203588
-1.7987385 -0.047008842 1.7020451
-1.8597617 -0.027277425 1.542091
-1.7422024 -0.10181957 1.6956022
-1.7879899 -0.10771269 1.6895373
-1.8523453 -0.10578725 1.521641
-1.9013908 -0.12773693 1.5107222
-1.7323565 -0.17243965 1.6893673
-1.7807478 -0.1798822 1.6868221
-1.8446324 -0.17471631 1.5028336
-1.8929576 -0.17517662 1.4993451
-1.7359713 -0.24256191 1.6961715
-1.783599 -0.23742801 1.6920211
-1.8356093 -0.22130299 1.4915087
-1.8808393 -0.24790402 1.4816581
-1.7361223 -0.32204843 1.7046332
-1.8676856 -0.32105586 1.4646572
-1.7232561 -0.38952842 1.7105346
-1.8633056 -0.38909766 1.4581136
-1.6757619 -0.48150119 1.7265055
-1.7124339 -0.45279008 1.7175202
-1.8572913 -0.45816994 1.4597627
-1.6643395 -0.54570729 1.7354655
-1.7142342 -0.53389943 1.7276788
-1.8578017 -0.53773445 1.4651442
-1.6690497 -0.60353833 1.7394178
-1.7154284 -0.61291587 1.7370877
-1.811805 -0.60255551 1.4696898
-1.8531072 -0.60559666 1.4676732
-1.6662662 -0.67504942 1.7483513
-1.715359 -0.64776379 1.740778
-1.8386022 -0.67605382 1.4570334
-1.6629627 -0.75191659 1.7553865
-1.7995768 -0.7781018 1.4920208
-1.8335271 -0.7524088 1.4608154
-1.6624864 -0.831411 1.753852
-1.8051902 -0.83292937 1.5063221
-1.8183972 -0.8227607 1.4197412
-1.8341746 -0.85810906 1.3862284
-1.6053281 -0.91191143 1.7731881
-1.6490391 -0.89800298 1.7539698
-1.7976478 -0.9021228 1.5050483
-1.8019841 -0.88501251 1.4372765
-1.8336886 -0.88501257 1.3823627
-1.930268 -0.91236514 1.2216825
-1.5990657 -0.96571231 1.7746208
-1.6405432 -0.96498072 1.7715663
-1.7469018 -0.97916329 1.5162077
-1.7755212 -0.96712148 1.5178082
-1.801821 -0.98364109 1.420283
-1.9361285 -0.9675926 1.2337922
-1.9519101 -0.97340029 1.1947262
-1.5900264 -1.0587244 1.7854909
-1.6398298 -1.044592 1.7704852
-1.7534487 -1.0569506 1.5273988
-1.7858766 -1.0381444 1.5302985
-1.8013873 -1.019549 1.4146773
-1.9283143 -1.0431948 1.2317322
-1.9659538 -1.0480382 1.1901091
-1.5974972 -1.1157408 1.7920822
-1.6424756 -1.1029472 1.7906442
-1.6797118 -1.1123955 1.6878538
-1.7443422 -1.1186935 1.5472411
-1.9239453 -1.1019837 1.2287471
-1.961427 -1.1166778 1.189929
-1.5933639 -1.1868496 1.8022475
-1.6092765 -1.2073179 1.7031455
-1.671036 -1.1811223 1.681021
-1.6999235 -1.1723695 1.6090099
-1.7361668 -1.1575458 1.5849079
-1.7814182 -1.1540155 1.4258286
-1.9253902 -1.1736549 1.2263532
-1.9544537 -1.1816117 1.1865314
-1.5500149 -1.2730132 1.839155
-1.5874343 -1.2469387 1.8245239
-1.6178904 -1.2591344 1.7107161
-1.6657331 -1.2660316 1.7082117
-1.9310548 -1.2642928 1.2089138
-1.9380083 -1.2586442 1.177775
-1.5448207 -1.3311234 1.8564973
-1.6156689 -1.3348852 1.7144068
-1.6630106 -1.3235656 1.7119117
-1.9213507 -1.3263693 1.2026944
-1.9366686 -1.3289162 1.1715951
-1.5340869 -1.4012682 1.8636342
-1.6141552 -1.4000771 1.719316
-1.7948045 -1.4179461 1.3527784
-1.9103215 -1.3841769 1.1969434
-1.9348863 -1.3994977 1.1624062
-1.4945699 -1.488553 1.8930151
-1.535817 -1.4699453 1.8856875
-1.6040307 -1.4769821 1.7138312
-1.6465483 -1.4949822 1.7081971
-1.7990873 -1.4784808 1.3378719
-1.9467044 -1.477631 1.150084
-1.48431 -1.551235 1.8860817
-1.531152 -1.5674819 1.8736637
-1.5599872 -1.579214 1.7667862
-1.5966626 -1.5506946 1.7429969
-1.7948914 -1.5297877 1.3173846
-1.9436362 -1.5588386 1.1445894
-1.5200882 -1.6113139 1.8340571
-1.5576415 -1.6173309 1.7930706
-1.9475162 -1.6242595 1.1264373
-1.9663805 -1.6160364 1.1330501
-1.9305123 -1.6943843 1.1272506
-1.8060234 -1.772732 1.2749497
-1.9159766 -1.7747412 1.1389
-1.8394877 -1.8404447 1.2587175
-1.8937509 -1.8424911 1.1521157
-1.8214631 -1.9107871 1.2424109
-1.8684478 -1.9146794 1.1971443
-1.9097219 -1.8852869 1.1683341
-1.8161734 -1.98772 1.2550173
-1.8565388 -1.9931226 1.2206769
-1.8114364 -2.0607471 1.2558095
-1.8355714 -2.0507529 1.2176059
-1.7636549 -2.1435506 1.3080167
-1.8088698 -2.1188323 1.2735989
-1.835984 -2.1214609 1.2161894
-1.8320252 0.081880078 1.7441758
-1.8623707 0.10019104 1.6962441
-1.8975983 0.10050361 1.6397449
-1.9359642 0.088914096 1.6067064
-1.8206004 0.050475091 1.7516906
-1.8531613 0.018013507 1.7272327
-1.9261048 0.054588467 1.5698122
-1.9644374 0.019536927 1.5462245
-1.8461446 -0.029563442 1.7037588
-1.9177932 -0.017314538 1.5399554
-1.9563377 -0.038825244 1.5322124
-1.8546094 -0.11372921 1.6846402
-1.9477937 -0.11023349 1.5126284
-1.8496155 -0.18102062 1.682431
-1.9540747 -0.18225747 1.4928799
-1.8299285 -0.24990733 1.6904746
-1.9467704 -0.23952205 1.4783957
-1.9788203 -0.26728365 1.4683676
-1.8173146 -0.32238555 1.7008412
-1.9361469 -0.31717175 1.4601696
-1.9708225 -0.33322448 1.4552467
-1.7775217 -0.39812538 1.7097955
-1.815693 -0.39473259 1.7063738
-1.9239118 -0.39352006 1.4542363
-1.9592783 -0.39611998 1.4524146
-1.7825109 -0.46571851 1.7147765
-1.8208288 -0.45116311 1.7111918
-1.9282842 -0.46002334 1.4574089
-1.9693789 -0.46479854 1.4557751
-1.780367 -0.54501539 1.7239655
-1.928769 -0.54719597 1.4622436
-1.9495721 -0.53126609 1.4604013
-1.7696921 -0.60665995 1.7334259
-1.9225056 -0.60819614 1.4659386
-1.7552947 -0.68323362 1.7425065
-1.9224269 -0.67577094 1.4646522
-1.7508645 -0.75923818 1.7489455
-1.9087378 -0.76131821 1.4690015
-1.7177198 -0.83827055 1.7540436
-1.743767 -0.84012252 1.7512653
-1.8590733 -0.84164447 1.51136
-1.9135805 -0.82234293 1.4778663
-1.7056537 -0.91580397 1.7572496
-1.7448416 -0.91057199 1.747932
-1.8493929 -0.92944121 1.5255424
-1.7047455 -0.98205483 1.771163
-1.7445449 -0.95791948 1.7576108
-1.846065 -0.97816586 1.542973
-1.7021863 -1.0582967 1.7728438
-1.8021164 -1.0576023 1.6645451
-1.8264999 -1.0581665 1.54669
-1.9931169 -1.0387937 1.2135643
-1.6863999 -1.1226187 1.7946427
-1.723612 -1.1288927 1.6867436
-1.7724411 -1.1214361 1.6737767
-1.8022004 -1.133954 1.5717533
-1.8265836 -1.1058501 1.5533757
-1.6629989 -1.216055 1.809829
-1.6734273 -1.1847746 1.8007331
-1.7308347 -1.1930219 1.6973082
-1.7579467 -1.1705053 1.6474251
-1.7978858 -1.1622264 1.6035683
-1.6406147 -1.2684298 1.8318248
-1.696346 -1.2462126 1.8217463
-1.7242348 -1.2678936 1.7057767
-1.5897064 -1.3344028 1.8537197
-1.6316408 -1.3423324 1.8494323
-1.7084736 -1.3392822 1.7125946
-1.6047313 -1.4160192 1.8631681
-1.6330832 -1.3892663 1.855453
-1.7002622 -1.404526 1.7161311
-1.5941484 -1.4866475 1.8893061
-1.6915977 -1.4873301 1.7121391
-1.5895736 -1.5644861 1.8686235
-1.6224309 -1.5940495 1.8416953
-1.6582582 -1.5670247 1.7562408
-1.6967157 -1.537576 1.7316037
-1.9644313 -1.5766606 1.1658218
-1.6144589 -1.6176637 1.8103931
-1.6425613 -1.6199386 1.7891781
-1.9774134 -1.6352664 1.1766765
-1.9884909 -1.699621 1.1724317
-1.8883196 -1.8058724 1.2703869
-1.9292061 -1.8063964 1.2670302
-1.98711 -1.7818878 1.1705987
-1.9239994 -1.8511555 1.2704853
-1.96838 -1.842128 1.171345
-1.918273 -1.9275842 1.244149
-1.9539106 -1.9072809 1.1861327
-1.8793685 -1.9801229 1.2414341
-1.8496144 -2.1418014 1.2710271
-1.9194949 0.095335215 1.7250661
-1.9535203 0.10893044 1.6740055
-1.9862597 0.099179134 1.6154435
-2.0374451 0.091399327 1.5861353
-1.9137518 0.041206613 1.7344077
-1.9664624 0.012367249 1.7066165
-1.9752872 0.072609633 1.5757358
-2.0227313 0.04184927 1.5510428
-1.9036492 -0.036450461 1.6964755
-1.9486955 -0.038281977 1.691016
-2.0206609 -0.033359662 1.5277938
-2.0650785 -0.059078455 1.5166426
-1.8959726 -0.089759246 1.6847017
-1.9392755 -0.12401982 1.6779059
-2.0101323 -0.10988144 1.5080252
-2.0532942 -0.12266935 1.5006344
-1.8855813 -0.21060607 1.6815546
-1.9239036 -0.18646422 1.6782005
-1.9983706 -0.16275111 1.4945713
-2.0468698 -0.19023938 1.4827753
-1.8913329 -0.25892472 1.6894486
-1.9345459 -0.24665417 1.6858155
-2.0341053 -0.25381845 1.4665998
-2.0858417 -0.28380749 1.4541843
-1.8833804 -0.33588651 1.6977602
-1.9269145 -0.33657223 1.6963503
-2.0316811 -0.3337796 1.4510494
-2.0744305 -0.33689046 1.4481205
-1.8885207 -0.40306294 1.7031946
-1.9208058 -0.39037374 1.6975172
-2.0294657 -0.40131998 1.4497192
-2.0783734 -0.40503234 1.4498726
-1.8769302 -0.46889079 1.709919
-2.0215225 -0.46947467 1.4536642
-1.8661414 -0.54789674 1.7194693
-2.0140572 -0.55014491 1.4600426
-1.814942 -0.62080866 1.73228
-1.8652748 -0.61545151 1.7239547
-2.0086038 -0.61844307 1.4648321
-1.8153775 -0.6862036 1.7380674
-1.8624983 -0.6839841 1.7331184
-1.9951957 -0.68415773 1.468366
-1.8179824 -0.7607075 1.7446525
-1.8623188 -0.7605921 1.7417727
-1.958403 -0.78138375 1.4742998
-1.9996388 -0.75601339 1.4715084
-1.8118838 -0.84289867 1.7484796
-1.9587929 -0.84279346 1.4852648
-1.9968724 -0.8476848 1.4857463
-1.8135282 -0.91060102 1.7472315
-1.9850165 -0.91946781 1.4899349
-1.9911494 -0.90148723 1.4862446
-1.7974145 -0.98198777 1.7564185
-1.8955696 -0.99598718 1.5811208
-1.74918 -1.0447333 1.771855
-1.7948362 -1.0620351 1.7674398
-1.8332932 -1.0632555 1.6701572
-1.8862944 -1.0766448 1.6442473
-1.8946571 -1.0673606 1.5702895
-1.7467842 -1.1262214 1.7900484
-1.7999306 -1.1281196 1.7819691
-1.8270268 -1.1314136 1.6730803
-1.8721385 -1.1354569 1.6190045
-1.883213 -1.1197715 1.5807856
-1.7475438 -1.200509 1.8048916
-1.7707624 -1.2195854 1.7038782
-1.8140513 -1.1869783 1.6884552
-1.8437901 -1.1687692 1.6269394
-1.6903198 -1.29462 1.8431187
-1.7353475 -1.2693493 1.8297102
-1.7649091 -1.280724 1.7053361
-1.8169501 -1.2744231 1.7000884
-1.6963298 -1.344184 1.8483834
-1.7393155 -1.342177 1.8454134
-1.7713548 -1.3418949 1.7103629
-1.8199558 -1.3437065 1.7065227
-1.6928837 -1.4159892 1.8618031
-1.750721 -1.3872344 1.8531398
-1.7685322 -1.4069972 1.7144744
-1.8168374 -1.4130468 1.7090045
-1.6521033 -1.4967932 1.8932425
-1.6981609 -1.4876827 1.8878986
-1.7664967 -1.4951348 1.7157464
-1.8096402 -1.4799109 1.7007982
-1.6373895 -1.5457605 1.8834884
-1.6794143 -1.5714815 1.8620689
-1.7219169 -1.5937946 1.7949623
-1.7592726 -1.5552402 1.7520638
-1.6586847 -1.6014684 1.8311815
-1.7060971 -1.6122293 1.8013903
-2.013952 -1.6499959 1.2073493
-2.0196292 -1.7093241 1.2177963
-1.9929636 -1.8141209 1.2776999
-2.0212774 -1.7875007 1.2255651
-1.9940881 -1.861827 1.2686934
-2.0130639 -1.8585293 1.2151749
-1.9845277 -1.9257145 1.2578237
-2.0005021 -1.9150286 1.2143295
-1.9776571 0.090521157 1.7339306
-2.0301065 0.09858194 1.7219338
-2.0576968 0.11542477 1.6576853
-2.0989263 0.096784472 1.5905306
-2.1418831 0.078286394 1.5592428
-1.9780842 0.060907096 1.7375917
-2.0207794 0.031803817 1.7134476
-2.0848768 0.048885316 1.5493306
-2.1304679 0.025582328 1.5367119
-2.0054939 -0.045871198 1.6856718
-2.0548449 -0.043951616 1.6833248
-2.1205549 -0.045444906 1.5164526
-2.1681123 -0.075266197 1.5016832
-1.9907558 -0.11685447 1.6751859
-2.0370197 -0.12701152 1.6723315
-2.1078622 -0.12661396 1.494447
-2.1554339 -0.12308192 1.4901084
-1.9935184 -0.19263521 1.6748792
-2.0416484 -0.20083706 1.6759799
-2.0994608 -0.19097215 1.4771781
-2.1469114 -0.19201636 1.4725084
-1.9962595 -0.26483044 1.6861187
-2.04267 -0.23620729 1.6801367
-2.1301901 -0.25730652 1.4612161
-1.9871271 -0.34072688 1.6920674
-2.1364205 -0.34213459 1.457671
-1.9901614 -0.41117251 1.6949214
-2.1309764 -0.40848094 1.457399
-1.934322 -0.49946266 1.7101723
-1.9808522 -0.47127926 1.6985195
-2.1035974 -0.47631562 1.4565066
-1.933377 -0.55472672 1.7149376
-1.9801086 -0.55877018 1.7107325
-2.0730484 -0.55413014 1.4593813
-2.1087925 -0.5585956 1.4636232
-1.9290402 -0.62946475 1.7207165
-1.9760545 -0.6188246 1.7120204
-2.0778284 -0.6225602 1.4662336
-2.1199508 -0.62588209 1.4739199
-1.9336698 -0.69467074 1.7294199
-1.9712805 -0.67989075 1.7220718
-2.0747783 -0.68977553 1.4703912
-1.9180807 -0.7708959 1.7398412
-2.0710757 -0.77378243 1.4833307
-1.9111619 -0.85128498 1.7447603
-2.0452056 -0.84843111 1.489554
-1.8991265 -0.91954166 1.7485523
-2.0453668 -0.92217773 1.4936314
-1.855854 -1.0023787 1.754934
-1.9000912 -0.98409796 1.7490585
-1.9510565 -1.0137943 1.6444597
-1.9602309 -0.99927062 1.6311117
-2.0122194 -0.9903475 1.5038458
-2.0569041 -0.98887038 1.500288
-1.8527178 -1.0601715 1.7609966
-1.8991625 -1.067695 1.7372698
-1.924185 -1.0641078 1.6589236
-1.9423792 -1.0777372 1.6043804
-2.0425239 -1.0728794 1.5227171
-2.0576398 -1.0522103 1.5117804
-1.8612272 -1.1393483 1.7753545
-1.9054861 -1.1338737 1.7022967
-1.9362574 -1.1339321 1.6813749
-1.9441727 -1.1092738 1.6062486
-1.8058624 -1.2131964 1.8068395
-1.8464146 -1.1990887 1.8000659
-1.8879957 -1.2034622 1.6955663
-1.9348257 -1.2044526 1.6934271
-1.8082836 -1.2844348 1.8307905
-1.8553839 -1.2587945 1.8192763
-1.8816402 -1.2848846 1.6966612
-1.9258039 -1.2851555 1.6949323
-1.8053163 -1.3500631 1.8431864
-1.890049 -1.3508409 1.7017142
-1.7535248 -1.4399614 1.8713644
-1.7930822 -1.414463 1.8611522
-1.8823073 -1.416237 1.7005192
-1.913063 -1.4465582 1.6887579
-1.7579768 -1.4951584 1.8858604
-1.7979791 -1.5019147 1.8792189
-1.8624878 -1.4979571 1.7021756
-1.91783 -1.4783506 1.6742449
-1.7414138 -1.5485803 1.8716333
-1.7840748 -1.5787069 1.8386247
-1.8266996 -1.5773456 1.7700624
-1.8754169 -1.5375342 1.738044
-1.7687631 -1.6126975 1.8011934
-1.7825395 -1.6090615 1.7779684
-2.0852535 0.092527449 1.7325269
-2.1282961 0.10973972 1.7048126
-2.1650269 0.11626045 1.6210437
-2.2026734 0.093894586 1.5692143
-2.2431002 0.069196254 1.5449774
-2.0738316 0.057411432 1.727993
-2.1144443 0.02687405 1.7019154
-2.1855288 0.041554034 1.5362116
-2.2321143 0.020678386 1.5256207
-2.1228578 -0.051911741 1.6789465
-2.2214162 -0.052496523 1.502908
-2.110564 -0.13122407 1.6735661
-2.2212868 -0.13247977 1.48405
-2.1042356 -0.20012105 1.6780531
-2.2267466 -0.20059893 1.4767814
-2.0919609 -0.26942587 1.6859522
-2.2223322 -0.26789692 1.4737196
-2.0850098 -0.34468001 1.6909199
-2.2163951 -0.34869301 1.4720379
-2.0461462 -0.41323772 1.6932684
-2.0819151 -0.42001545 1.6958424
-2.2085278 -0.41219905 1.4741569
-2.040452 -0.49126869 1.7007065
-2.0840268 -0.47780788 1.6993371
-2.1869638 -0.48288745 1.4743112
-2.0429521 -0.56545234 1.7083713
-2.0882666 -0.5458948 1.7055027
-2.1868503 -0.56125188 1.4838803
-2.0402191 -0.62971961 1.7142127
-2.1789124 -0.62794989 1.4877006
-2.0298183 -0.69334841 1.7238226
-2.1557994 -0.69875389 1.4869423
-1.9803827 -0.78499657 1.7370343
-2.0233264 -0.77504927 1.7324338
-2.1409895 -0.78693187 1.4997512
-2.1706252 -0.76466948 1.5014629
-1.9801325 -0.85757369 1.7408037
-2.0259674 -0.85869628 1.738228
-2.1350722 -0.85596085 1.514416
-1.9747275 -0.92721301 1.7462319
-2.0170791 -0.92378998 1.7446377
-2.1306796 -0.92300516 1.5196149
-1.972491 -0.99285293 1.748266
-2.0184789 -0.99630791 1.7475941
-2.1206367 -0.99395442 1.5168499
-1.9767499 -1.0793895 1.7523122
-2.0048649 -1.0746572 1.7032504
-2.1125166 -1.0772954 1.5165616
-1.9565966 -1.1463218 1.7682474
-1.9932137 -1.1429048 1.680064
-2.0299566 -1.1429303 1.6713679
-2.0611358 -1.1437168 1.5320714
-2.1050234 -1.1462016 1.526065
-1.9196763 -1.214045 1.8037496
-1.9640545 -1.19214 1.7903895
-1.9880185 -1.2115304 1.6934434
-2.0620193 -1.1799041 1.5316261
-2.1053951 -1.1834345 1.5372034
-1.9123554 -1.2889087 1.8298168
-1.9805828 -1.2833182 1.6968155
-1.8580178 -1.3588572 1.8447475
-1.9043655 -1.3586189 1.8428416
-1.983875 -1.3597245 1.6949406
-1.8688796 -1.4300003 1.8649205
-1.9146062 -1.4023867 1.8528812
-1.9764246 -1.4270974 1.6848904
-2.033865 -1.453685 1.6424403
-1.8601254 -1.5091145 1.8747211
-1.9325362 -1.5320152 1.7196335
-1.959253 -1.5037118 1.6879807
-1.8554778 -1.557063 1.8506408
-1.8895683 -1.5802796 1.8097053
-1.9271352 -1.5678998 1.7605808
-2.2437158 0.12791169 1.6599956
-2.2574942 0.12881106 1.638906
-2.1874535 0.090412006 1.715703
-2.2168052 0.12512864 1.6545184
-2.2590375 0.1119304 1.5946217
-2.2857289 0.084035292 1.5547121
-2.1784985 0.027980164 1.6985717
-2.2222166 0.025993004 1.6957399
-2.2962534 0.023889065 1.519574
-2.3385596 -0.0070737451 1.506548
-2.1875517 -0.085217014 1.6954904
-2.1972253 -0.04486607 1.685796
-2.2829192 -0.05125466 1.4975163
-2.3197501 -0.05764249 1.4949603
-2.1830266 -0.13762969 1.6975782
-2.3030934 -0.13905634 1.4868237
-2.1745267 -0.2062699 1.6968693
-2.297755 -0.20621543 1.4821856
-2.1665733 -0.27352157 1.6988773
-2.2920375 -0.27337468 1.4782078
-2.1493077 -0.35693747 1.6992483
-2.2673974 -0.3799473 1.4785132
-2.2907012 -0.35362506 1.4794905
-2.1420457 -0.42375705 1.7002649
-2.250684 -0.4195196 1.4826021
-2.2984707 -0.42336571 1.4877558
-2.1438546 -0.49076298 1.708298
-2.2597508 -0.48816323 1.4880178
