# .PCD v0.7 - Point Cloud Data file format
VERSION 0.7
FIELDS x y z
SIZE 4 4 4
TYPE F F F
COUNT 1 1 1
WIDTH 1466
HEIGHT 1
VIEWPOINT 0 0 0 1 0 0 0
POINTS 1466
DATA ascii
-0.1253666 0.95983958 2.3333871
-0.16414931 0.97276849 2.3371763
0.43051687 0.92105734 2.3379223
0.38742495 0.92549205 2.3293426
0.33916768 0.90933311 2.3156483
0.30053332 0.89570254 2.297344
0.18489382 0.89520389 2.291162
0.13202296 0.90681678 2.2966495
0.081473686 0.90813059 2.3047471
0.029763706 0.90813059 2.3149524
-0.020472979 0.90952832 2.323401
-0.073656537 0.90813059 2.3327043
-0.11243904 0.92105728 2.3377237
0.32021371 0.86934614 2.3295846
0.286798 0.85813159 2.3116527
0.23660389 0.85482579 2.2962723
0.18346477 0.85987478 2.2974601
0.1331837 0.85641944 2.3045144
0.081473693 0.85641944 2.3126919
0.030471705 0.85726345 2.323247
-0.021946445 0.85641944 2.3332293
-0.060729168 0.86934614 2.337878
0.27423477 0.81841749 2.3234415
0.23698874 0.79874527 2.3192122
0.18489386 0.8047083 2.3090472
0.1331837 0.8047083 2.3148675
0.082517974 0.80564708 2.3234453
0.029763719 0.8047083 2.3334732
-0.0090188673 0.817635 2.3382752
0.22367659 0.76592821 2.330862
0.1870008 0.75691515 2.3246863
0.13390036 0.75908428 2.3248105
0.081473701 0.75299931 2.334702
0.042691167 0.76592821 2.3396297
0.17196628 0.71421701 2.3385839
0.13318372 0.71421701 2.3367682
-0.22846992 0.28267658 2.3196578
-0.28049675 0.27781707 2.3166115
-0.33193263 0.27256924 2.3230889
-0.37098911 0.27468127 2.3386326
-0.22280678 0.23589854 2.3109436
-0.28049675 0.23589852 2.3054445
-0.33220682 0.23589854 2.3147826
-0.37944996 0.23759384 2.3240879
-0.43131813 0.23158933 2.3347113
-0.20430118 0.1841885 2.3229282
-0.22878666 0.1841885 2.3054245
-0.28049675 0.18418849 2.3077145
-0.33804467 0.18160301 2.3178353
-0.38001728 0.18757221 2.3249867
-0.43562701 0.18418847 2.3346844
-0.47441146 0.19711582 2.3392239
-0.19443038 0.13678759 2.329416
-0.22589622 0.12412493 2.3190098
-0.27965438 0.12766136 2.3210485
-0.33294186 0.13786119 2.3248672
-0.38391578 0.1324784 2.3336058
-0.43562698 0.14540595 2.3379707
-0.19000395 0.080768347 2.3362632
-0.22878665 0.080768339 2.331012
-0.2761876 0.085077465 2.3347247
-0.31927919 0.093695685 2.3368762
0.43904904 1.2190297 2.3661425
0.39173409 1.2316746 2.3609581
0.34289721 1.2252513 2.3696959
0.28292015 1.2114347 2.3565471
0.23202005 1.2075211 2.3711691
0.19782139 1.2019409 2.3785069
0.45637158 1.1896563 2.3487859
0.2366039 1.193076 2.3487859
0.18058462 1.1887296 2.3574038
0.13483483 1.1806704 2.3574314
0.079845436 1.1671035 2.3599846
0.034980088 1.1542354 2.3774335
0.025454547 1.1368331 2.3574038
-0.021707492 1.1299533 2.3561637
-0.077337794 1.116057 2.3638856
-0.1253666 1.109053 2.3667049
-0.17966215 1.1093153 2.3733826
-0.21490368 1.1011397 2.3750584
-0.13829416 1.0815897 2.3449469
-0.17671338 1.0753092 2.3490162
-0.23004879 1.0639029 2.3595273
-0.28263366 1.0566063 2.3737686
-0.32789767 1.046981 2.3815229
-0.23137227 1.0167135 2.343864
-0.27373508 1.0085546 2.3501167
-0.33479238 1.0150024 2.3654752
-0.38466105 1.0118502 2.3744111
-0.43131819 1.0072397 2.3837881
-0.47441152 0.99862182 2.3901496
0.50350332 0.97276855 2.355021
-0.18138579 0.95552993 2.3436906
-0.22729304 0.96116281 2.3493781
-0.28049681 0.95983958 2.3569326
-0.33220688 0.95983958 2.3643923
-0.38545421 0.95859134 2.3740966
-0.43562707 0.95983952 2.3815174
-0.48302931 0.96414918 2.3884728
0.49256876 0.90337074 2.3601811
0.44602969 0.90459222 2.3497064
0.39501023 0.89344156 2.3478408
-0.12967578 0.90382171 2.3435116
-0.1762936 0.90887862 2.349102
-0.22878672 0.90813059 2.3572824
-0.28049681 0.90813059 2.364861
-0.33687368 0.90870464 2.3736722
-0.38391587 0.90813053 2.382755
-0.43131819 0.91243947 2.3881741
0.4916324 0.85999304 2.3807001
0.44344422 0.85587531 2.3740571
0.39202145 0.85026616 2.3703029
0.34191692 0.8545565 2.3504393
-0.077965647 0.85211056 2.3432393
-0.12293623 0.85894728 2.3496804
-0.17707665 0.85641944 2.3585575
-0.22878672 0.85641944 2.3658051
-0.283362 0.85388613 2.3736448
-0.32962137 0.86146879 2.3802028
-0.37960696 0.86072826 2.388114
0.39173415 0.81763506 2.3861804
0.34092781 0.80400068 2.3742533
0.29468882 0.80477887 2.3487689
-0.032530043 0.79824495 2.3450332
-0.074545167 0.80857217 2.3494542
-0.12536658 0.8047083 2.3590894
-0.18269941 0.80212295 2.3689134
-0.2294759 0.80891067 2.3757262
-0.28049678 0.8047083 2.384218
-0.33220685 0.817635 2.3898211
0.32012439 0.76592821 2.3794403
0.28384572 0.75261045 2.3658175
0.23807789 0.74538898 2.3484581
0.02148913 0.74479187 2.3466654
-0.019937007 0.76053476 2.3511281
-0.073656507 0.75299931 2.3609703
-0.13075411 0.74774241 2.3706973
-0.17782202 0.7578966 2.3759418
-0.22878671 0.75299931 2.3853035
-0.26756942 0.76592821 2.3904057
0.28831401 0.71421701 2.3852229
0.23826523 0.70011157 2.3730612
0.1859227 0.69935471 2.3501866
0.13318372 0.68528801 2.3475194
0.084548399 0.6987111 2.3483894
0.035377406 0.70644498 2.3533463
-0.021946428 0.70129031 2.3630352
-0.075317554 0.69417316 2.3720033
-0.12228187 0.70434898 2.3770361
-0.17276752 0.70559925 2.3864474
-0.21585913 0.71421701 2.390666
0.22367659 0.66250581 2.3847222
0.18665002 0.6477887 2.3730972
0.13318372 0.64957917 2.3620634
0.078243792 0.64287865 2.3702772
0.029763738 0.64791852 2.3733025
-0.022499444 0.65477431 2.3773177
-0.073656499 0.64957917 2.3858032
-0.12536657 0.66250581 2.3874512
0.17196628 0.61079472 2.3855472
0.13318372 0.61718857 2.3783116
0.081473731 0.61079472 2.387054
0.04269119 0.61079472 2.3904407
-0.20514445 0.27468127 2.3746393
-0.22295798 0.29750261 2.3613167
-0.28248456 0.30084077 2.3596094
-0.32962132 0.28821796 2.3672676
-0.38729662 0.27628541 2.3578775
-0.42956719 0.27038446 2.3659492
-0.20095722 0.23589854 2.3617125
-0.44855371 0.24988358 2.3459332
-0.48021939 0.2380982 2.3609695
-0.19047511 0.18455282 2.361095
-0.47853208 0.17821667 2.3568327
-0.1846154 0.13247842 2.3617125
-0.44660592 0.12200934 2.3468277
-0.47591436 0.12880473 2.3697686
-0.17667393 0.075081617 2.3642979
-0.29342407 0.067840986 2.3419642
-0.33740264 0.070023589 2.3468106
-0.38391581 0.081232451 2.3491287
-0.43685696 0.084227733 2.3586018
-0.17568563 0.030151326 2.3585196
-0.22878666 0.026887858 2.3473203
-0.28068328 0.034413256 2.3510356
-0.33220679 0.029058255 2.3594413
-0.38650113 0.024829663 2.3676515
-0.43380049 0.030833812 2.3735003
-0.13829407 -0.035579331 2.3848546
-0.17100191 -0.02265189 2.3679256
-0.22878665 -0.022651896 2.3632703
-0.28145573 -0.028913561 2.3716652
-0.33482686 -0.019121826 2.3756351
-0.38133046 -0.018776797 2.3816605
-0.42270029 -0.009724468 2.3825908
-0.13829407 -0.074361876 2.3886979
-0.17629872 -0.069050938 2.3763061
-0.22717461 -0.067665845 2.3778005
-0.2761876 -0.070052706 2.3848825
-0.33220679 -0.061434362 2.3890774
-0.17707656 -0.11314441 2.3887334
-0.21585906 -0.11314442 2.3913984
0.40466166 1.248785 2.4263506
0.44024163 1.2338088 2.4069605
0.38742492 1.2441534 2.4091148
0.34002402 1.2407331 2.4134238
0.28421274 1.232345 2.4129643
0.23918937 1.2231541 2.4188905
0.17841628 1.2117046 2.4079082
0.13964738 1.2061539 2.4120934
0.09190733 1.2073876 2.4234662
0.12025622 1.1942012 2.400497
0.073711172 1.1843841 2.4056582
0.035486627 1.1710211 2.4195874
-0.022701897 1.1575944 2.4074841
-0.059613086 1.1531333 2.4271331
-0.13829418 1.1537511 2.4428978
-0.19000405 1.1537511 2.4439566
-0.077965654 1.13876 2.4091148
-0.12278109 1.1351104 2.4091494
-0.17966878 1.1330441 2.4081075
-0.23636706 1.1177393 2.4135394
-0.26756945 1.0981215 2.431489
-0.28521603 1.07628 2.4076791
-0.33076024 1.0689026 2.4209559
-0.38080502 1.0535049 2.4101093
-0.43113723 1.0511152 2.4280992
-0.39684257 1.0385294 2.400497
-0.44476685 1.0284475 2.405127
-0.49484184 1.0159105 2.4120233
-0.53904712 1.0127848 2.4229953
-0.59047526 1.0053921 2.4313042
-0.62954056 0.99862182 2.4382601
-0.50026482 0.94691062 2.3931324
-0.53885794 0.96328765 2.3998964
-0.59075612 0.95983952 2.4081817
-0.6434471 0.96584511 2.4228299
-0.69150949 0.95636314 2.4310632
-0.7458874 0.94691062 2.4400139
-0.44855377 0.89520383 2.3945842
-0.48760131 0.90813386 2.4005346
-0.53646135 0.9131375 2.4062777
-0.59075612 0.90813053 2.4144764
-0.64497429 0.90495574 2.4240935
-0.69022834 0.91225779 2.4291916
-0.7458874 0.90813053 2.4377847
-0.7846697 0.92105722 2.4437184
0.5323481 0.8693462 2.4012384
-0.39684254 0.84349275 2.3929691
-0.43925714 0.85289967 2.3981025
-0.48423839 0.85900474 2.4042637
-0.53904712 0.85641938 2.4160647
-0.59654826 0.85645628 2.4246826
-0.63988191 0.8618359 2.4328971
-0.68986946 0.86072826 2.4415903
0.54210967 0.8051421 2.4263275
0.49499601 0.80780768 2.4084961
0.44344425 0.80571008 2.4018185
0.39677906 0.79286057 2.3992748
-0.33220685 0.7917816 2.3946106
-0.38536981 0.80378759 2.4001009
-0.43304169 0.80929339 2.4066439
-0.48733819 0.80470824 2.4145072
-0.54212987 0.802818 2.4255123
-0.58817077 0.80829519 2.43117
-0.63815832 0.80901712 2.4406445
0.53393668 0.76592827 2.438225
0.48869053 0.76047546 2.4330468
0.44387004 0.7580713 2.4294727
0.39255586 0.75338006 2.4175317
0.34683105 0.75252354 2.4009287
-0.2904835 0.74300826 2.3976111
-0.33376828 0.75688553 2.4014888
-0.38391584 0.75299925 2.4111006
-0.44188011 0.75041348 2.4198384
-0.48896357 0.75604773 2.4267871
-0.53904712 0.75299925 2.4358366
-0.59075612 0.76592815 2.4405746
0.37598932 0.71803248 2.4281597
0.3387602 0.70298535 2.4145594
0.2942034 0.68872875 2.3990264
-0.19000401 0.68836361 2.392453
-0.23790517 0.69231552 2.3978734
-0.27833462 0.70376801 2.4024732
-0.33220685 0.70129031 2.412539
-0.38967428 0.69557446 2.4224217
-0.43557563 0.70674515 2.4278848
-0.48733819 0.70129025 2.4372652
-0.52611822 0.71421695 2.4409077
0.33290523 0.6564182 2.4297137
0.28987738 0.64967591 2.4173834
0.24086867 0.64566553 2.4006476
-0.13588995 0.63517648 2.3982544
-0.17707664 0.64869517 2.3998277
-0.22476999 0.65371817 2.4043941
-0.28049678 0.64957917 2.4143569
-0.33685228 0.6450761 2.4232602
-0.38019899 0.65337169 2.4291892
-0.43562704 0.64957911 2.4386175
-0.47441149 0.66250575 2.4418697
0.27864072 0.60766798 2.4338696
0.23480873 0.59764206 2.4188416
0.18650204 0.59014893 2.3997836
0.13318373 0.58088171 2.3981462
0.083240956 0.58551848 2.4008183
0.027178263 0.59417248 2.4014308
-0.021946412 0.59988236 2.40273
-0.073034033 0.60371 2.4046476
-0.12536657 0.59815997 2.4132421
-0.18008226 0.59156841 2.422092
-0.22878669 0.59575218 2.4245739
-0.28223184 0.60236162 2.4284995
-0.32962134 0.60281318 2.4344926
-0.38391584 0.61079466 2.4402966
0.22769374 0.55507249 2.4326262
0.18420224 0.54132599 2.4231753
0.13341682 0.54075229 2.422153
0.081473731 0.54542214 2.4256108
0.02976376 0.54802924 2.4286854
-0.020660888 0.55189919 2.430999
-0.071071006 0.55590117 2.4309335
-0.12105735 0.56327987 2.4328899
-0.17707662 0.55908793 2.4381342
-0.22878669 0.55908793 2.4421697
0.18489388 0.50737673 2.4410951
0.14611118 0.50737673 2.440418
-0.23309587 0.31535962 2.4177327
-0.27618763 0.31644163 2.4177327
-0.20200785 0.28329951 2.4177327
-0.21244839 0.30389461 2.400497
-0.2934241 0.31005171 2.400497
-0.33551055 0.30131903 2.415087
-0.38133049 0.29145408 2.4194739
-0.44096333 0.27998984 2.4079933
-0.47311196 0.27087718 2.4211769
-0.19246587 0.22810882 2.4160957
-0.5023905 0.23762414 2.4106545
-0.18513311 0.1841885 2.4134238
-0.49908546 0.18137282 2.4158881
-0.17829061 0.13247842 2.4134238
-0.49116254 0.1350639 2.4175961
-0.16645028 0.076459862 2.4115412
-0.4621886 0.067840971 2.400497
-0.47573403 0.081831463 2.4144542
-0.15330264 0.016130695 2.4134238
-0.15862378 0.041985847 2.4134238
-0.45383996 0.024882389 2.4092329
-0.14024569 -0.022709224 2.4134238
-0.43936113 -0.023320479 2.4169915
-0.13266681 -0.074361876 2.4134238
-0.29342407 -0.087289415 2.3931279
-0.33656943 -0.090518251 2.3993559
-0.38391581 -0.074558109 2.4003046
-0.42461595 -0.074830882 2.4139218
-0.12852809 -0.12825969 2.4109049
-0.17707656 -0.14460263 2.3987277
-0.22949037 -0.13361627 2.3998277
-0.28088254 -0.12088291 2.4026189
-0.33220679 -0.12607187 2.411062
-0.38926551 -0.13247076 2.4217372
-0.42270029 -0.11314443 2.4322853
-0.11954515 -0.18082398 2.4210401
-0.17707656 -0.17778203 2.4094536
-0.23137213 -0.18374054 2.417243
-0.28037548 -0.18325675 2.4238739
-0.33454379 -0.17411171 2.4277349
-0.38391575 -0.17778204 2.4361806
-0.12700628 -0.22837284 2.4279656
-0.17707656 -0.22990665 2.4260416
-0.22476861 -0.22529522 2.430263
-0.27618757 -0.225183 2.4369376
-0.31927916 -0.21656476 2.4403737
-0.12536648 -0.26827461 2.4397736
-0.17707655 -0.26827464 2.4396038
0.34002405 1.242411 2.452204
0.28831396 1.2421441 2.4651327
0.23325232 1.2351854 2.4564955
0.18713658 1.2274581 2.4673524
0.13318367 1.2212747 2.4651327
0.077157371 1.2087717 2.4679675
0.025728509 1.1845361 2.4610598
-0.023936721 1.1797336 2.4679027
-0.076242 1.162451 2.46136
-0.12278109 1.1594635 2.4620509
-0.17873375 1.1590432 2.4597707
-0.22737044 1.1523823 2.4803569
-0.24069591 1.1323797 2.4586685
-0.28331602 1.1073641 2.4692514
-0.32789767 1.0971184 2.4815433
-0.33220688 1.0855831 2.452204
-0.38522258 1.0771103 2.4642375
-0.43304172 1.0666447 2.4688129
-0.48283297 1.0530585 2.4636929
-0.53582865 1.0480862 2.480794
-0.59506506 1.04784 2.4857161
-0.62954062 1.050333 2.4851704
-0.50026488 1.0389178 2.452204
-0.53904718 1.0321709 2.452204
-0.59556699 1.030334 2.4586685
-0.64431387 1.0212914 2.4599497
-0.6948871 1.0114597 2.4639039
-0.74330163 1.0063412 2.4737895
-0.79498965 0.99905211 2.4782195
-0.74475074 0.97256285 2.4528058
-0.80023837 0.96246564 2.4631085
-0.8514396 0.95424074 2.4762747
-0.8967098 0.94458377 2.4819508
-0.80967844 0.90648246 2.4506962
-0.8493076 0.90813053 2.4579999
-0.90830612 0.9140684 2.4716113
-0.95048678 0.90604043 2.4802275
-1.0044367 0.89520383 2.489049
-0.7071051 0.84349275 2.448365
-0.74863917 0.85454738 2.4515438
-0.79501104 0.85961014 2.4570091
-0.8493076 0.85641938 2.4660571
-0.90190786 0.85039276 2.475841
-0.9482739 0.86097097 2.4812763
-1.0044367 0.85641938 2.4908836
-1.0432211 0.86934602 2.494406
-0.6553939 0.79178154 2.4466836
-0.69467485 0.80418092 2.4520218
-0.74588734 0.80470824 2.458493
-0.7975964 0.80470824 2.4682579
-0.85006768 0.80357689 2.4774356
-0.90101868 0.80470824 2.4871087
-0.94841802 0.80901712 2.4935102
0.53393668 0.737809 2.4509001
0.50808197 0.73412448 2.4493356
-0.59075612 0.74007034 2.4467697
-0.64304036 0.75244766 2.4521139
-0.6941784 0.75299925 2.4606771
-0.7458874 0.75299925 2.4694438
-0.79724723 0.75346422 2.478086
-0.8493076 0.75299925 2.4859028
-0.8967098 0.7573089 2.4930735
0.54378116 0.69779843 2.476465
0.49515435 0.7006579 2.4642766
0.44516471 0.70592082 2.4550674
0.39804399 0.69498962 2.4496772
-0.5498845 0.69122559 2.4491105
-0.59180599 0.70503938 2.4529369
-0.6424672 0.70129025 2.4617186
-0.70065391 0.6987049 2.4718392
-0.74808615 0.70351636 2.4782786
-0.7975964 0.70129025 2.4878345
-0.8493076 0.71421695 2.493916
0.53393668 0.66250587 2.4936733
0.49084511 0.66569471 2.4826362
0.44202295 0.65104365 2.4795318
0.38514012 0.65019792 2.4565518
0.35295147 0.63665253 2.4457746
-0.49798626 0.63967502 2.4493527
-0.53682756 0.6514765 2.4536202
-0.59075612 0.64957911 2.4628634
-0.64883769 0.64699376 2.4722486
-0.69471323 0.65385461 2.4788649
-0.74588734 0.64957911 2.4885702
-0.7846697 0.66250575 2.4930072
0.4305169 0.61079478 2.4930511
0.39097166 0.59862375 2.4787626
0.33822089 0.60471421 2.4570239
0.29868391 0.58780652 2.4535043
-0.38822472 0.58251429 2.4491589
-0.43344057 0.59401929 2.4510846
-0.48380515 0.60171133 2.4553509
-0.53904712 0.59786797 2.4645128
-0.59650791 0.59262145 2.473963
-0.64230305 0.60358131 2.479625
-0.6941784 0.59786797 2.4882483
-0.7329585 0.61079466 2.4919922
0.37880659 0.55908799 2.4888682
0.3387503 0.54703712 2.478785
0.28534952 0.54802364 2.4631541
0.24938101 0.5334022 2.452276
-0.086583823 0.52681863 2.448493
-0.12718251 0.53228402 2.451653
-0.17707662 0.53498197 2.4533215
-0.22878669 0.53769785 2.4548118
-0.28049678 0.54691797 2.4530342
-0.33144447 0.55204856 2.4560535
-0.38391587 0.54591107 2.4642549
-0.43562701 0.53994459 2.471854
-0.48529232 0.5416972 2.4758546
-0.54218632 0.54990149 2.4796185
-0.58817077 0.55049306 2.4855924
-0.6424672 0.55908787 2.4900308
-0.6812517 0.55908787 2.4941456
0.32709676 0.50737673 2.4949133
0.28104737 0.50171715 2.4816279
0.23801912 0.49296963 2.4638615
0.18489389 0.48350242 2.4531448
0.13059823 0.49002108 2.4525859
0.081473745 0.4965063 2.4545228
0.031105787 0.50040478 2.4569223
-0.021946391 0.49332866 2.4643877
-0.071809702 0.49219486 2.4676588
-0.12279827 0.4899734 2.4750435
-0.17707659 0.49391386 2.4773695
-0.22878666 0.49586272 2.4796524
-0.28486454 0.49902177 2.4812791
-0.33220682 0.49988636 2.4843614
-0.3796069 0.51051992 2.4825509
-0.43562701 0.50737667 2.4892588
-0.48733816 0.50737667 2.4934309
0.23368602 0.44573358 2.4831781
0.18489391 0.4411408 2.4763782
0.13318375 0.44342795 2.4788787
0.081449188 0.44826189 2.4822133
0.029763771 0.45989835 2.4804909
-0.021946384 0.45566559 2.486042
-0.073656462 0.45566559 2.4908757
-0.11243896 0.45566559 2.4952269
-0.23183192 0.32614011 2.4630299
-0.28374717 0.32749787 2.466614
-0.32789761 0.32053253 2.4694424
-0.37098911 0.3123017 2.4780617
-0.19719759 0.28760862 2.4651327
-0.34513441 0.31115136 2.452204
-0.38905424 0.30224928 2.4590487
-0.43249923 0.29732031 2.4682665
-0.49086478 0.27624762 2.4675527
-0.18916522 0.24012606 2.4687128
-0.51501381 0.23589852 2.452204
-0.52327639 0.23158933 2.4820316
-0.18538556 0.18418849 2.4734681
-0.51278329 0.18418847 2.4651327
-0.17473087 0.13247842 2.4651327
-0.50201464 0.12687005 2.4649796
-0.16434406 0.080989413 2.4651327
-0.48792285 0.080768317 2.4651327
-0.15092844 0.029058272 2.4651327
-0.46536124 0.016130667 2.452204
-0.47448647 0.032092348 2.4685338
-0.13544871 -0.016076172 2.4628642
-0.45750681 -0.022651915 2.4651327
-0.12502432 -0.074361868 2.4651327
-0.44550455 -0.069244534 2.464128
-0.11075079 -0.1200575 2.4637699
-0.41523856 -0.13899931 2.452204
-0.4269231 -0.13139704 2.4663763
-0.096361034 -0.18723425 2.4780617
-0.10563558 -0.17778203 2.452204
-0.40611991 -0.17778203 2.4651327
-0.42270029 -0.16485447 2.4924378
-0.078712404 -0.22913457 2.4599566
-0.29342404 -0.24241947 2.4453995
-0.33616453 -0.23963161 2.4503791
-0.38805601 -0.22625715 2.4591665
-0.081211731 -0.27910513 2.4554944
-0.12536648 -0.29412973 2.4456799
-0.18321902 -0.29841441 2.4508007
-0.22878662 -0.28366011 2.4505455
-0.2810621 -0.27604556 2.4545763
-0.33220676 -0.2812022 2.4632707
-0.3871012 -0.2786167 2.4676337
-0.068872921 -0.33973673 2.4707851
-0.12536648 -0.32757843 2.4552786
-0.17707655 -0.33291224 2.4609265
-0.23137215 -0.33873934 2.4696529
-0.28126705 -0.33902824 2.4754462
-0.33220676 -0.33114994 2.4790442
-0.38391578 -0.3307929 2.4792378
-0.034873884 -0.38462228 2.4928484
-0.077603042 -0.38585305 2.4791605
-0.12811397 -0.39186618 2.4750068
-0.17707652 -0.38493377 2.4778955
-0.22500388 -0.38052028 2.4819396
-0.27618757 -0.3803131 2.4885857
-0.33220676 -0.37169474 2.4913745
-0.38391575 -0.37169474 2.4922128
-0.077965505 -0.43202326 2.490617
-0.12536643 -0.43633237 2.4882019
-0.17707652 -0.42340505 2.4905448
-0.21585901 -0.42340505 2.4950721
0.12025622 1.2312272 2.5039151
0.073978759 1.2145904 2.5039151
0.029763715 1.1934886 2.5039151
-0.026393633 1.1885265 2.5142565
-0.068428442 1.1761481 2.5223105
-0.13093074 1.1769525 2.5114403
-0.17172045 1.1765574 2.5189459
-0.2490992 1.1537511 2.5297685
-0.28115982 1.1244522 2.5194271
-0.33675495 1.1072789 2.5123813
-0.37676173 1.1001716 2.5240083
-0.42270038 1.0959637 2.5297685
-0.39684257 1.091979 2.5039151
-0.44478804 1.0819899 2.5082669
-0.49144226 1.0765628 2.5185673
-0.53646135 1.0673692 2.5211737
-0.59075618 1.0609465 2.5168419
-0.64606827 1.0593954 2.5156808
-0.69892246 1.0530854 2.5253682
-0.73295856 1.0503329 2.5390878
-0.69417846 1.0351381 2.5039151
-0.75054055 1.0298027 2.5124896
-0.80207902 1.018597 2.5176151
-0.84285855 1.0044932 2.5352135
-0.85772538 0.9780882 2.5088279
-0.90239573 0.96898234 2.5205324
-0.95121366 0.95243138 2.5148406
-1.0052279 0.94664317 2.5294173
-1.0432211 0.94691056 2.5454686
-1.007233 0.92200685 2.5025418
-1.0607141 0.91064566 2.5135064
-1.1078591 0.9088732 2.5275276
-1.1558682 0.8958028 2.5300455
-1.1983503 0.89520377 2.5446389
-1.0651482 0.84765375 2.5017803
-1.1050266 0.85900468 2.507499
-1.1621538 0.86151987 2.5213387
-1.207405 0.85826725 2.5307972
-1.2586794 0.85211045 2.5408192
-0.97558492 0.79178154 2.5018322
-1.0075001 0.80677116 2.5039907
-1.0535625 0.80880266 2.5097356
-1.107859 0.80470818 2.5189245
-1.1664057 0.80415243 2.5278955
-1.2086916 0.80870914 2.5337946
-1.2586794 0.80901706 2.5419531
-0.91394538 0.74007034 2.4988053
-0.9530862 0.75289941 2.503659
-1.0044367 0.75299925 2.5135865
-1.0561479 0.75299919 2.5212476
-1.1073372 0.75339079 2.5298214
-1.1569823 0.75828105 2.5352046
-1.2069681 0.75730884 2.5427313
-0.86002648 0.68836355 2.5008056
-0.90233648 0.70427728 2.5044005
-0.95272774 0.70129025 2.5140078
-1.0105733 0.6987049 2.5239666
-1.0576397 0.7044701 2.5301604
-1.107859 0.70129019 2.5376825
-1.1552584 0.70559913 2.5449698
0.58564782 0.64930636 2.5050948
0.54463464 0.64399654 2.50453
0.49515432 0.63296252 2.5022218
-0.80778837 0.64311576 2.4997275
-0.85019672 0.65368938 2.5048163
-0.90101868 0.64957911 2.5147734
-0.95864713 0.64373827 2.5252123
-1.0047773 0.65475661 2.5309231
-1.0561478 0.64957905 2.5399141
-1.0949323 0.66250569 2.5434651
0.58564782 0.60426855 2.5371139
0.55025321 0.59944367 2.5293794
0.49771589 0.59053659 2.5240805
0.44562131 0.59610212 2.5055573
-0.75663996 0.58771765 2.5002818
-0.79795033 0.60302597 2.5052793
-0.8493076 0.59786797 2.5155666
-0.90703452 0.59227794 2.5253177
-0.95017576 0.60033751 2.531601
-1.0044366 0.59786797 2.5409544
-1.043221 0.6107946 2.5443785
0.53393668 0.55908799 2.5464039
0.49515432 0.55908799 2.5400343
0.44402489 0.54550493 2.5294209
0.39568385 0.54151452 2.5038853
-0.64677608 0.53097522 2.5008352
-0.69445491 0.53899145 2.5034642
-0.74199033 0.55027151 2.5076334
-0.7975964 0.54615897 2.5177708
-0.85023892 0.53991896 2.5271904
-0.89744449 0.54983175 2.5331395
-0.94841802 0.55046862 2.5412545
-0.99150997 0.55908787 2.5466952
0.42568746 0.49875897 2.5386126
0.39420474 0.49203783 2.5249579
0.34188837 0.49276036 2.5054247
0.30124161 0.48152336 2.4969079
-0.34513441 0.46837822 2.5039151
-0.38391581 0.47764024 2.5015984
-0.43512002 0.4816654 2.5040095
-0.48733816 0.48621723 2.5068605
-0.53904712 0.495823 2.5055587
-0.59006619 0.5004766 2.5079896
-0.6424672 0.49467209 2.5164843
-0.69464582 0.48871136 2.5260329
-0.74588734 0.49434111 2.5296538
-0.79662961 0.50084096 2.5338604
-0.84499866 0.49875888 2.5411413
-0.88809198 0.50737667 2.543752
0.38742501 0.4593457 2.5369287
0.34050503 0.44253594 2.5294991
0.28543571 0.44574389 2.506475
0.029763779 0.42395446 2.5007358
-0.021946382 0.42647403 2.5019734
-0.07320448 0.43004164 2.5040076
-0.12795202 0.43943959 2.5049062
-0.17707659 0.4441435 2.5056911
-0.23129895 0.44760752 2.5073929
-0.28049675 0.44842154 2.5103447
-0.33036003 0.43992519 2.5192258
-0.38404536 0.43718246 2.5254788
-0.43562698 0.44045168 2.5271151
-0.48733816 0.44338018 2.5305672
-0.54221344 0.44744673 2.5331061
-0.58817077 0.45223165 2.5339146
-0.63815832 0.45872492 2.5344136
-0.6941784 0.45566553 2.5431561
0.32709676 0.40395442 2.5428298
0.28729457 0.392057 2.5307949
0.23713271 0.39610821 2.5070434
0.18489395 0.39102772 2.503974
0.13135961 0.39546585 2.5069025
0.079626963 0.39267352 2.5136826
0.029763786 0.38490891 2.5228179
-0.019821141 0.38600904 2.525924
-0.073656447 0.38963258 2.5281484
-0.12536651 0.39263022 2.5315475
-0.17707658 0.39426062 2.5329676
-0.22768424 0.39690369 2.5318751
-0.28049675 0.39893872 2.5362329
-0.33220682 0.40395436 2.5399084
-0.38391581 0.40395436 2.5445397
-0.42270032 0.40395436 2.5467525
0.27538648 0.35224634 2.5432091
0.23650625 0.34498551 2.5338573
0.18108566 0.34389442 2.5332019
0.13318378 0.35463804 2.5312057
0.085782968 0.35574433 2.5340559
0.029763792 0.35224631 2.5410604
-0.021946369 0.35224631 2.5454245
-0.19000395 0.33931869 2.5455213
-0.22731446 0.33851352 2.5205572
-0.27840939 0.33144489 2.5231175
-0.33036003 0.32778031 2.5278742
-0.3796069 0.31401515 2.5125329
-0.19955632 0.28760862 2.5039151
-0.22196776 0.28487438 2.5276217
-0.39684251 0.30691749 2.5297685
-0.44043615 0.3024345 2.5144298
-0.49620023 0.28305495 2.5202637
-0.19795696 0.23589855 2.5039151
-0.21297219 0.24020773 2.5335252
-0.51760626 0.22297095 2.5297685
-0.52667224 0.24199264 2.5102735
-0.19819494 0.17990778 2.5142562
-0.50523424 0.17822629 2.5222988
-0.525635 0.19985603 2.5039151
-0.18372457 0.12975916 2.5202365
-0.50243062 0.13247839 2.5192201
-0.17123847 0.080611348 2.5176446
-0.49676919 0.083881967 2.5142562
-0.14840594 0.02474908 2.5125329
-0.16214345 0.037955053 2.5359759
-0.47990367 0.027274452 2.5197458
-0.13411999 -0.01479652 2.5196252
-0.46327406 -0.035579361 2.5039151
-0.472469 -0.015489209 2.5236049
-0.12150424 -0.074361868 2.5168419
-0.45401794 -0.07833714 2.513202
-0.10320023 -0.1389993 2.5297685
-0.10974414 -0.11531117 2.5142562
-0.44371155 -0.12096307 2.522712
-0.094384395 -0.18610823 2.5168417
-0.41512826 -0.19070962 2.5039151
-0.42511097 -0.18104155 2.5197313
-0.4112418 -0.22949211 2.5168419
-0.40780333 -0.2812022 2.5039151
-0.42218482 -0.27908936 2.5301967
-0.035154823 -0.34652886 2.5042608
-0.29342404 -0.3975499 2.4972696
-0.33220676 -0.40370736 2.5023077
-0.38867471 -0.39639822 2.5093327
-0.038138978 -0.44078955 2.5027511
-0.060729023 -0.45849305 2.5022273
-0.18138562 -0.45341936 2.5005543
-0.23062883 -0.44447851 2.5031044
-0.28053668 -0.4310067 2.5058925
-0.3379299 -0.43374693 2.5096645
-0.37228122 -0.43585518 2.5136616
-0.03271582 -0.49235162 2.5221422
-0.074536107 -0.48665884 2.5048263
-0.12959526 -0.48531011 2.5045013
-0.17449103 -0.48473027 2.5096178
-0.23137207 -0.49423859 2.5204279
-0.2845619 -0.49529514 2.5263469
-0.33576423 -0.49301586 2.527801
-0.37098905 -0.47511488 2.5382097
-0.030244879 -0.53119934 2.5340724
-0.071437746 -0.54632777 2.5256572
-0.12573791 -0.54529393 2.5266697
-0.1770765 -0.53999335 2.5295532
-0.2250472 -0.53561902 2.5335464
-0.28049666 -0.53975141 2.5409002
-0.32789752 -0.53544253 2.5408087
-0.073656358 -0.57853591 2.5416074
-0.12536643 -0.57853591 2.5434036
-0.16414915 -0.57853591 2.546629
-0.13829415 1.1789734 2.5556262
-0.16855197 1.175088 2.5556262
-0.2417143 1.153376 2.5545673
-0.28636 1.1245645 2.564244
-0.33220688 1.1165087 2.5556262
-0.38815412 1.103111 2.559005
-0.42491397 1.0994335 2.5699775
-0.47441152 1.0921776 2.5556262
-0.44855371 1.0915666 2.568553
-0.49164706 1.0886123 2.5728617
-0.54697913 1.0788327 2.5660815
-0.59151351 1.0763569 2.5691204
-0.6462937 1.0816021 2.5646522
-0.69402051 1.0718532 2.5742316
-0.74860042 1.0548955 2.5656583
-0.79971761 1.0518305 2.5792592
-0.79759645 1.0366098 2.5556262
-0.85467547 1.0209986 2.5691707
-0.89846015 0.99706119 2.5771801
-0.93979877 0.98857439 2.5814795
-0.91394538 0.98431182 2.5556262
-0.96004647 0.97661442 2.5610933
-1.0043418 0.96834129 2.5743089
-1.0583668 0.95030749 2.565809
-1.1065727 0.94561243 2.5826817
-1.107859 0.92898881 2.5556262
-1.1584977 0.92275035 2.564178
-1.2140539 0.90957659 2.5702715
-1.2645385 0.89505452 2.5735362
-1.3103905 0.89266807 2.5867939
-1.2825396 0.87040651 2.5540848
-1.316546 0.86041051 2.5591133
-1.3675661 0.85505056 2.5680721
-1.2867963 0.79178149 2.5519991
-1.319742 0.80229479 2.5552945
-1.3594974 0.80689114 2.5568714
-1.227597 0.73778898 2.5541832
-1.2671931 0.75377774 2.5644369
-1.3181919 0.75147051 2.5816722
-1.3534795 0.76592809 2.5702717
-1.1719291 0.68889302 2.5558336
-1.2104419 0.70204365 2.569206
-1.2497613 0.71444929 2.5816517
-1.1142141 0.64403522 2.5546823
-1.1606612 0.64948708 2.57546
-1.1983502 0.66821778 2.5855789
-1.0603559 0.59400213 2.5558393
-1.1089836 0.59688556 2.5802684
-1.1466391 0.6107946 2.5970869
0.59597582 0.54785478 2.5700934
0.55308586 0.54604733 2.5572112
0.49895895 0.53096914 2.5543103
-0.97637916 0.53323007 2.5525508
-1.0129601 0.54438639 2.5612121
-1.0556926 0.55210268 2.5801198
0.59211117 0.50352788 2.5895801
0.54937571 0.49819794 2.5833185
0.49517518 0.48833895 2.5777137
0.45602164 0.4948397 2.5558424
-0.86223423 0.47680178 2.553442
-0.90294033 0.48611969 2.5544269
-0.95663768 0.49517432 2.5644147
-1.0020517 0.50322074 2.5836456
0.48620531 0.44920227 2.5899374
0.44186789 0.44464791 2.5703049
0.39663249 0.43090436 2.5545142
-0.60368282 0.4236058 2.5520167
-0.6424672 0.4267211 2.5538092
-0.69246596 0.43068317 2.5560806
-0.74588734 0.44346982 2.5564859
-0.79742962 0.44843516 2.5598598
-0.84746093 0.43978146 2.5705674
-0.89887828 0.43823951 2.5783172
-0.94533747 0.45013914 2.5873384
0.43560722 0.39886937 2.5865998
0.38967803 0.39255339 2.5698695
0.33964381 0.38583115 2.5567589
-0.33220682 0.37810099 2.5506797
-0.38222799 0.37728027 2.5559199
-0.43821228 0.38837174 2.5573807
-0.4873381 0.39406058 2.5592673
-0.53856838 0.39322186 2.5634596
-0.58890939 0.38795364 2.5706661
-0.64120996 0.3858898 2.5775239
-0.6941784 0.39011273 2.5803242
-0.7469703 0.39588875 2.5846844
-0.79501104 0.40189365 2.5867457
-0.8493076 0.40395433 2.592339
-0.88809198 0.4039543 2.5964162
0.38742507 0.35558608 2.5881822
0.34191576 0.33781093 2.5801852
0.29111931 0.33636987 2.5565794
0.13318378 0.3199622 2.5521214
0.081473783 0.32288387 2.5534575
0.031303555 0.32682472 2.5558679
-0.021946363 0.33046174 2.557934
-0.07365644 0.34066567 2.5570748
-0.1290914 0.34545246 2.5588849
-0.17251763 0.33464107 2.558084
-0.34513441 0.35224628 2.5511167
-0.3848491 0.34004048 2.5552578
-0.4382568 0.3334654 2.5678697
-0.48664939 0.34500077 2.5851176
-0.53473747 0.35541302 2.5858319
-0.59075612 0.35224625 2.5925133
-0.6424672 0.35224625 2.5966282
0.32709682 0.30053604 2.5903931
0.29063886 0.28513455 2.5790038
0.23660399 0.2926439 2.5613134
0.18304713 0.28923255 2.5653894
0.13318378 0.28123298 2.57407
0.082105994 0.28231868 2.5776894
0.029763807 0.28623936 2.5798852
-0.021946356 0.28847751 2.5823991
-0.076561905 0.29240921 2.5851753
-0.12536651 0.30274054 2.5827284
-0.17669435 0.2871218 2.5812235
-0.21414003 0.29246879 2.5575962
-0.44756082 0.28439865 2.5688531
-0.47734725 0.27781481 2.5595446
0.2883141 0.24882618 2.594274
0.23660402 0.25323224 2.5839286
0.18920314 0.25247687 2.5861762
0.13318379 0.24882616 2.5924911
0.08147379 0.24882615 2.5967605
0.042691257 0.24882615 2.5999773
-0.19557792 0.23589855 2.5862894
-0.21457323 0.24143882 2.571883
-0.20204985 0.19711585 2.5814795
-0.21027893 0.19711585 2.5556262
-0.18315093 0.074894965 2.5556262
-0.16414919 0.0080812434 2.5556262
-0.46788079 0.041985821 2.5556262
-0.4760088 0.019507188 2.5556262
-0.1377468 -0.027197158 2.5659673
-0.46147364 -0.035579361 2.5814795
-0.47509977 -0.021948757 2.5563941
-0.12160977 -0.08011087 2.5659676
-0.46191931 -0.078671075 2.5728619
-0.47118145 -0.061434373 2.5556262
-0.10236317 -0.1389993 2.5556262
-0.1114271 -0.12356536 2.5761745
-0.44954753 -0.13263489 2.5699501
-0.093297206 -0.18636532 2.5685527
-0.43644983 -0.17778204 2.568553
-0.061419245 -0.24312246 2.5656154
-0.42306641 -0.23136829 2.5642085
-0.3960129 -0.42269993 2.5562336
-0.0090187127 -0.50097001 2.554682
-0.35156086 -0.50097007 2.5556262
-0.37075731 -0.49526808 2.5752072
0.016836435 -0.55740398 2.5775766
-0.0075656436 -0.55463141 2.5546186
-0.34883627 -0.54288131 2.5653656
0.011282532 -0.59146261 2.5894201
-0.021424264 -0.59201807 2.5677006
-0.073656358 -0.60136557 2.5576925
-0.12536642 -0.60078526 2.558001
-0.17966197 -0.59431088 2.5571458
-0.23414412 -0.59193254 2.5608418
-0.2804966 -0.59499818 2.5658066
-0.3269546 -0.58762062 2.5688062
-0.026255466 -0.62870556 2.5883427
-0.0723584 -0.63563043 2.583216
-0.12536642 -0.64304584 2.5810862
-0.18119508 -0.63124961 2.5796332
-0.22447737 -0.62890416 2.5842757
-0.2804966 -0.63024706 2.5871034
-0.64246726 1.0955764 2.6285443
-0.50026488 1.0901611 2.6073372
-0.54335684 1.0878313 2.6159551
-0.59075618 1.0880662 2.6202641
-0.65539396 1.0899758 2.6073372
-0.69417846 1.0874738 2.6202641
-0.75150913 1.0745602 2.6193736
-0.79759645 1.0622469 2.6202641
-0.84015113 1.0516028 2.6183839
-0.86422437 1.0264004 2.6244898
-0.90762562 1.0116663 2.6176786
-0.95272768 0.99965733 2.6198816
-0.99832195 0.99673545 2.6329505
-1.0432211 0.98905522 2.6331909
-1.0044367 0.98453903 2.6073372
-1.0615826 0.97337979 2.6156681
-1.1052736 0.96481776 2.6250963
-1.1625395 0.94844288 2.6181576
-1.2069681 0.94345409 2.6346102
-1.211277 0.93256086 2.6073372
-1.2650042 0.92237598 2.6186097
-1.3175565 0.90772235 2.622422
-1.3652221 0.89517367 2.6263826
-1.3793372 0.87944198 2.6073377
-1.4051906 0.87387335 2.6152365
-1.2468359 0.68836349 2.6073372
-1.2709659 0.69750142 2.613519
-1.3153628 0.70690584 2.6120527
-1.3534795 0.68721473 2.6080036
-1.1876365 0.63665235 2.6073372
-1.2192615 0.65067554 2.6214619
-1.2565248 0.65681565 2.640198
-1.3096508 0.65799785 2.6374826
-1.1269412 0.58016896 2.6073372
-1.1642265 0.5977962 2.6196389
-1.2053629 0.6103633 2.6367717
-1.2945623 0.58494121 2.6202641
-1.3103904 0.60102361 2.6300576
-1.0697995 0.53261369 2.6068518
-1.1088884 0.54560071 2.6239004
-1.1466391 0.56238401 2.6358802
0.63735896 0.47632098 2.6073372
0.61150122 0.4794561 2.6059141
-1.0153629 0.48326623 2.6087286
-1.0547794 0.49592596 2.625886
-1.0949323 0.50737661 2.6438074
0.63735896 0.44378251 2.634469
0.60113096 0.44154975 2.6229529
0.54658478 0.4435823 2.6082652
0.50808197 0.42552981 2.6054621
-0.96120334 0.43489274 2.6090951
-1.0029782 0.44514489 2.6301444
-1.043221 0.4556655 2.6476996
0.59211117 0.39920649 2.6412175
0.5473929 0.39104432 2.6332967
0.4917793 0.39452326 2.6128604
0.45840132 0.37587562 2.606427
-0.81052309 0.37321621 2.6043744
-0.85083473 0.37761998 2.6070285
-0.91017199 0.38945517 2.6130793
-0.95160985 0.39742589 2.6324658
0.53393668 0.35224637 2.6481717
0.49359921 0.34084424 2.6344209
0.43999609 0.34293598 2.6132569
0.39341787 0.32409522 2.6063471
-0.53904706 0.32222638 2.6048563
-0.59124452 0.32625902 2.6072543
-0.64246714 0.33055547 2.6099033
-0.69417834 0.34082311 2.609231
-0.74640471 0.34190547 2.6153724
-0.79793113 0.33686471 2.6252301
-0.84930748 0.33753091 2.6310518
-0.89835501 0.34842101 2.6357818
0.48222682 0.30053604 2.6485069
0.44354784 0.29306516 2.6363528
0.39257553 0.28525898 2.6228559
0.34562257 0.28222474 2.6057601
-0.12536651 0.26818001 2.603997
-0.48713547 0.2928313 2.6098883
-0.54012817 0.28139266 2.6282027
-0.59075606 0.28572655 2.6308882
-0.64246714 0.28864437 2.6345074
-0.69317448 0.29354551 2.6379092
-0.74157768 0.30377862 2.6384785
-0.79759634 0.30053595 2.6472073
-0.83638084 0.30053595 2.6516266
0.38437837 0.24333823 2.637403
0.33859512 0.23747599 2.6214633
0.2888017 0.22261599 2.6070638
0.23660402 0.21744756 2.6044436
0.18121146 0.22139667 2.6065006
0.13318379 0.22502013 2.6087065
0.081473805 0.22734684 2.6099815
0.027178325 0.23405251 2.6096635
-0.024360849 0.24071215 2.6106584
-0.075503185 0.23763932 2.61712
-0.12958631 0.23198099 2.6227612
-0.17759196 0.22678743 2.6166108
-0.53904706 0.2488261 2.6460314
0.33254841 0.19167712 2.6377809
0.28823987 0.17879613 2.6293299
0.23660401 0.17861491 2.6263838
0.18576764 0.17898577 2.629215
0.13318378 0.18308714 2.6318662
0.081473805 0.18536901 2.6345379
0.029763825 0.1874869 2.6370225
-0.017099615 0.19364236 2.636287
-0.069347292 0.20025249 2.6373727
-0.12536646 0.19711585 2.6443129
-0.18585883 0.19711585 2.6324022
-0.21585906 0.17855294 2.6202641
0.28831413 0.14540602 2.6479974
0.23660405 0.14540601 2.6471236
0.18489397 0.14540601 2.6503911
-0.11243888 -0.15164094 2.6073372
-0.1001328 -0.17778203 2.6073372
-0.11243888 -0.16941729 2.6276221
-0.43396553 -0.18209124 2.6158111
-0.071820073 -0.23442896 2.6073372
-0.41439566 -0.24241947 2.6331909
-0.42559043 -0.23463248 2.6163549
-0.35550827 -0.55267817 2.6202641
-0.36943686 -0.52711493 2.6161029
0.017150402 -0.58837509 2.620811
-0.34495571 -0.59399402 2.6187961
0.015876932 -0.64377022 2.6251879
-0.023044033 -0.65439099 2.6082754
-0.069347218 -0.66231781 2.605525
-0.12967561 -0.66934413 2.6159551
-0.17773205 -0.66088933 2.614603
-0.2250838 -0.65596443 2.6074393
-0.28063554 -0.65622693 2.607105
-0.31922117 -0.64270312 2.624593
0.016836457 -0.68195385 2.6473243
-0.019565916 -0.69147241 2.6352706
-0.073656335 -0.69545269 2.6322489
-0.12181372 -0.68435651 2.6324584
-0.19000383 -0.68195385 2.6440151
-0.22854917 -0.6871416 2.6354334
-0.27813321 -0.68644881 2.6358061
-0.64217389 1.1020443 2.6590443
-0.63048267 1.0761864 2.6586404
-0.75814652 1.0606742 2.6579437
-0.81052315 1.0623485 2.6590443
-0.81098789 1.025218 2.658581
-0.87034023 1.0318266 2.6590443
-0.90101868 1.016356 2.6590443
-0.95968086 1.0039059 2.6716247
-0.99855906 0.99685758 2.6626656
-1.0561479 0.98979211 2.6719732
-1.1142671 0.97562391 2.6707244
-1.1595681 0.96658295 2.6719732
-1.2177355 0.95461351 2.6665545
-1.2648034 0.94702905 2.6747158
-1.3146993 0.93813837 2.684902
-1.323969 0.92400146 2.6578507
-1.3687476 0.9215287 2.6739638
-1.4164623 0.89762628 2.6735578
-1.431044 0.88159543 2.6590447
-1.2759148 0.63038647 2.6562223
-1.3248956 0.6360324 2.6597326
-1.3534794 0.63665235 2.665257
-1.2164773 0.58987451 2.6595097
-1.265233 0.59394288 2.6722004
-1.3022944 0.61094463 2.6592958
-1.1661085 0.54194432 2.6633482
-1.2128072 0.54926729 2.6864464
-1.2629881 0.55908781 2.69767
-1.0911727 0.48152325 2.6590443
-1.1153417 0.49101087 2.668282
-1.1573559 0.50310594 2.6867332
0.65229416 0.42981225 2.6818249
-1.0241852 0.42438903 2.6590443
-1.0611407 0.44211167 2.6707332
-1.0951794 0.45539045 2.6847031
0.64760828 0.39214027 2.6746511
0.61552989 0.37590507 2.6580498
-0.96551538 0.37823918 2.6591501
-1.0062175 0.39003178 2.6749644
-1.043221 0.40568182 2.6863031
0.6499216 0.3412607 2.686455
0.59790552 0.3392846 2.6718743
0.54633904 0.33476427 2.6606269
-0.91315109 0.32695115 2.6594443
-0.95121247 0.34103376 2.6779253
-0.99150997 0.35224622 2.6952803
0.63735902 0.30053607 2.7028434
0.5881542 0.29658839 2.6909685
0.5460096 0.28396654 2.6835594
0.49699596 0.28576741 2.6606183
-0.7519573 0.27247724 2.6577249
-0.79759634 0.27691367 2.6603138
-0.85563517 0.28876483 2.661633
-0.90079778 0.28853318 2.6803179
-0.93979871 0.30053592 2.7001693
0.53393674 0.24882619 2.6943052
0.49578395 0.23531908 2.6844933
0.44417417 0.24034922 2.6615252
0.40768296 0.22076562 2.6579278
-0.53818309 0.22417383 2.6595702
-0.59075606 0.23697753 2.6603143
-0.64290869 0.24123636 2.6631482
-0.69781065 0.23470446 2.6735446
-0.74588734 0.23276968 2.6810563
-0.79759628 0.2361089 2.6850843
-0.84698206 0.24449335 2.6868856
-0.88809192 0.24882607 2.7023759
0.48222682 0.19711591 2.6978793
0.44426516 0.18838307 2.6870766
0.39336434 0.18280299 2.6707351
0.35407433 0.16985841 2.6584675
-0.03487391 0.16593361 2.6558714
-0.07365641 0.16830118 2.657289
-0.12757945 0.17133909 2.6590824
-0.17707653 0.16844688 2.6573884
-0.21585903 0.16683884 2.6555252
-0.54021496 0.18805352 2.6894095
-0.59383261 0.18911365 2.6884596
-0.63988179 0.19426835 2.6896422
-0.69417834 0.19711581 2.6955891
-0.74588734 0.19711581 2.7025855
0.43051702 0.14540604 2.7020934
0.3859244 0.13282347 2.6884542
0.3387832 0.13152756 2.6676152
0.28831413 0.12243352 2.6605821
0.23660405 0.12242492 2.6607165
0.18489397 0.12577076 2.6630156
0.13318382 0.1345506 2.6616888
0.078966267 0.13766922 2.6630521
0.029763838 0.13038857 2.6703591
-0.020099526 0.13037734 2.6748791
-0.072675318 0.1272303 2.6810725
-0.12536646 0.13021424 2.6824787
-0.17589822 0.12650774 2.6807358
-0.21585903 0.14540598 2.6803923
0.37880671 0.093695745 2.7005358
0.33734289 0.084284045 2.6908739
0.29089966 0.084969386 2.6844292
0.23660405 0.08231771 2.6874125
0.18563265 0.089070894 2.6872997
0.13576931 0.090279058 2.6895468
0.081473835 0.098171197 2.6879115
0.029763842 0.093695715 2.6946583
-0.021946315 0.093695715 2.6979122
-0.073656388 0.093695708 2.7016103
-0.12536646 0.093695708 2.7020998
-0.17707653 0.0936957 2.7017694
-0.37092721 -0.55550444 2.665597
0.026034949 -0.60438931 2.6719732
-0.35311645 -0.6004048 2.6745591
0.026442673 -0.64317375 2.6719732
-0.32919586 -0.64789933 2.6755097
0.031419791 -0.69733918 2.6735537
-0.021946251 -0.72435445 2.6590443
-0.086583681 -0.72514874 2.6590443
-0.12514707 -0.70771462 2.6725557
-0.17260386 -0.69718885 2.667191
-0.22447734 -0.71369952 2.6568747
-0.28969753 -0.70037538 2.6721795
-0.31927907 -0.68195385 2.7028348
0.023855265 -0.74068898 2.6880422
-0.021946246 -0.74989605 2.6794856
-0.073675521 -0.74133974 2.6757283
-0.11243881 -0.73366505 2.7019832
-0.18321426 -0.740291 2.6887956
-0.22878653 -0.74711829 2.684016
-0.26925266 -0.73671561 2.6811895
-1.107859 0.98443085 2.7107553
-1.1586833 0.96919197 2.7107553
-1.2155859 0.96175754 2.719373
-1.2669662 0.95563096 2.7172186
-1.3093877 0.94263256 2.728399
-1.3664083 0.93731755 2.7107558
-1.327626 0.93471414 2.7107553
-1.3774471 0.93009418 2.7279916
-1.4116539 0.9170627 2.7219198
-1.2242036 0.52127188 2.7107553
-1.2627432 0.53326261 2.710804
-1.1635063 0.48056021 2.7130885
-1.2074525 0.49365541 2.7267923
-1.2565247 0.4958002 2.7293282
-1.115073 0.43764335 2.7141755
-1.1578088 0.4499718 2.7371056
-1.2500614 0.45566547 2.7540739
0.68644834 0.38810661 2.7322886
0.67461896 0.37810108 2.7107553
-1.0631557 0.38428321 2.7175329
-1.1062468 0.39842534 2.7369471
0.68403542 0.32639119 2.7158675
-0.98593235 0.32639104 2.7107553
-1.0116163 0.3359504 2.7203498
-1.0509431 0.34491044 2.7389324
-1.2180547 0.35812154 2.7366087
0.68906575 0.28169149 2.7278984
0.65389889 0.28974065 2.7145002
0.6064654 0.27050176 2.7103636
-0.9207319 0.26832685 2.7107553
-0.95758045 0.28744447 2.7228713
-0.99748456 0.29467025 2.7421536
0.69768506 0.24020781 2.7507422
0.65185374 0.23955195 2.7381985
0.59962636 0.22913103 2.73125
0.55050856 0.23255324 2.7115512
-0.86499935 0.22031616 2.7087581
-0.90752995 0.23536043 2.727217
-0.93979871 0.25089997 2.7380869
0.63735902 0.19711593 2.7555432
0.5942657 0.18849766 2.7493775
0.54936367 0.18139349 2.7343698
0.49897715 0.18031932 2.710932
-0.64677602 0.16436774 2.7092183
-0.69298476 0.171841 2.7111225
-0.74588734 0.17721952 2.7142897
-0.79909569 0.18913785 2.7142129
-0.85049331 0.18396682 2.7304413
-0.88809192 0.20188956 2.7403042
0.54255456 0.13678765 2.7495127
0.49816853 0.12967643 2.7340267
0.44525144 0.13076028 2.712328
-0.54089403 0.13477741 2.7206039
-0.59075606 0.13148251 2.7230954
-0.64310473 0.12664089 2.7317932
-0.69417834 0.13221826 2.7362535
-0.74808168 0.13705714 2.7400815
-0.79501098 0.1431684 2.7422516
-0.83638084 0.14540592 2.7505527
0.49084523 0.085077532 2.7498245
0.44580907 0.078397952 2.734731
0.39273897 0.079623803 2.7125621
0.33571509 0.059479762 2.719373
0.28572863 0.064590797 2.7201524
0.23660406 0.063449286 2.7236819
0.18230848 0.062650748 2.7202044
0.12887467 0.06458085 2.7086785
0.081473835 0.065902345 2.7088909
0.029763849 0.066726387 2.7098076
-0.020417614 0.068550728 2.7111208
-0.073656388 0.072559275 2.7134051
-0.12536645 0.072647847 2.7133145
-0.17707652 0.073098488 2.7137649
-0.50026476 0.067840964 2.7555211
-0.53258264 0.088418648 2.7438498
-0.59075606 0.093695663 2.7458797
-0.64246714 0.093695655 2.7527678
0.44344437 0.041985899 2.7478874
0.39606708 0.040930312 2.733902
0.35120049 0.041386217 2.7332036
0.12301453 0.044975955 2.7373655
0.081473842 0.041671142 2.7349727
0.029763855 0.041005824 2.7337227
-0.024531823 0.034683634 2.7377629
-0.07365638 0.031637363 2.7402992
-0.12536645 0.030649675 2.7387607
-0.16414917 0.031291191 2.7391694
-0.16414917 -0.0097244447 2.7522292
-0.37098897 -0.56331247 2.7107553
0.027265627 -0.60438931 2.7107553
-0.35922045 -0.59577155 2.719373
0.032976892 -0.64931566 2.7262673
-0.3392182 -0.64911646 2.7236819
0.042691361 -0.67636746 2.7107553
-0.30009374 -0.71390694 2.719373
-0.3222492 -0.68765932 2.7279909
0.041138645 -0.75470364 2.7183712
-0.081634946 -0.7648859 2.7156267
-0.12734284 -0.74833369 2.7253759
-0.17050137 -0.76413727 2.7106881
-0.21585894 -0.77832049 2.7107553
-0.28131068 -0.74774945 2.7216539
0.031405136 -0.80056548 2.7333851
-0.020888053 -0.79752564 2.7223375
-0.061964191 -0.7871545 2.7345467
-0.14659248 -0.78537619 2.7460451
-0.17707644 -0.80098128 2.7324979
-0.2306333 -0.79844886 2.7280176
-0.26777399 -0.78566295 2.7356806
0.016836489 -0.83708733 2.7513688
-0.0090186493 -0.83708733 2.7508528
-1.3534795 0.9365322 2.7624664
-1.3793372 0.93468767 2.7624669
-1.4190947 0.92105716 2.7624669
-1.1745223 0.42880014 2.7618325
-1.216503 0.44213206 2.7635853
-1.2618474 0.4472577 2.7638774
-1.1203252 0.37851572 2.7627575
-1.1568885 0.389458 2.7783537
-1.2168941 0.38684005 2.7855463
-1.2500614 0.40941045 2.7932997
-1.067511 0.32780147 2.7636478
-1.1070306 0.34034374 2.7805037
-1.1466391 0.35224622 2.7990911
-1.2156763 0.3522462 2.7747159
-1.0135163 0.27963504 2.7639799
-1.0554773 0.2890074 2.7844453
-1.0949323 0.30053592 2.802983
0.70630437 0.21615082 2.7605705
-0.96027482 0.23107034 2.766072
-1.0039365 0.24150755 2.7869272
-1.043221 0.24882606 2.8065395
0.70337021 0.17730843 2.7845607
0.65455562 0.18598604 2.7652245
0.61380464 0.17000525 2.7618723
-0.90563196 0.17969644 2.7709665
-0.9507618 0.19250609 2.7899821
0.69768506 0.13678767 2.8002193
0.64986271 0.13292599 2.7886977
0.59628475 0.13280526 2.772289
0.55984449 0.11950164 2.7624443
-0.8070823 0.11478388 2.7614892
-0.85601187 0.12979116 2.7723885
-0.89430666 0.13932891 2.7944007
0.63735902 0.093695767 2.8034551
0.59649986 0.083062664 2.7921479
0.5471431 0.080768287 2.7751758
0.50743645 0.068472639 2.7627194
0.28831413 0.055242199 2.7753932
0.2409132 0.055524744 2.7710845
-0.50026476 0.059271261 2.7624664
-0.54335672 0.062367581 2.7610016
-0.59330165 0.066782102 2.7617474
-0.64246714 0.072106272 2.7649164
-0.69798231 0.084565625 2.7647359
-0.74588734 0.079547651 2.7746532
-0.79704696 0.075511731 2.7839694
-0.84216225 0.087927938 2.7954571
0.54396361 0.031603593 2.7928798
0.49508417 0.025285905 2.7758286
0.44075891 0.015329864 2.7690623
0.39515749 0.021578973 2.7774465
0.33540002 0.040417783 2.7767451
0.22367671 0.048614036 2.7883201
0.18492708 0.044106252 2.7808073
0.13849236 0.039499447 2.7703438
0.081473857 0.034085229 2.7753932
0.023916487 0.02371081 2.7817135
-0.019983798 0.015737105 2.7727368
-0.073656365 0.010915021 2.7753932
-0.12105723 0.0082911402 2.7710845
-0.50308549 0.021479171 2.7844138
-0.53904706 0.025694374 2.7842789
-0.59075606 0.027496837 2.786402
-0.64693743 0.032508314 2.7902799
-0.69159299 0.038336407 2.7927046
-0.74588734 0.041985795 2.7970679
-0.78466964 0.041985795 2.8024447
0.53393674 -0.0097243842 2.8070071
0.49515444 -0.0097243879 2.8028836
-0.14264837 -0.0057270764 2.7883201
-0.15880464 -0.0097244447 2.7624664
-0.50026476 -0.0097244745 2.7953227
-0.53904706 -0.0097244782 2.8057804
0.036518913 -0.65306389 2.7753932
-0.33977979 -0.64317375 2.7619634
0.042691376 -0.68195385 2.7983584
-0.31118685 -0.70781165 2.7883201
-0.31709734 -0.7021032 2.7710845
0.056800153 -0.75090069 2.7797022
0.051439114 -0.73366505 2.7624664
-0.11243881 -0.76718307 2.7624664
-0.29585823 -0.75201452 2.7753551
0.06750533 -0.79573882 2.7761836
-0.076004162 -0.80135465 2.773632
-0.12197811 -0.80024624 2.7800329
-0.24447535 -0.81920022 2.7710845
-0.27098268 -0.80058414 2.7789385
0.067372322 -0.85033655 2.7879078
0.033484995 -0.85662025 2.7714992
-0.026641883 -0.8483997 2.765913
-0.079403408 -0.84469903 2.784287
-0.12536636 -0.85806775 2.7828977
-0.17787313 -0.85308206 2.773109
-0.22171049 -0.84393185 2.7795148
0.029763946 -0.88879412 2.7951219
-0.024931708 -0.89539278 2.7926064
-0.074154496 -0.89623559 2.7910614
-0.12105717 -0.89741343 2.7988749
-0.17707644 -0.88879412 2.7987909
-0.06072893 -0.94050533 2.8071661
-1.2343394 0.3781009 2.8141775
-1.2618128 0.39132103 2.8318808
-1.1427824 0.32639104 2.8141775
-1.1621537 0.33595154 2.8158765
-1.2129143 0.34383118 2.8212137
-1.0753338 0.2692109 2.8141775
-1.1131413 0.2867662 2.8257241
-1.162867 0.29313019 2.8431268
-1.2042763 0.29388091 2.844255
-1.0194019 0.22120014 2.8128803
-1.058587 0.23345017 2.8291669
-1.0944984 0.24922217 2.8403399
-0.9644931 0.17217346 2.8149233
-1.0047971 0.1841566 2.8312144
-1.043221 0.20155704 2.8435943
0.74077702 0.11955094 2.8214145
0.71597528 0.11893389 2.8137922
-0.90915853 0.12540938 2.8160741
-0.95221579 0.13388428 2.8357646
-0.99150991 0.1454059 2.8516054
0.74077702 0.078931391 2.8387649
0.7012049 0.077388369 2.8320289
0.65342909 0.078081883 2.8150458
0.61150128 0.05226063 2.8141775
-0.85971206 0.07070262 2.823477
-0.90025163 0.08724273 2.8395545
-0.93979871 0.093695633 2.8575006
0.74077702 0.041985925 2.8541956
