# .PCD v0.7 - Point Cloud Data file format
VERSION 0.7
FIELDS x y z
SIZE 4 4 4
TYPE F F F
COUNT 1 1 1
WIDTH 1464
HEIGHT 1
VIEWPOINT 0 0 0 1 0 0 0
POINTS 1464
DATA ascii
-1.5730909 -1.1156268 1.4556091
-1.5633485 -1.1068959 1.4147766
-1.5952598 -1.1088068 1.3805413
-1.6197788 -1.093933 1.3657453
-1.5670438 -1.1640514 1.4614072
-1.5678718 -1.1593111 1.4172387
-1.5980453 -1.1585076 1.3921661
-1.5707345 -1.1870688 1.4524775
-1.5750755 -1.2025478 1.4211724
-1.574461 -1.2295539 1.420336
-1.8680174 -0.15273313 1.2452637
-1.8870269 -0.14170998 1.2200902
-1.9009186 -0.1373706 1.1780543
-1.9115597 -0.14530474 1.1348296
-1.9273413 -0.16036841 1.103779
-1.9170516 -0.17728066 1.0853038
-1.936838 -0.19608848 1.0683298
-1.9126916 -0.2367644 1.0639353
-1.9260423 -0.23883411 1.0615737
-1.9082007 -0.26714328 1.0606124
-1.9140954 -0.27872959 1.0570838
-1.9098961 -0.32042184 1.0479953
-1.9102395 -0.36022934 1.040343
-1.9020108 -0.40022936 1.0336859
-1.893541 -0.43943131 1.0288339
-1.8871223 -0.48017579 1.0270097
-1.8402667 -0.52716994 1.0574974
-1.8771638 -0.52458084 1.0355661
-1.8470635 -0.56387186 1.0613532
-1.8757427 -0.56832254 1.0444288
-1.8495382 -0.60670608 1.0676255
-1.819592 -0.65502882 1.0947437
-1.8493592 -0.6546461 1.0767381
-1.7879722 -0.7105788 1.1260016
-1.8186882 -0.70448864 1.1036901
-1.7909294 -0.74449611 1.1306617
-1.8210137 -0.74402773 1.1102777
-1.7618754 -0.79184926 1.1602739
-1.7930158 -0.78619504 1.1377654
-1.6573088 -0.83421856 1.4575794
-1.7637089 -0.82505089 1.1649597
-1.7915486 -0.82966316 1.1466844
-1.6508893 -0.86459738 1.4595549
-1.7335298 -0.87270141 1.1937277
-1.7657782 -0.86680722 1.1719639
-1.6540147 -0.91153383 1.4634067
-1.7361963 -0.90629542 1.1986544
-1.7644889 -0.91002762 1.1813787
-1.6513617 -0.94917953 1.4757128
-1.6407232 -0.94663078 1.4626787
-1.7075924 -0.95400167 1.2280582
-1.7383239 -0.94773853 1.2060554
-1.629747 -0.99050534 1.4602423
-1.7089791 -0.9868868 1.23289
-1.7370442 -0.99090332 1.215374
-1.6279836 -1.0284046 1.4685681
-1.6127086 -1.0251241 1.4561406
-1.6773713 -1.0240593 1.2608256
-1.7112727 -1.0281656 1.240571
-1.6207583 -1.0736673 1.4711914
-1.6056174 -1.0551167 1.4535596
-1.6347566 -1.0742066 1.3437984
-1.67882 -1.0660516 1.2681022
-1.7098466 -1.0713974 1.2497612
-1.6079805 -1.1001101 1.4763294
-1.6223524 -1.1260667 1.3721128
-1.6376424 -1.123578 1.3484526
-1.6530199 -1.1210136 1.3050623
-1.6834332 -1.1146486 1.275418
-1.6224366 -1.1657746 1.3816955
-1.6416688 -1.1663172 1.344126
-1.6592004 -1.1689641 1.3082161
-1.6819541 -1.1597646 1.2858114
-1.5846205 -1.2150567 1.4688236
-1.5884287 -1.2163106 1.4035327
-1.6242021 -1.2096124 1.3868523
-1.6433161 -1.2160516 1.3516581
-1.6601454 -1.2098387 1.3154411
-1.5872235 -1.2511437 1.4650419
-1.5873262 -1.2509915 1.423286
-1.6189117 -1.2472515 1.3974031
-1.6486273 -1.2386768 1.3379052
-1.5927399 -1.287504 1.4623535
-1.5896903 -1.2896501 1.427912
-1.6139832 -1.2934755 1.4009095
-1.603448 -1.3203648 1.4162951
-1.6112796 -1.3228408 1.3928549
-1.9221873 -0.15170808 1.2339458
-1.9397975 -0.1395835 1.1922051
-1.9537973 -0.13998955 1.1535317
-1.9643588 -0.15198338 1.1112038
-1.9738961 -0.16726007 1.0842509
-1.9757906 -0.19159703 1.0655075
-1.9652874 -0.24154367 1.054448
-1.9648064 -0.28711671 1.0457296
-1.9515901 -0.32322687 1.040323
-1.9724975 -0.32848838 1.0354984
-1.947191 -0.36587629 1.0324559
-1.9673353 -0.36899358 1.0287995
-1.93839 -0.39888373 1.0273216
-1.9540613 -0.41168427 1.0229099
-1.9233648 -0.44483265 1.0220882
-1.9451857 -0.44821885 1.0182856
-1.9161695 -0.48524737 1.0194694
-1.9385353 -0.48872441 1.0156746
-1.9178703 -0.52992511 1.0208551
-1.9344417 -0.5264492 1.0176476
-1.9116869 -0.57086682 1.030473
-1.9336298 -0.56139416 1.0222127
-1.9017183 -0.61163861 1.0416015
-1.8723201 -0.66872913 1.0659853
-1.8949447 -0.65605313 1.0521069
-1.8707263 -0.70759302 1.0740727
-1.8978955 -0.6851536 1.0565889
-1.8441758 -0.74948579 1.097363
-1.8715695 -0.74572778 1.0808945
-1.8399827 -0.78989279 1.1080368
-1.8677521 -0.78338134 1.0897882
-1.8165412 -0.83042401 1.1302922
-1.8434806 -0.82776058 1.1135513
-1.8123342 -0.8714233 1.1415246
-1.8400067 -0.8650043 1.123148
-1.786955 -0.91903865 1.1680034
-1.8136888 -0.9078669 1.1482971
-1.7837383 -0.95663989 1.1781278
-1.8122396 -0.94670689 1.1563891
-1.6611234 -1.0033823 1.4820015
-1.7598013 -0.99946618 1.2022972
-1.7883612 -0.99111772 1.1823276
-1.6604543 -1.0383272 1.4861753
-1.7562624 -1.0378416 1.2120835
-1.7854483 -1.0258944 1.1914992
-1.6539779 -1.0800136 1.4914734
-1.7323805 -1.0803748 1.2359962
-1.7603819 -1.0759937 1.2170546
-1.6429645 -1.1133696 1.505716
-1.7014816 -1.143438 1.2696011
-1.7298399 -1.1269895 1.2487729
-1.7580167 -1.1084297 1.2263205
-1.7077159 -1.1772695 1.2764183
-1.7333043 -1.1690035 1.2592764
-1.6127207 -1.2262604 1.4999158
-1.6781836 -1.2181453 1.3027694
-1.7050459 -1.2112561 1.2862803
-1.6242125 -1.2702384 1.5068885
-1.6144999 -1.2575541 1.4963979
-1.6366432 -1.2579622 1.3846087
-1.6463528 -1.2575843 1.3516665
-1.6750054 -1.2539914 1.3122741
-1.7047591 -1.2543615 1.2950194
-1.6208534 -1.2904899 1.5056771
-1.6103098 -1.3012848 1.4877416
-1.6342182 -1.296012 1.3873733
-1.6514728 -1.3017426 1.3492049
-1.6795989 -1.2960336 1.3199739
-1.6208638 -1.3313007 1.481722
-1.6246057 -1.3390509 1.4384183
-1.6446812 -1.3429245 1.3890107
-1.6609868 -1.335326 1.3557326
-2.0030663 -0.13871238 1.1714642
-2.0169907 -0.1395779 1.1327614
-1.961519 -0.15461971 1.2367119
-1.9788046 -0.14247248 1.2018037
-1.9801688 -0.13849285 1.1631302
-2.0015972 -0.14057231 1.1237223
-2.0188873 -0.16239196 1.0848969
-2.013186 -0.19792329 1.0562091
-2.0282636 -0.2081587 1.0511688
-1.9942058 -0.249302 1.0478723
-2.0225966 -0.25368187 1.0424949
-2.0160937 -0.2917484 1.036302
-2.0061572 -0.33369359 1.0293308
-1.9969858 -0.37325665 1.0232213
-1.9931953 -0.41575938 1.0159394
-1.9892157 -0.45352688 1.0097927
-1.9830596 -0.49406531 1.0081139
-1.9696959 -0.53599441 1.0131381
-1.9359635 -0.58293194 1.0266738
-1.9695013 -0.57759053 1.0202626
-1.9463211 -0.62007189 1.0310401
-1.9650345 -0.61916769 1.028259
-1.9361328 -0.6662606 1.0421431
-1.9238065 -0.71623242 1.0542241
-1.8978473 -0.76025158 1.0707098
-1.9190563 -0.75497234 1.0620141
-1.8962926 -0.79842472 1.0791246
-1.9218618 -0.77737665 1.0653119
-1.8657806 -0.84742355 1.1037698
-1.8921175 -0.83590066 1.0880779
-1.8651986 -0.88142872 1.1117188
-1.8908842 -0.88022155 1.0966575
-1.8387177 -0.92842835 1.1362898
-1.8652571 -0.92049646 1.1192359
-1.8332005 -0.9614237 1.1459327
-1.8621154 -0.96443403 1.1299685
-1.8033307 -1.0084524 1.1753625
-1.8341039 -1.0007844 1.15491
-1.8116764 -1.0467749 1.1803483
-1.8361135 -1.0355582 1.1643776
-1.7844224 -1.0942527 1.2097399
-1.8095185 -1.0818115 1.1939905
-1.6639297 -1.1320399 1.5300769
-1.6694283 -1.1212039 1.5205557
-1.759774 -1.1514528 1.2423427
-1.7885928 -1.1319044 1.2232486
-1.7616811 -1.1839319 1.2543206
-1.7850306 -1.1702081 1.2387297
-1.7302554 -1.2252386 1.2773211
-1.7606437 -1.2212526 1.2638664
-1.6516172 -1.2654679 1.5256431
-1.7294312 -1.2670684 1.2817252
-1.7574818 -1.2572672 1.2679729
-1.6450675 -1.3059741 1.522755
-1.7103182 -1.3173274 1.3160362
-1.7295129 -1.2988193 1.2984062
-1.6497338 -1.3381383 1.5238791
-1.6434803 -1.3502423 1.4990153
-1.6532816 -1.3626745 1.4563184
-1.6685026 -1.3602662 1.3998518
-1.6914411 -1.357895 1.3620315
-1.7045134 -1.3412981 1.3365905
-1.6753696 -1.3735739 1.4351766
-1.6865454 -1.3751149 1.4100661
-2.0113132 -0.14369193 1.207291
-2.031976 -0.14187795 1.1819865
-2.0463142 -0.14024496 1.1434344
-2.0663462 -0.1422419 1.1179
-1.9950438 -0.15697956 1.2451403
-2.0194058 -0.15151152 1.2150404
-2.0589714 -0.15479207 1.0905154
-2.0831947 -0.17175256 1.0592483
-2.0674388 -0.20936856 1.0442162
-2.0680497 -0.26015678 1.0342973
-2.0531385 -0.29970735 1.0292331
-2.0698109 -0.30226755 1.0258806
-2.0424197 -0.34107891 1.0220741
-2.0648921 -0.34277308 1.0185115
-2.0328078 -0.37567574 1.0174282
-2.0553548 -0.38773337 1.0111393
-2.0194266 -0.40801254 1.013281
-2.0480373 -0.4215416 1.0050325
-2.0395954 -0.46280476 1.0007558
-2.034425 -0.50456184 0.99976754
-2.0061276 -0.54574025 1.0086424
-2.0253696 -0.54073375 1.0046859
-2.0127409 -0.58651423 1.0150665
-2.0238667 -0.57567883 1.0111547
-1.9957619 -0.62276018 1.024892
-1.9695708 -0.68662125 1.0394652
-1.992579 -0.66714871 1.0326635
-1.9712501 -0.72846985 1.0465939
-1.9859728 -0.71744645 1.0421791
-1.9581732 -0.76458359 1.055194
-1.9474399 -0.80502969 1.0650735
-1.9279794 -0.85098225 1.0784487
-1.9475847 -0.84800971 1.0732309
-1.9239622 -0.8859185 1.0862691
-1.8992358 -0.93665397 1.1064129
-1.9163878 -0.92402923 1.0969775
-1.8919141 -0.97052658 1.1156827
-1.9148324 -0.9689467 1.1052843
-1.8629422 -1.0165057 1.1451163
-1.8897884 -1.008752 1.1281061
-1.8637757 -1.0543053 1.1595019
-1.8892817 -1.0413728 1.1410902
-1.841455 -1.093295 1.1857762
-1.8682215 -1.091858 1.1715196
-1.8134247 -1.1590687 1.2212235
-1.8403234 -1.1379617 1.2025771
-1.813265 -1.1870608 1.234387
-1.7929004 -1.2367568 1.2570311
-1.8167621 -1.2204802 1.2477449
-1.6821963 -1.2809749 1.5251942
-1.7882178 -1.2721775 1.2760096
-1.6777946 -1.301203 1.5268762
-1.6748935 -1.3173324 1.5209637
-1.7636218 -1.312225 1.3034639
-1.6821576 -1.3570058 1.5088511
-1.7234927 -1.3713552 1.365154
-1.745536 -1.3537021 1.340031
-1.6974747 -1.385787 1.4902611
-1.6936251 -1.3847663 1.4656594
-1.7090802 -1.3894947 1.4124324
-1.7256104 -1.384644 1.3807118
-2.0684731 -0.14580941 1.191623
-2.0890491 -0.1401622 1.1568002
-2.1067698 -0.1392082 1.1166973
-2.047188 -0.16742104 1.2181933
-2.0757332 -0.15731737 1.2091359
-2.098031 -0.15386406 1.0855458
-2.1169548 -0.16810548 1.0607399
-2.1306255 -0.17776765 1.0450926
-2.0988367 -0.19320743 1.042184
-2.1214466 -0.21892563 1.0334482
-2.1108842 -0.26732272 1.0261149
-2.1026511 -0.30733249 1.0196378
-2.0969315 -0.346856 1.0124499
-2.096529 -0.38897884 1.0041212
-2.0914752 -0.42945835 0.99780339
-2.0778089 -0.46871796 0.99381566
-2.0952904 -0.47143131 0.99077821
-2.079036 -0.51250565 0.99321139
-2.062706 -0.55026114 1.0000083
-2.0594521 -0.59212965 1.0088007
-2.0343678 -0.62914789 1.0194483
-2.0555201 -0.63345242 1.0165169
-2.0291803 -0.6817162 1.0292232
-2.0222504 -0.73354721 1.0395412
-1.9972278 -0.7705121 1.0499328
-2.0176227 -0.77522075 1.0475509
-1.9969388 -0.8120985 1.0576102
-1.9853922 -0.85348213 1.0675588
-1.9588256 -0.90329361 1.0820041
-1.9695513 -0.89264297 1.0781777
-1.9525152 -0.93928647 1.0902401
-1.9759513 -0.93396866 1.0844071
-1.9503294 -0.97597092 1.0974898
-1.9218667 -1.0248088 1.1209023
-1.9380927 -1.0163475 1.1120495
-1.9177068 -1.0564871 1.1363436
-1.9001125 -1.1031646 1.1661731
-1.9212158 -1.0887798 1.1530232
-1.8776369 -1.1628544 1.2036359
-1.8887452 -1.1338159 1.1834848
-1.8533206 -1.2026424 1.2358035
-1.87243 -1.1859833 1.2229517
-1.8279409 -1.2475879 1.2641076
-1.8459101 -1.2310927 1.2535434
-1.8264492 -1.2788848 1.282603
-1.8032162 -1.3234107 1.313302
-1.823752 -1.3119168 1.3035151
-1.7128975 -1.3750136 1.5144937
-1.7822921 -1.3647368 1.3494856
-1.8054197 -1.3468996 1.3358475
-1.7322307 -1.3954204 1.4813862
-1.7493091 -1.4055103 1.4292629
-1.7640074 -1.3917135 1.3871144
-2.1022666 -0.15338886 1.1966282
-2.1239169 -0.14181492 1.1736372
-2.1417937 -0.13932261 1.1178951
-2.1622188 -0.14780352 1.0824187
-2.1092532 -0.16263965 1.1992321
-2.1507049 -0.16182619 1.0620198
-2.170022 -0.17669164 1.0420766
-2.1659057 -0.2225271 1.0252751
-2.148483 -0.27311009 1.0187773
-2.1675968 -0.2760464 1.0149516
-2.1389599 -0.31233364 1.012822
-2.1663244 -0.32057965 1.0066448
-2.1314235 -0.34271449 1.0078795
-2.1547575 -0.36092508 0.99996424
-2.1430585 -0.39606774 0.99493998
-2.135361 -0.43622756 0.9894737
-2.1279936 -0.47650909 0.9851253
-2.1231632 -0.52060533 0.98592591
-2.0966682 -0.56682682 0.99735981
-2.1199188 -0.55384737 0.99121737
-2.1039748 -0.59978586 1.0025973
-2.0849092 -0.63802844 1.0120132
-2.0590568 -0.70152235 1.0280144
-2.0839632 -0.68400556 1.0193509
-2.0652709 -0.74260032 1.0341547
-2.0768073 -0.73173058 1.0294673
-2.168402 -0.74380547 0.80488491
-2.0481515 -0.77885842 1.0436418
-2.0191941 -0.82825506 1.0569674
-2.0452762 -0.81842649 1.0507784
-2.028549 -0.86178887 1.0622797
-2.043587 -0.85324919 1.0580916
-2.0166814 -0.90089864 1.0717982
-2.0128341 -0.94302756 1.0803244
-1.9847757 -0.98131919 1.0925958
-1.998836 -0.98398697 1.0911123
-1.9803995 -1.0248791 1.1066043
-1.9563662 -1.0769025 1.1403584
-1.9673188 -1.0558691 1.1225592
-1.9286557 -1.1181363 1.2647479
-1.9298621 -1.1210568 1.1714284
-1.9513783 -1.106544 1.1604793
-1.8933264 -1.1724679 1.3007014
-1.9109138 -1.1536487 1.2770306
-1.9161398 -1.1755066 1.2115848
-1.9290476 -1.1470531 1.1889192
-1.875766 -1.2091358 1.3314929
-1.8874569 -1.2057844 1.3077106
-1.8964638 -1.2160094 1.2447634
-1.9076599 -1.1925336 1.2261052
-1.8633118 -1.2381086 1.3482646
-1.8807454 -1.2266986 1.3129644
-1.8846751 -1.242398 1.2635486
-1.8696164 -1.2846709 1.2924106
-1.8120106 -1.3154116 1.3973719
-1.8290617 -1.3342116 1.3791859
-1.8446822 -1.3326466 1.3269005
-1.8515317 -1.3133829 1.307838
-1.7863414 -1.3747814 1.4099127
-1.8177404 -1.3615679 1.3681103
-1.8274632 -1.3449471 1.3373419
-1.7540535 -1.4025209 1.500106
-2.165144 -0.14682809 1.1798964
-2.1815772 -0.14060599 1.1379547
-2.1965282 -0.1457645 1.0855029
-2.2146616 -0.15721169 1.058774
-2.1523137 -0.169168 1.1891756
-2.2045808 -0.17280795 1.0404631
-2.2199943 -0.18803264 1.0269567
-2.2087967 -0.2307688 1.0166389
-2.2010474 -0.28216654 1.007658
-2.2001934 -0.3208518 1.0005482
-2.1968207 -0.36059991 0.99282491
-2.1853652 -0.40055078 0.98766625
-2.1977 -0.41483107 0.98280799
-2.1722176 -0.44190037 0.98227632
-2.1936879 -0.44521022 0.9781692
-2.1648784 -0.47928557 0.97867429
-2.1874032 -0.48571539 0.97455436
-2.1636641 -0.5259037 0.97900683
-2.1816227 -0.51609457 0.974774
-2.157053 -0.56482464 0.98678285
-2.148809 -0.60722113 0.99648303
-2.1224201 -0.64523268 1.0063136
-2.1513677 -0.64492726 1.0011674
-2.1225269 -0.70139921 1.0129962
-2.1395576 -0.67811525 1.0068181
-2.1816986 -0.71648562 0.86334038
-2.1877191 -0.70798171 0.82230341
-2.210952 -0.71157551 0.7901926
-2.1084754 -0.74418831 1.0240853
-2.1773338 -0.75076079 0.8956756
-2.1697168 -0.74492371 0.8612358
-2.1644559 -0.74438477 0.82533336
-2.1960506 -0.74183607 0.77850348
-2.2247567 -0.76086283 0.75974131
-2.0870254 -0.78505158 1.0384781
-2.1136801 -0.78120565 1.0308069
-2.1757965 -0.78179562 0.89511609
-2.167552 -0.78813398 0.86352026
-2.1624262 -0.78542221 0.81886375
-2.1874304 -0.78669047 0.77119648
-2.2157123 -0.79048729 0.75644946
-2.0868747 -0.826491 1.0464048
-2.1651404 -0.83001554 0.85829544
-2.160857 -0.82553631 0.81244844
-2.1800795 -0.8287046 0.77353311
-2.2119238 -0.83154202 0.75507057
-2.0752218 -0.86829817 1.0559776
-2.1633692 -0.87055069 0.85266733
-2.1607895 -0.86833191 0.81305653
-2.1809855 -0.86908537 0.77006197
-2.2087364 -0.87270951 0.75391042
-2.0506225 -0.91668832 1.0687051
-2.0733249 -0.90546995 1.0632353
-2.1613467 -0.90846181 0.84214854
-2.1600153 -0.91439402 0.81673127
-2.1765492 -0.91010672 0.76993763
-2.0562651 -0.95172894 1.0749633
-2.0665638 -0.94140053 1.0716314
-2.1614819 -0.94352877 0.84613597
-2.1592567 -0.95155102 0.81215036
-2.173353 -0.94943601 0.77067107
-2.040493 -0.99070483 1.0859079
-2.1594114 -0.98824632 0.80645454
-2.1684549 -0.98980778 0.77540135
-2.0138254 -1.0390934 1.1051112
-2.031157 -1.0303559 1.0993408
-2.1582787 -1.0342598 0.80120039
-2.1668749 -1.0306329 0.77514911
-1.9910413 -1.0777882 1.2103275
-1.9938564 -1.0795997 1.1390928
-2.0102029 -1.070681 1.126877
-2.1175303 -1.0854189 0.89579362
-2.1615489 -1.0648752 0.78050566
-1.9504912 -1.1170349 1.24158
-1.9835891 -1.1171744 1.2059548
-1.9894829 -1.1128399 1.1656168
-2.0922554 -1.1237581 0.90847927
-2.1027744 -1.1139715 0.89042288
-1.9281602 -1.1666136 1.261948
-1.9472096 -1.1614767 1.2398648
-1.9641725 -1.1518397 1.2008491
-2.0942292 -1.1450131 0.90919769
-2.0993426 -1.165535 0.88917387
-1.9172112 -1.2141669 1.3148228
-1.9163823 -1.2104648 1.2712225
-1.9343898 -1.1989725 1.2414404
-2.0977404 -1.2069987 0.88859069
-1.9124591 -1.2531788 1.3055499
-1.9050474 -1.2403228 1.2780387
-1.9097083 -1.2938051 1.3036897
-1.8587824 -1.3503439 1.3706247
-1.881879 -1.345678 1.3415401
-1.8984735 -1.324451 1.3150468
-1.8720504 -1.3638222 1.3830161
-2.2027431 -0.15836635 1.1862861
-2.2201414 -0.14471591 1.1519909
-2.2395513 -0.13737357 1.1067991
-2.2520485 -0.14841181 1.0664154
-2.2711027 -0.16103366 1.0421286
-2.1869705 -0.17536977 1.1967933
-2.26073 -0.18465061 1.0214616
-2.2482915 -0.23651041 1.0090926
-2.2700469 -0.2539416 1.0017571
-2.235913 -0.28304183 1.0009623
-2.2635455 -0.29068559 0.99407762
-2.2487376 -0.32782406 0.99045497
-2.239269 -0.36960274 0.98429561
-2.2335672 -0.41356623 0.97703236
-2.230346 -0.45083275 0.97068411
-2.2235165 -0.49130586 0.96803421
-2.2100611 -0.5297296 0.97116512
-2.185483 -0.5831573 0.98506862
-2.2131791 -0.570526 0.97720468
-2.1933925 -0.61479592 0.98993731
-2.1834044 -0.65650636 0.99719203
-2.1741867 -0.70615155 0.99880308
-2.2054989 -0.72802186 0.960639
-2.2030811 -0.72378516 0.90661538
-2.2174804 -0.7126987 0.87258673
-2.2270827 -0.70039499 0.8403362
-2.2445762 -0.70443714 0.79229349
-2.261636 -0.71765524 0.77097309
-2.1448808 -0.75253665 1.0150093
-2.1769221 -0.75617594 0.99915391
-2.1917336 -0.75477028 0.95196724
-2.1882129 -0.74561632 0.91538799
-2.2516358 -0.75254327 0.75676465
-2.1458199 -0.79697788 1.0242993
-2.1796923 -0.78912568 1.0059583
-2.1870849 -0.79364204 0.94605589
-2.178895 -0.79562175 0.90811914
-2.2464385 -0.79505849 0.7478283
-2.1099312 -0.84264153 1.0462222
-2.1375628 -0.8357178 1.0388451
-2.1889403 -0.82866716 0.94366962
-2.1836994 -0.83291227 0.90591431
-2.1758351 -0.84370756 0.88282847
-2.2402015 -0.83572924 0.74680978
-2.1188295 -0.87614572 1.0512248
-2.1337607 -0.8675338 1.047205
-2.1894269 -0.87765956 0.88904309
-2.1726191 -0.87408805 0.87600178
-2.2353804 -0.87616527 0.74633759
-2.1089134 -0.91732216 1.0602058
-2.1844079 -0.90803659 0.88717222
-2.1695817 -0.91726673 0.87317574
-2.2218878 -0.91624343 0.74712855
-2.1026278 -0.9577527 1.0684087
-2.1764941 -0.95562017 0.88997287
-2.1621053 -0.9550131 0.86285454
-2.2146561 -0.95785779 0.74707675
-2.0812943 -1.0005667 1.0812986
-2.0913732 -0.99460906 1.0777977
-2.1645994 -0.9967252 0.85763925
-2.1922641 -1.005729 0.75416142
-2.2134933 -0.99679965 0.74562281
-2.0761626 -1.0402665 1.0944062
-2.1642911 -1.0393205 0.86011016
-2.1594722 -1.0407598 0.82339531
-2.1818488 -1.0391238 0.75938737
-2.2124369 -1.0398182 0.74456888
-2.0207262 -1.0664866 1.1941336
-2.0357914 -1.0832934 1.1829907
-2.0477819 -1.0903037 1.1400096
-2.0578158 -1.0687352 1.1125566
-2.139611 -1.0814139 0.89081615
-2.1565719 -1.079003 0.85529143
-2.1580124 -1.079692 0.81039077
-2.1721523 -1.0808812 0.76495212
-2.199307 -1.0795772 0.74739838
-2.0206189 -1.1071793 1.1731867
-2.1233847 -1.1217815 0.92021179
-2.1259179 -1.1135279 0.88222122
-2.1563549 -1.1228373 0.85424
-2.1589961 -1.116225 0.807944
-2.1661541 -1.1157687 0.77309543
-2.1944461 -1.1217031 0.74849313
-1.951998 -1.1886109 1.3303573
-1.9797583 -1.1826582 1.3020265
-2.1104887 -1.1701353 0.91766095
-2.1165049 -1.170797 0.8798058
-2.1508417 -1.1721965 0.8581422
-2.1582575 -1.1708702 0.81605422
-2.1701486 -1.1725 0.76684713
-2.1902468 -1.1668718 0.74815059
-1.951187 -1.199301 1.3167195
-1.9688047 -1.2192775 1.2980542
-2.1100514 -1.2211361 0.91606647
-2.112433 -1.2196162 0.88275695
-2.1416962 -1.2197026 0.86306256
-2.1593206 -1.2210717 0.80548084
-2.1679642 -1.221988 0.76844805
-2.1889405 -1.2239938 0.74670541
-1.9614409 -1.2626176 1.2949312
-2.1052954 -1.2619774 0.9138093
-2.1183066 -1.2597239 0.88275778
-2.1582923 -1.2639678 0.8012054
-2.1651554 -1.2588315 0.77306426
-1.9519624 -1.3008403 1.2862892
-2.0991671 -1.3047581 0.91149396
-2.1107607 -1.302689 0.88134354
-2.1592841 -1.2954755 0.80156636
-2.1655791 -1.3051193 0.77103007
-1.9111539 -1.3560166 1.3459156
-1.9310424 -1.3433987 1.3169005
-1.9545462 -1.3334911 1.2955157
-2.1065509 -1.335265 0.91368246
-2.1090703 -1.3419195 0.88396049
-1.9043244 -1.3715539 1.3872006
-1.9224075 -1.3704014 1.3609552
-2.1189525 -1.3914756 0.8379516
-2.1350138 -1.3966534 0.8146174
-2.1062987 -1.4298898 0.83067203
-2.1200855 -1.4217913 0.81074595
-2.111799 -1.4569237 0.83899552
-2.2781541 -0.13761759 1.118392
-2.2982736 -0.13911876 1.0928884
-2.2621591 -0.15384623 1.164108
-2.2577233 -0.14200693 1.1417155
-2.2882829 -0.14203343 1.0727161
-2.3045528 -0.15695494 1.0425664
-2.3248677 -0.17173663 1.0196407
-2.3073015 -0.19440667 1.0087166
-2.3049705 -0.2429875 0.99813271
-2.3005917 -0.29460782 0.98729372
-2.2917976 -0.33644778 0.98274291
-2.2810059 -0.37397578 0.9767639
-2.304601 -0.38995931 0.96921098
-2.2692199 -0.40905705 0.97160256
-2.2976856 -0.41985816 0.96459156
-2.2634516 -0.45592341 0.96413875
-2.2886417 -0.45979843 0.95918357
-2.2564843 -0.49642858 0.96239972
-2.2831655 -0.50058854 0.95807201
-2.2519505 -0.53850722 0.9658156
-2.2816131 -0.53177673 0.96008986
-2.2512126 -0.58222449 0.97282708
-2.237515 -0.62343776 0.98290801
-2.215487 -0.65844965 0.99150872
-2.2418389 -0.6625182 0.98657042
-2.2982674 -0.69100541 0.80838203
-2.2076879 -0.68857676 0.99310136
-2.2279406 -0.71204096 0.97166932
-2.2364542 -0.7277742 0.92832059
-2.2549832 -0.71638703 0.8836714
-2.2690237 -0.70211995 0.85245061
-2.2894096 -0.69325733 0.81409597
-2.2976489 -0.71351403 0.7694208
-2.3187916 -0.73410261 0.75019747
-2.2220347 -0.73543537 0.93383002
-2.2851911 -0.75971353 0.74779195
-2.3057339 -0.75959378 0.74406666
-2.1886559 -0.79925317 0.99606299
-2.1923606 -0.81001151 0.97123182
-2.2803018 -0.80021799 0.74034429
-2.2955329 -0.80255115 0.73718429
-2.1771133 -0.84312999 1.0296957
-2.2015636 -0.84330046 1.0029767
-2.2018723 -0.83304548 0.96195757
-2.2151978 -0.84749937 0.92538613
-2.2732661 -0.84072423 0.73879111
-2.2893298 -0.84315127 0.73490095
-2.1650088 -0.88328844 1.0442382
-2.217371 -0.88392603 0.90900904
-2.265604 -0.88123041 0.73895937
-2.2840271 -0.88400501 0.7343505
-2.1410232 -0.93083239 1.0579569
-2.1631751 -0.91965127 1.0515245
-2.210119 -0.92775559 0.9066686
-2.258323 -0.92173493 0.73808235
-2.2787008 -0.92485994 0.73391283
-2.14574 -0.96690631 1.0630211
-2.1572208 -0.95568705 1.0594488
-2.1973248 -0.96916586 0.90582877
-2.2508473 -0.96223938 0.73773897
-2.2737372 -0.96611667 0.73375851
-2.1342373 -1.0044945 1.0737419
-2.2007346 -1.0075035 0.89881033
-2.2434225 -1.0027456 0.73725653
-2.2679875 -1.0065277 0.73247725
-2.0794029 -1.0668031 1.1956012
-2.11237 -1.0526829 1.0919366
-2.1295445 -1.041451 1.0859509
-2.1908748 -1.0493711 0.89424878
-2.2471235 -1.0450385 0.73583108
-2.2686288 -1.048367 0.73193979
-2.0700665 -1.0837563 1.1717836
-2.0884414 -1.0917926 1.1581494
-2.1038818 -1.0812464 1.1173469
-2.1745958 -1.0830238 0.9111526
-2.2332966 -1.0880052 0.73654377
-2.2649217 -1.0894355 0.73059058
-2.161418 -1.1266271 0.93876743
-2.2288697 -1.125555 0.73605376
-2.2621243 -1.1306744 0.7295723
-2.0172701 -1.1797531 1.3043373
-2.0355494 -1.1829041 1.2832032
-2.148926 -1.1762575 0.94463646
-2.2214093 -1.1765554 0.7365371
-2.000658 -1.2287756 1.2906903
-2.0298524 -1.230003 1.2834413
-2.1408675 -1.2273114 0.93379718
-2.1604958 -1.2313051 0.84576428
-2.2139127 -1.2275555 0.73715395
-1.9949607 -1.258113 1.2851748
-2.0188351 -1.2662294 1.2745112
-2.1345892 -1.2678175 0.93016398
-2.1534443 -1.2647477 0.8521893
-2.1600018 -1.2691414 0.8245883
-2.2031093 -1.2685206 0.74067128
-1.986425 -1.3192447 1.2801811
-2.0067196 -1.3093635 1.2710657
-2.1292572 -1.3110949 0.93528032
-2.1455774 -1.3067715 0.8573947
-2.1595173 -1.3046228 0.81587392
-2.1810122 -1.3065354 0.75211
-2.2035551 -1.3094947 0.73924607
-1.9706318 -1.361074 1.3260229
-1.990891 -1.3452765 1.3003085
-2.1266384 -1.3497506 0.92236406
-2.1180282 -1.3596249 0.89778697
-2.1407826 -1.3489437 0.85455549
-2.160111 -1.3424191 0.80720651
-2.1654434 -1.3496876 0.77150536
-2.199147 -1.3505187 0.73905849
-1.9512637 -1.3756158 1.3669435
-1.9742062 -1.373296 1.3469813
-2.1322687 -1.386389 0.88624203
-2.1322916 -1.3866372 0.84592563
-2.1505208 -1.3894329 0.80933917
-2.1657014 -1.3886716 0.77107459
-2.1941421 -1.394137 0.74083805
-2.127255 -1.4258434 0.85865045
-2.1445634 -1.4286532 0.79956859
-2.1714141 -1.4325372 0.77227247
-2.191988 -1.43339 0.7478146
-2.1265829 -1.4724067 0.85070127
-2.1471674 -1.4683011 0.81129318
-2.1780815 -1.4712633 0.77922803
-2.1381207 -1.5009692 0.83763319
-2.1555679 -1.5049225 0.82209843
-2.3167846 -0.14138716 1.1324522
-2.3310091 -0.14043504 1.0938607
-2.3509479 -0.14299706 1.0682902
-2.2994454 -0.15428743 1.1632507
-2.3151412 -0.15272316 1.1616541
-2.3412647 -0.14999041 1.0492753
-2.3604624 -0.16599903 1.021369
-2.3473973 -0.20045388 1.0004052
-2.3778241 -0.20866227 0.99362767
-2.3365021 -0.25041503 0.99153912
-2.3633003 -0.25460103 0.98732311
-2.3454576 -0.29956782 0.98023659
-2.3402882 -0.34537637 0.97283328
-2.3355045 -0.38168818 0.96565223
-2.3323479 -0.42522299 0.95831674
-2.3259506 -0.46372929 0.95274276
-2.3200381 -0.50431895 0.95202059
-2.3054886 -0.54604071 0.95771396
-2.2796402 -0.59471047 0.9702661
-2.3023038 -0.58564454 0.96475589
-2.2776263 -0.62556893 0.9764061
-2.296665 -0.61853468 0.97226965
-2.2787476 -0.67030901 0.97957885
-2.3237712 -0.69351959 0.8286072
-2.3400941 -0.69257164 0.79442573
-2.2660904 -0.70423502 0.97143143
-2.2823856 -0.72138047 0.94548625
-2.2932899 -0.72164655 0.8978526
-2.3107765 -0.70387805 0.85897022
-2.3371818 -0.69775969 0.77748877
-2.3435769 -0.72192061 0.75533688
-2.3471341 -0.77022141 0.74181485
-2.3328476 -0.80983609 0.73151243
-2.2178423 -0.86005819 1.0032557
-2.2462411 -0.85808837 0.9748944
-2.2410941 -0.85794091 0.94070578
-2.3272202 -0.8490026 0.72782266
-2.205667 -0.88962746 1.0377705
-2.2328849 -0.87753922 1.0216875
-2.2518013 -0.88625515 0.93308496
-2.3210573 -0.88679188 0.72557068
-2.3485668 -0.89366841 0.71726495
-2.2031698 -0.93170667 1.0463886
-2.243716 -0.93066537 0.92629719
-2.3157341 -0.9304958 0.72561586
-2.3470521 -0.93514806 0.71671367
-2.1911559 -0.97358775 1.0545473
-2.2366278 -0.97116995 0.92489111
-2.3094676 -0.97121561 0.72552311
-2.1741762 -1.0169647 1.0699129
-2.1982613 -1.004287 1.0600153
-2.2275422 -1.0101228 0.91509187
-2.3036454 -1.0120194 0.72557086
-2.1237645 -1.0728364 1.1825657
-2.1425755 -1.0698824 1.1018746
-2.1668212 -1.0535338 1.0847313
-2.2234516 -1.0552661 0.91234708
-2.2986372 -1.0534548 0.7249614
-2.1284294 -1.0933516 1.1627676
-2.1432815 -1.0933762 1.1237621
-2.2006783 -1.1180416 0.94794196
-2.2124097 -1.0967681 0.925457
-2.2916758 -1.0935117 0.72467613
-2.08076 -1.1433711 1.277825
-2.1145899 -1.128185 1.2667681
-2.1988361 -1.1389422 0.95761138
-2.2862759 -1.1344062 0.72509831
-2.0701308 -1.1838441 1.27303
-2.171839 -1.2005181 0.95822418
-2.2534173 -1.2022924 0.72907692
-2.2743754 -1.1816226 0.72570622
-2.0618584 -1.2345243 1.2704749
-2.0913916 -1.2386849 1.2583246
-2.184346 -1.233337 0.96005058
-2.2477057 -1.2326695 0.72910857
-2.2636535 -1.2351408 0.72627193
-2.0543351 -1.2747164 1.2650585
-2.0884037 -1.2694492 1.2572371
-2.171016 -1.2749612 0.9485392
-2.2399647 -1.2731757 0.7294932
-2.2582376 -1.2759578 0.7254231
-2.0469308 -1.3188422 1.2674097
-2.1619887 -1.3168063 0.9507066
-2.232286 -1.3136802 0.72970903
-2.2528431 -1.3167732 0.72451603
-1.9924937 -1.364282 1.3863086
-2.0144477 -1.372401 1.3551073
-2.0240092 -1.3564327 1.304328
-2.0469525 -1.3463907 1.2870662
-2.1578655 -1.3525922 0.95201087
-2.224684 -1.3541864 0.72971237
-2.2472372 -1.3603308 0.72378743
-1.985726 -1.3797641 1.3730576
-1.9923863 -1.3820143 1.3535984
-2.1590948 -1.3849161 0.93092096
-2.1590538 -1.4067096 0.91116899
-2.2233744 -1.3992566 0.73042858
-2.246177 -1.3957181 0.72451782
-2.1633277 -1.4319206 0.89030582
-2.1545603 -1.4453228 0.87539095
-2.2158747 -1.4381875 0.73819965
-2.1672642 -1.479273 0.88404566
-2.1498909 -1.4827504 0.86892444
-2.1702502 -1.4971628 0.80555761
-2.1906185 -1.4820412 0.77220601
-2.2135911 -1.4768912 0.75398082
-2.1570525 -1.5198499 0.85439825
-2.1675296 -1.5174165 0.81524116
-2.1966522 -1.5199478 0.78228283
-2.1625912 -1.564311 0.84608024
-2.1775525 -1.558422 0.81698394
-2.1984565 -1.5520961 0.79393905
-2.167892 -1.6064467 0.85576409
-2.1786194 -1.5927792 0.8304885
-2.3614171 -0.14892685 1.1432264
-2.382565 -0.14166063 1.1101073
-2.3940189 -0.14040273 1.072631
-2.4199967 -0.14407426 1.0429984
-2.3296874 -0.17648923 1.1695106
-2.3592808 -0.15978387 1.15746
-2.3963554 -0.15849397 1.0246052
-2.423893 -0.17495835 1.0007526
-2.4122477 -0.2090686 0.98787689
-2.4017313 -0.25812662 0.97995061
-2.4280691 -0.2748211 0.9715246
-2.3877492 -0.30992156 0.97179711
-2.4224293 -0.32062387 0.96353579
-2.377229 -0.34506816 0.96614212
-2.4104862 -0.35675755 0.95879161
-2.3666697 -0.38919437 0.95912868
-2.3996041 -0.39426306 0.95268917
-2.3614998 -0.42969954 0.95245069
-2.3909681 -0.4324711 0.94718182
-2.377151 -0.47353193 0.94373137
-2.3460519 -0.52083665 0.9479081
-2.3735368 -0.51439679 0.94270265
-2.3423645 -0.55711323 0.95307082
-2.3776448 -0.55473089 0.94660497
-2.3473053 -0.59603173 0.95941347
-2.3762109 -0.58873749 0.95216507
-2.3387301 -0.63333052 0.96759534
-2.3322608 -0.67733431 0.97162604
-2.3715348 -0.70116109 0.84599173
-2.3868585 -0.69357705 0.80779916
-2.4059026 -0.7015354 0.78190333
-2.32126 -0.71001744 0.95451015
-2.3387733 -0.72556031 0.91803199
-2.3549497 -0.71373487 0.87744361
-2.384486 -0.71025306 0.86678302
-2.3958316 -0.72541308 0.76187652
-2.3917446 -0.77426207 0.74405527
-2.3766201 -0.81231493 0.73400617
-2.4031732 -0.81860375 0.73655099
-2.2710629 -0.87071717 0.9735598
-2.3710837 -0.85282123 0.7283355
-2.3851275 -0.86120707 0.72914213
-2.2640808 -0.89818525 1.0233974
-2.2900162 -0.88336098 0.99638343
-2.2962296 -0.89431059 0.95616817
-2.3807757 -0.8990835 0.71856344
-2.2316055 -0.9461441 1.0430809
-2.2619824 -0.93797565 1.03529
-2.2908108 -0.93958801 0.94485843
-2.3796251 -0.94132912 0.71181315
-2.2274032 -0.97434604 1.0466733
-2.262548 -0.98047811 1.0405046
-2.2830803 -0.98009253 0.9452154
-2.343931 -0.97652107 0.71880925
-2.3649197 -0.97718585 0.71715903
-2.2313862 -1.0221345 1.0586069
-2.2615347 -1.0140445 1.0479699
-2.2775588 -1.0205988 0.93950349
-2.3431127 -1.0148425 0.72165477
-2.3623855 -1.0234157 0.72024393
-2.1991334 -1.071184 1.1533136
-2.208287 -1.0705463 1.0892262
-2.2306912 -1.0563741 1.073324
-2.2711585 -1.061105 0.93620527
-2.3390937 -1.0593193 0.71994424
-2.3624368 -1.0631344 0.71907187
-2.1622429 -1.098038 1.1553454
-2.1837962 -1.0987605 1.1402156
-2.2073319 -1.0916655 1.1110771
-2.2596769 -1.105348 0.93730688
-2.3315682 -1.0998238 0.71973884
-2.3573556 -1.1039941 0.71803862
-2.1101229 -1.1289179 1.282624
-2.1368854 -1.1405313 1.2640136
-2.2318497 -1.1507136 0.95730019
-2.2597663 -1.134318 0.95078754
-2.3298745 -1.1434249 0.72023249
-2.3551826 -1.1475687 0.7193777
-2.1278241 -1.1925175 1.2583386
-2.2247972 -1.1960788 0.96737307
-2.3148794 -1.1909614 0.71860576
-2.3461607 -1.1959661 0.71564651
-2.1210337 -1.2409228 1.2515421
-2.2277403 -1.2422554 0.96249771
-2.3014066 -1.2394097 0.71864551
-2.3374734 -1.2465317 0.71233445
-2.1120348 -1.2857755 1.2529182
-2.206172 -1.2774299 0.96659207
-2.2964153 -1.2818452 0.7181555
-2.3316433 -1.2890854 0.7107178
-2.0762351 -1.3337114 1.2701498
-2.111892 -1.3240271 1.2591825
-2.207443 -1.3259389 0.96600443
-2.2987497 -1.3238811 0.71625102
-2.0263617 -1.3712018 1.3878478
-2.0540679 -1.371877 1.3597271
-2.0717375 -1.3739893 1.3253497
-2.0947168 -1.360292 1.2915657
-2.1996012 -1.3641453 0.97357643
-2.292433 -1.3666856 0.71658868
-2.0389831 -1.3799225 1.3486745
-2.0553391 -1.3828868 1.3327404
-2.2006931 -1.4015939 0.95427001
-2.2194269 -1.4213796 0.93330652
-2.2890682 -1.4080467 0.72054601
-2.2039459 -1.4401187 0.91020572
-2.2210946 -1.457099 0.889799
-2.2586889 -1.4542454 0.73725259
-2.275039 -1.4445157 0.73125863
-2.1853104 -1.4929659 0.88836473
-2.2105126 -1.4846776 0.87957382
-2.2550857 -1.485142 0.75249743
-2.2002535 -1.5254216 0.87833941
-2.2317028 -1.5325609 0.77712685
-2.2543557 -1.520844 0.76867402
-2.1993134 -1.5674207 0.87256926
-2.194118 -1.5897986 0.81424487
-2.2270579 -1.5675478 0.79080105
-2.1861765 -1.61099 0.87509775
-2.1993499 -1.6121433 0.82324582
-2.2270789 -1.6020041 0.80302453
-2.1826391 -1.6662345 0.89423156
-2.1805646 -1.6600229 0.86412603
-2.2071629 -1.6555494 0.83151555
-2.1786408 -1.7117853 0.89930242
-2.1887267 -1.7108868 0.86532426
-2.2072518 -1.6998471 0.84354889
-2.1798494 -1.7430956 0.89659137
-2.1873021 -1.7404673 0.87741882
-2.4263554 -0.14596653 1.1281517
-2.4431922 -0.1402925 1.0909221
-2.4534194 -0.14305925 1.0486861
-2.4688892 -0.15109256 1.0206231
-2.3938129 -0.1650283 1.1495465
-2.4225826 -0.16934335 1.1420536
-2.4606445 -0.16709766 0.99886525
-2.4781089 -0.18315527 0.98420769
-2.4657135 -0.22010066 0.97550154
-2.4569256 -0.26897737 0.96847332
-2.4576399 -0.31833327 0.95899785
-2.4519281 -0.36105287 0.950782
-2.4401493 -0.39785632 0.94525766
-2.4582493 -0.41360664 0.93917966
-2.4261026 -0.43963227 0.93965685
-2.4544642 -0.44398543 0.93391764
-2.4182646 -0.47986358 0.93576211
-2.4490557 -0.48457021 0.92920834
-2.4174156 -0.52604461 0.93591744
-2.4423392 -0.51486975 0.93068725
-2.415561 -0.56633395 0.94223273
-2.4011569 -0.6041649 0.95096636
-2.375401 -0.65198815 0.96439976
-2.4032683 -0.64110947 0.95819592
-2.3737049 -0.68313336 0.96610677
-2.393214 -0.69770265 0.95613182
-2.4227312 -0.70950794 0.85368311
-2.4344792 -0.70228046 0.82513165
-2.4445646 -0.70508718 0.79597515
-2.3879859 -0.7174719 0.93791133
-2.4023926 -0.7261309 0.90099287
-2.412009 -0.71648824 0.86924726
-2.4473817 -0.72859931 0.77175206
-2.458981 -0.75758862 0.75736547
-2.4387603 -0.78262615 0.74854648
-2.4401915 -0.82699984 0.74513888
-2.4339714 -0.86750603 0.74134499
-2.2902827 -0.91296959 1.0243254
-2.3280981 -0.90561795 1.0117371
-2.3337185 -0.89926779 0.96170217
-2.4270351 -0.90554458 0.72680819
-2.302011 -0.94790101 1.0278189
-2.3269112 -0.95030248 1.0233371
-2.3237932 -0.94530177 0.94898254
-2.429842 -0.95248777 0.71905589
-2.3016198 -0.98990357 1.0322309
-2.3240795 -0.98693705 0.94968665
-2.4173255 -0.99034101 0.72009325
-2.260011 -1.0352223 1.0570771
-2.2957618 -1.0283519 1.0418904
-2.3160238 -1.030977 0.94671351
-2.4104204 -1.0295274 0.7225219
-2.2423947 -1.0681133 1.1549264
-2.2612317 -1.0865257 1.1132059
-2.2753255 -1.0689204 1.0741642
-2.3114536 -1.0658509 0.94428718
-2.4033599 -1.0700337 0.72103727
-2.1812093 -1.1315821 1.2691283
-2.2370222 -1.0998862 1.1371604
-2.2476349 -1.0997958 1.1171225
-2.3168335 -1.1231328 0.9464494
-2.3956733 -1.1105382 0.72127467
-2.1901574 -1.1454283 1.275022
-2.2011008 -1.161057 1.252947
-2.3881507 -1.1510427 0.72105968
-2.1888525 -1.1983443 1.2374306
-2.3797998 -1.2016759 0.71790099
-2.1786671 -1.248054 1.2379498
-2.3718178 -1.2523065 0.7137289
-2.1744392 -1.2943386 1.2344458
-2.3649271 -1.2928126 0.71177834
-2.1523767 -1.3421779 1.259833
-2.1687973 -1.3339257 1.2398307
-2.3491764 -1.331949 0.71148324
-2.1150622 -1.3812205 1.3429813
-2.1320877 -1.3771954 1.3058908
-2.1492581 -1.3588231 1.2804694
-2.3423111 -1.3749856 0.71008605
-2.2417836 -1.4215035 0.94055581
-2.3354073 -1.4171078 0.71862698
-2.3488176 -1.4103463 0.71559143
-2.2468402 -1.448014 0.92567343
-2.2619841 -1.4645015 0.90443045
-2.3262982 -1.4553636 0.73056477
-2.2678857 -1.4843683 0.88440865
-2.2925811 -1.5052769 0.75964326
-2.3156166 -1.494318 0.74752575
-2.2432337 -1.5441866 0.88600188
-2.2932866 -1.5374985 0.7744084
-2.2481577 -1.5763494 0.88642371
-2.2709846 -1.5827006 0.79148483
-2.2973113 -1.5658818 0.78730273
-2.2373724 -1.618964 0.89408493
-2.2667317 -1.6187266 0.80597621
-2.2202675 -1.6783521 0.91046345
-2.2293012 -1.6472327 0.90168744
-2.2400546 -1.677894 0.82651329
-2.2628374 -1.6549731 0.81804019
-2.2096364 -1.7181193 0.91917074
-2.2346036 -1.7149924 0.83867121
-2.1980932 -1.7598584 0.91584212
-2.2044549 -1.7571983 0.86660683
-2.2355769 -1.7622592 0.84956837
-2.1951797 -1.7954603 0.91582239
-2.2120697 -1.798764 0.87226462
-2.1967623 -1.8386943 0.91092724
-2.2105677 -1.8394778 0.88324875
-2.4681301 -0.15402305 1.1341442
-2.4818478 -0.14388132 1.1049917
-2.4962034 -0.14214399 1.0664468
-2.5067728 -0.14837363 1.0224032
-2.5228548 -0.15973285 0.99960184
-2.5173919 -0.1852195 0.97826505
-2.5027118 -0.22438903 0.96899015
-2.5280781 -0.22834902 0.9649598
-2.4918253 -0.27442199 0.96286893
-2.5211222 -0.28488576 0.95598274
-2.5040545 -0.32781038 0.94887763
-2.4945676 -0.36786693 0.9418571
-2.490617 -0.40972337 0.9342587
-2.486402 -0.44932666 0.92835128
-2.486968 -0.49235672 0.92392164
-2.4692473 -0.53049403 0.92802536
-2.4495354 -0.57919955 0.93881238
-2.4679754 -0.57224977 0.93480152
-2.4429748 -0.61260152 0.94604236
-2.4668546 -0.60302341 0.9400087
-2.4418943 -0.65365922 0.95342082
-2.4278131 -0.6972596 0.95469207
-2.4719889 -0.71278483 0.8387841
-2.4824555 -0.71328944 0.80976635
-2.4272161 -0.72173536 0.93977928
-2.4364674 -0.75024754 0.90689033
-2.456511 -0.73150921 0.87438691
-2.4875598 -0.7392565 0.78884161
-2.4787986 -0.76146632 0.76465392
-2.4798355 -0.78388262 0.78692776
-2.4823225 -0.79333353 0.7636553
-2.4749258 -0.83365214 0.76001418
-2.4702206 -0.88790131 0.77746707
-2.4748449 -0.87117279 0.75978768
-2.3725138 -0.91535521 1.011076
-2.4708521 -0.90700227 0.74177945
-2.3584898 -0.95473194 1.0171087
-2.4622934 -0.95844024 0.72859848
-2.3484797 -0.99749249 1.0211161
-2.4588249 -0.9961642 0.72885752
-2.327121 -1.0499889 1.0415994
-2.3443928 -1.0315093 1.0219599
-2.4435029 -1.0353336 0.72790343
-2.2798538 -1.0647122 1.1518397
-2.2962823 -1.0804235 1.1315186
-2.3140423 -1.0874969 1.0847074
-2.3272805 -1.0681779 1.060388
-2.4372585 -1.0780618 0.72619373
-2.439477 -1.117312 0.72915828
-2.2017663 -1.1445432 1.2984977
-2.2375364 -1.1574869 1.2525054
-2.2522354 -1.1855992 1.2293254
-2.4321649 -1.1568216 0.7271108
-2.2264144 -1.207033 1.2281556
-2.2451196 -1.209936 1.224902
-2.4228954 -1.2115937 0.72384793
-2.2152798 -1.2597241 1.2321862
-2.2423296 -1.2490544 1.2261207
-2.4116492 -1.2591761 0.71820468
-2.2159421 -1.2971478 1.2276225
-2.4073894 -1.3001842 0.71734601
-2.2061753 -1.3364705 1.2366647
-2.3995326 -1.3404591 0.71424311
-2.1674159 -1.3715184 1.3476026
-2.1667511 -1.3820026 1.3222282
-2.1836796 -1.3667552 1.2782916
-2.1995416 -1.3594947 1.2539172
-2.3891747 -1.3827579 0.70994401
-2.3807166 -1.4202474 0.71686924
-2.2876487 -1.4714814 0.91394192
-2.3623047 -1.4689391 0.73504227
-2.3767822 -1.4515026 0.72652763
-2.2961187 -1.4877222 0.89193678
-2.3606906 -1.4997957 0.74847221
-2.3314178 -1.5449224 0.77447695
-2.3490887 -1.5432459 0.75973535
-2.2859175 -1.5830297 0.8908692
-2.3114913 -1.5918322 0.79602718
-2.3258343 -1.58224 0.79477596
-2.2722409 -1.6315858 0.9026348
-2.3117311 -1.628033 0.80990034
-2.2528346 -1.6887096 0.91880655
-2.2717097 -1.6619115 0.91313565
-2.2918761 -1.6778979 0.82181537
-2.2503879 -1.7174691 0.92966717
-2.2730477 -1.7287769 0.83511227
-2.2986169 -1.7161754 0.83075356
-2.2336946 -1.7612172 0.93929267
-2.2699342 -1.7648848 0.83925289
-2.2283027 -1.8062712 0.9445641
-2.2597029 -1.8054911 0.84535605
-2.2154841 -1.839745 0.95486546
-2.2242639 -1.8428098 0.8689869
-2.2522326 -1.8478737 0.84736621
-2.5162306 -0.15277198 1.1219618
-2.5334485 -0.14203992 1.0787171
-2.5445657 -0.13942772 1.038161
-2.5616879 -0.15270501 1.002414
-2.5810602 -0.16688672 0.97879732
-2.5629716 -0.19305375 0.96710575
-2.5628374 -0.23674148 0.95766419
-2.5558174 -0.28217804 0.95028681
-2.5464809 -0.33595204 0.93982965
-2.5304613 -0.37307659 0.93438774
-2.5588615 -0.38087788 0.92800635
-2.5248027 -0.41006553 0.92845285
-2.5523605 -0.41660649 0.92258406
-2.5236566 -0.45469984 0.92147595
-2.5433078 -0.45771062 0.91740865
-2.5169377 -0.49520537 0.91905326
-2.5370181 -0.49830911 0.91534829
-2.5043595 -0.53854764 0.92206234
-2.5321991 -0.53525215 0.91615903
-2.5074754 -0.57571101 0.9274385
-2.4961042 -0.61690289 0.93637258
-2.4733045 -0.6673528 0.95018488
-2.4931173 -0.66000319 0.94467545
-2.4672182 -0.69997287 0.95377964
-2.4907482 -0.6911757 0.95104009
-2.5034523 -0.72178161 0.83929342
-2.4641838 -0.72811043 0.94392025
-2.4788685 -0.74565387 0.92942148
-2.4850087 -0.74827284 0.87648296
-2.4999421 -0.72864103 0.84596395
-2.5050242 -0.7370646 0.80703813
-2.4074063 -0.92152584 0.99857509
-2.5000634 -0.92709297 0.75052047
-2.3886085 -0.97031242 1.0124722
-2.4121959 -0.95835078 0.99263531
-2.507314 -0.96024191 0.7531594
-2.3848314 -1.0052087 1.0131433
-2.4133499 -1.0028774 1.0036404
-2.4990516 -1.0007563 0.74696666
-2.3621533 -1.0651565 1.0504842
-2.3852346 -1.045702 1.0262516
-2.4826694 -1.0482987 0.74871844
-2.3254685 -1.0772748 1.1336951
-2.3479953 -1.0949243 1.1022621
-2.368629 -1.0804874 1.0653539
-2.4771547 -1.0838869 0.74799705
-2.4689155 -1.124174 0.74614733
-2.2834444 -1.1552027 1.2508438
-2.2849712 -1.1745749 1.2348732
-2.4677134 -1.1696187 0.74470586
-2.2844877 -1.2161891 1.2204266
-2.4628384 -1.2147812 0.73610526
-2.273834 -1.2632838 1.2241631
-2.4523268 -1.2665924 0.7294175
-2.2491655 -1.3154385 1.2318833
-2.2614286 -1.3068166 1.2310536
-2.4457104 -1.3070985 0.72671217
-2.2010202 -1.3566458 1.3415276
-2.2461019 -1.3509268 1.244242
-2.4394784 -1.3476031 0.72295302
-2.215018 -1.3838556 1.3360977
-2.2216232 -1.3838321 1.2891146
-2.2371209 -1.3790976 1.2658665
-2.432704 -1.3881093 0.72068214
-2.4203465 -1.4283608 0.72072309
-2.4025931 -1.48079 0.77047825
-2.413547 -1.4723047 0.73685604
-2.3971784 -1.5139782 0.75490171
-2.3882122 -1.5501308 0.75939375
-2.365767 -1.5933182 0.78824157
-2.3791659 -1.5828103 0.77052671
-2.3160295 -1.6344453 0.90113097
-2.3378098 -1.6469681 0.81741649
-2.3569703 -1.6306541 0.80536866
-2.2882817 -1.7002389 0.92603076
-2.3077719 -1.6775953 0.91583282
-2.3396635 -1.6816401 0.82272267
-2.2894423 -1.7320598 0.93672097
-2.3267369 -1.7310909 0.83407933
-2.2778308 -1.7755898 0.95317185
-2.3170252 -1.7727199 0.83697492
-2.2538257 -1.8217542 0.95805126
-2.2699282 -1.8106343 0.96025252
-2.3109107 -1.8133849 0.83555472
-2.2540972 -1.8442081 0.96667439
-2.3001323 -1.8496047 0.83005506
-2.5876167 -0.14465714 1.0887759
-2.589232 -0.13936281 1.0565366
-2.605078 -0.14129019 1.0221816
-2.5456874 -0.166105 1.1316466
-2.570296 -0.14935344 1.0973059
-2.5952413 -0.1475853 1.0034142
-2.6159353 -0.16378364 0.97779292
-2.5986791 -0.19793186 0.95914793
-2.6279006 -0.20800659 0.95164692
-2.5978944 -0.23906346 0.95080477
-2.6196632 -0.24241398 0.94655234
-2.5939946 -0.26944262 0.94585812
-2.6032622 -0.29408026 0.9393838
-2.5943627 -0.34114504 0.93094808
-2.5940759 -0.38296956 0.922445
-2.5886822 -0.42335898 0.91566193
-2.5807564 -0.46344674 0.90963352
-2.5738466 -0.50391769 0.90716308
-2.5660131 -0.54661435 0.91089422
-2.5513561 -0.58404803 0.9195683
-2.5290859 -0.63184106 0.9322024
-2.5575957 -0.62689167 0.92524904
-2.5343561 -0.66936833 0.93781489
-2.5208142 -0.70483738 0.94655317
-2.5140321 -0.75557697 0.93962342
-2.5281734 -0.97825682 0.76075161
-2.4420018 -1.0128036 0.99723274
-2.4072847 -1.0627425 1.1105714
-2.4226344 -1.0603825 1.0394316
-2.4389408 -1.0421076 1.0113453
-2.3848274 -1.0939071 1.1025065
-2.4009814 -1.0904126 1.0790782
-2.4216304 -1.0831225 1.0609971
-2.3118215 -1.1616268 1.2729001
-2.3275537 -1.1714659 1.2413367
-2.344466 -1.1837094 1.2185771
-2.3173256 -1.2213188 1.2152638
-2.3342464 -1.223968 1.2127018
-2.4680641 -1.2397685 0.76075846
-2.3074648 -1.2791603 1.2227271
-2.3317215 -1.2650391 1.2145474
-2.4680498 -1.2704275 0.74981087
-2.3047705 -1.3136722 1.235088
-2.468987 -1.3183837 0.7474938
-2.292052 -1.3446186 1.2516667
-2.3059468 -1.3352054 1.2488747
-2.4636152 -1.3584472 0.74691284
-2.2519941 -1.3938053 1.3058356
-2.2762299 -1.3824483 1.2695285
-2.4638121 -1.3941385 0.7351864
-2.4651263 -1.4362779 0.73780441
-2.4313092 -1.4739349 0.76258701
-2.44187 -1.4751433 0.74380744
-2.4229877 -1.5214038 0.76602101
-2.4232693 -1.5608249 0.76761311
-2.4124389 -1.6042606 0.77945775
-2.3980372 -1.6415502 0.80249536
-2.4254134 -1.6311694 0.7890048
-2.3421404 -1.6683636 0.90980518
-2.376651 -1.701822 0.82490081
-2.391856 -1.6789536 0.82004607
-2.3264115 -1.7275302 0.92750168
-2.3565257 -1.7514243 0.89520061
-2.3694122 -1.7397135 0.83362067
-2.3099926 -1.773307 0.95083642
-2.3302662 -1.7896132 0.90756851
-2.3483737 -1.7919658 0.89682734
-2.3587596 -1.7800527 0.84390283
-2.3072572 -1.8201785 0.96500546
-2.3527808 -1.8205571 0.8394472
-2.2930007 -1.8535131 0.97652537
-2.3500309 -1.855291 0.82909584
-2.6065946 -0.14856178 1.0956833
-2.6323781 -0.14007229 1.0687307
-2.6426511 -0.13686141 1.0322096
-2.6602399 -0.14282861 1.002622
-2.6150327 -0.15851304 1.1050076
-2.6540301 -0.15646127 0.97831982
-2.6636369 -0.17146108 0.96088177
-2.6658068 -0.20800042 0.94568968
-2.6571047 -0.24826738 0.94074249
-2.6456673 -0.29930073 0.9320541
-2.6705887 -0.32246011 0.9220109
-2.6296475 -0.34367788 0.92463559
-2.6564469 -0.35314035 0.91757989
-2.6271806 -0.38797501 0.91569561
-2.6469848 -0.39098883 0.91125846
-2.6234126 -0.41835415 0.91038597
-2.6340525 -0.43234891 0.90544957
-2.6233704 -0.46791062 0.90053964
-2.6163316 -0.51078683 0.89923251
-2.6008549 -0.54999644 0.90449542
-2.6194115 -0.55671281 0.90215051
-2.5925715 -0.59331399 0.91317147
-2.6190076 -0.58433712 0.9046489
-2.5953183 -0.63366085 0.91969901
-2.5765605 -0.67120051 0.92961174
-2.5537832 -0.71987575 0.94173652
-2.5827985 -0.71430004 0.93473369
-2.5337579 -0.78290248 0.96876878
-2.5534277 -0.76617432 0.95115411
-2.4268727 -1.065696 1.1166407
-2.4609888 -1.0718485 1.0483477
-2.4705737 -1.0522264 1.0169959
-2.4380519 -1.0871849 1.0881858
-2.440619 -1.086694 1.0680478
-2.3634109 -1.1498965 1.2500565
-2.3888929 -1.1402847 1.2331508
-2.3637276 -1.1677029 1.2375412
-2.3815491 -1.1826432 1.2208881
-2.3742833 -1.2303545 1.2086008
-2.3643913 -1.2779245 1.2141747
-2.3473017 -1.323882 1.2396362
-2.3604851 -1.3049946 1.2249579
-2.3308454 -1.3517616 1.2635266
-2.3339376 -1.3439395 1.2590625
-2.3154662 -1.3906263 1.275565
-2.4547234 -1.5644958 0.79450816
-2.4566836 -1.6049211 0.78727311
-2.4351444 -1.6595526 0.80810797
-2.4510179 -1.6389951 0.79646337
-2.4174285 -1.689919 0.87158138
-2.4290276 -1.693581 0.82402825
-2.3894351 -1.75191 0.89006388
-2.4076636 -1.7494711 0.83725411
-2.4266422 -1.7317615 0.83494961
-2.3758285 -1.7888296 0.88082725
-2.4010861 -1.7816836 0.86005735
-2.38393 -1.8276551 0.89193583
-2.3955083 -1.8230408 0.85712218
-2.3244648 -1.8551308 0.97111171
-2.3864889 -1.8551201 0.83880436
-2.6672575 -0.14606214 1.0829587
-2.6823168 -0.13624263 1.0466467
-2.693841 -0.14067113 1.0040689
-2.7102098 -0.14799434 0.98075408
-2.663481 -0.16503406 1.1012673
-2.7046821 -0.1700919 0.95577884
-2.7226777 -0.18755823 0.94132358
-2.6957436 -0.21284398 0.93973434
-2.7149298 -0.21578312 0.93575531
-2.6914456 -0.24322295 0.93588042
-2.7028794 -0.25736755 0.93124813
-2.6979513 -0.30283809 0.92129421
-2.6939435 -0.35299879 0.91012865
-2.6840084 -0.39660308 0.90263128
-2.6752965 -0.43508792 0.89702541
-2.7034705 -0.44084364 0.89020914
-2.6683521 -0.47688955 0.89187205
-2.6943555 -0.48089778 0.8868916
-2.6622565 -0.51691765 0.89490783
-2.6612263 -0.55530059 0.9017309
-2.6418786 -0.60279536 0.90567052
-2.6247454 -0.6381501 0.91553533
-2.6464701 -0.64195895 0.91315359
-2.6212723 -0.67917097 0.92323548
-2.6205559 -0.72136742 0.929456
-2.5817733 -0.79002881 0.9553687
-2.6028056 -0.77080917 0.93362862
-2.5900297 -0.81247878 0.95834488
-2.4967794 -1.0817744 1.0628346
-2.5160785 -1.0746582 1.0408432
-2.4268694 -1.1567013 1.2278763
-2.4242115 -1.1819885 1.2138934
-2.4373846 -1.1986688 1.2023934
-2.4131012 -1.2364631 1.2032393
-2.430774 -1.2391763 1.1996725
-2.4086452 -1.2898531 1.2076812
-2.3795438 -1.3392584 1.248121
-2.3995545 -1.3200054 1.2285113
-2.3612325 -1.3752661 1.2884465
-2.3718266 -1.3571651 1.2684637
-2.4833887 -1.5794015 0.81010604
-2.4808102 -1.606773 0.80940014
-2.4513521 -1.6615424 0.86230862
-2.4607565 -1.6603099 0.82885677
-2.4549108 -1.7010698 0.87095052
-2.4571824 -1.7021202 0.8394379
-2.4150763 -1.7535605 0.91655177
-2.4416163 -1.7528892 0.87066656
-2.4455059 -1.7357028 0.84215319
-2.4321141 -1.7780808 0.8570984
-2.412962 -1.8429332 0.87201256
-2.4194295 -1.8603565 0.84953243
-2.7059288 -0.14960787 1.0870035
-2.7209227 -0.14002857 1.0606982
-2.7392714 -0.13555253 1.0214183
-2.74913 -0.14839804 0.97777468
-2.7710431 -0.15630949 0.95857322
-2.7006447 -0.16891477 1.0855247
-2.7581344 -0.17859006 0.93972027
-2.752418 -0.22150648 0.92766076
-2.7806211 -0.23605546 0.91828972
-2.7436657 -0.26101154 0.92213786
