# .PCD v0.7 - Point Cloud Data file format
VERSION 0.7
FIELDS x y z
SIZE 4 4 4
TYPE F F F
COUNT 1 1 1
WIDTH 1484
HEIGHT 1
VIEWPOINT 0 0 0 1 0 0 0
POINTS 1484
DATA ascii
-1.6962277 -0.44029009 1.7142565
-1.7397283 -0.42349157 1.716743
-1.6450019 -0.49070328 1.711533
-1.6844147 -0.50096393 1.7152156
-1.6344545 -0.54585916 1.714717
-1.6779033 -0.54924452 1.7176526
-1.5763931 -0.6142056 1.7200975
-1.6236526 -0.60157132 1.7207451
-1.5686755 -0.65696549 1.7264277
-1.6114767 -0.66305816 1.7297893
-1.5172017 -0.71352226 1.7349313
-1.5602584 -0.70762044 1.7352407
-1.5017003 -0.75916272 1.7441496
-1.547969 -0.76082629 1.7453324
-1.4549105 -0.82314634 1.7589815
-1.5013973 -0.80986059 1.7546668
-1.3974937 -0.88471162 1.7767125
-1.4449948 -0.87678742 1.7710528
-1.4947665 -0.85815096 1.7639343
-1.3549402 -0.9348104 1.7936821
-1.3892866 -0.92621452 1.7877063
-1.4386448 -0.92993093 1.7832212
-1.3386406 -0.98377579 1.8066725
-1.3948691 -0.98073351 1.7983381
-1.2865067 -1.0329697 1.8258766
-1.3419175 -1.0334324 1.8171358
-1.2392166 -1.0895017 1.8470213
-1.2875707 -1.0878873 1.8378328
-1.326166 -1.0703688 1.8278967
-0.92757964 -1.1559331 2.0945649
-0.94466329 -1.1444521 2.0677414
-1.0446157 -1.1456273 1.9848768
-1.0894645 -1.1478853 1.9510658
-1.1306596 -1.1417582 1.9184568
-1.1784616 -1.1467475 1.8784442
-1.2370869 -1.1478145 1.86129
-1.2802176 -1.1329546 1.8503323
-0.92977536 -1.2041125 2.0971818
-0.95255446 -1.2019141 2.0614967
-0.99994302 -1.2002983 2.004024
-1.0489657 -1.1956573 1.9953606
-1.0957373 -1.1945623 1.9585414
-1.1374526 -1.1929188 1.9241492
-1.1772668 -1.1994612 1.8906339
-1.2213901 -1.193953 1.8742458
-0.93756247 -1.238451 2.1064622
-0.96889925 -1.2443407 2.0653632
-1.0027649 -1.2444272 2.0201089
-1.0555251 -1.2492437 1.9960504
-1.0850173 -1.2538452 1.9517515
-1.1294227 -1.2577488 1.912802
-1.1713401 -1.2414274 1.898622
-1.0924671 -1.3058405 1.9463818
-1.1193163 -1.298337 1.9234573
-1.652081 -0.093225002 1.926399
-1.7068925 -0.088336766 1.8996515
-1.7626195 -0.085291862 1.8771435
-1.7989775 -0.086815715 1.8343636
-1.8331401 -0.0916605 1.798737
-1.8873463 -0.10024846 1.775237
-1.8338944 -0.12232351 1.7588443
-1.8758564 -0.12722951 1.7588792
-1.8244374 -0.15394995 1.7504088
-1.8595964 -0.18228719 1.7415013
-1.9038042 -0.17774945 1.7440456
-1.8116963 -0.25939655 1.7294712
-1.8558049 -0.24380967 1.7333835
-1.8053935 -0.2940962 1.7262433
-1.8502487 -0.30349442 1.7286443
-1.7925837 -0.34737408 1.7222588
-1.8343209 -0.35199818 1.7253464
-1.7861024 -0.39928648 1.7211374
-1.8310962 -0.40417296 1.7249496
-1.7749199 -0.45949405 1.7201855
-1.8187296 -0.43862891 1.7241995
-1.7168373 -0.52063793 1.7184167
-1.7614676 -0.51608139 1.7216938
-1.7118891 -0.56327665 1.7214184
-1.7554313 -0.56283349 1.7245805
-1.6628975 -0.63039875 1.7261652
-1.7053418 -0.62069798 1.7266611
-1.7466582 -0.60226071 1.7274392
-1.6538186 -0.67265373 1.7326689
-1.6976041 -0.67456025 1.734883
-1.5964127 -0.73986173 1.7422518
-1.6422203 -0.72283423 1.7408059
-1.6864847 -0.71017522 1.7401842
-1.588757 -0.77723932 1.7502335
-1.6330321 -0.77701116 1.751266
-1.5324352 -0.84230942 1.7622068
-1.5756778 -0.83168775 1.7614403
-1.6221446 -0.81461579 1.7576402
-1.485001 -0.90682805 1.7766098
-1.5256184 -0.89278078 1.7739124
-1.5663986 -0.88990229 1.7734383
-1.4771683 -0.94473064 1.7849593
-1.5215511 -0.94487178 1.7856307
-1.4204553 -1.0068197 1.8014928
-1.4636559 -0.99622983 1.7970995
-1.5088258 -0.98171973 1.794276
-1.3729359 -1.0582075 1.8178978
-1.4122322 -1.0504493 1.8126668
-1.4608746 -1.0437663 1.8088588
-1.3586416 -1.1032159 1.8311983
-1.4156549 -1.0976835 1.8244597
-1.2687097 -1.1781234 1.8618984
-1.3045727 -1.1638656 1.8531407
-1.3555266 -1.1626887 1.8470051
-1.2573349 -1.2120526 1.8714176
-1.3084342 -1.2187188 1.8666502
-0.96182132 -1.2737312 2.1145935
-0.98260438 -1.2828872 2.0923181
-1.0362043 -1.283715 2.0592608
-1.057189 -1.2838509 2.0178168
-1.1954097 -1.2699969 1.8979509
-1.2519323 -1.2672414 1.8859059
-1.2965838 -1.2532663 1.8773856
-0.99796426 -1.3012893 2.1111596
-1.059302 -1.3192613 2.0511274
-1.0649455 -1.3198564 2.0086646
-1.078595 -1.330061 1.9717547
-1.1427302 -1.3203442 1.9222335
-1.1980147 -1.3213184 1.9098297
-1.2439525 -1.3167948 1.8983865
-1.0706149 -1.3721691 2.0114629
-1.1008422 -1.3726517 1.9592621
-1.147337 -1.373436 1.9342628
-1.1915318 -1.3664913 1.9231662
-1.0807575 -1.416903 2.0012479
-1.106108 -1.4292663 1.9709005
-1.1432853 -1.4215202 1.9459724
-1.7472035 -0.091033041 1.944759
-1.7943155 -0.084006786 1.9096389
-1.8392587 -0.080994129 1.882458
-1.8746383 -0.081285954 1.8438802
-1.913479 -0.087063968 1.8033928
-1.9553869 -0.10200387 1.7760317
-1.9486865 -0.14521956 1.7570362
-1.9437971 -0.19782305 1.7443196
-1.9279306 -0.25871924 1.7377093
-1.9102854 -0.31421289 1.7327474
-1.8709882 -0.35887989 1.7281055
-1.9081008 -0.36591163 1.7312218
-1.8605793 -0.41582036 1.7271566
-1.8921944 -0.41581333 1.7290574
-1.8504834 -0.47025371 1.7263243
-1.8909007 -0.45198095 1.7286898
-1.8038477 -0.53151542 1.7256672
-1.8367132 -0.52956587 1.7277113
-1.7953465 -0.5835712 1.7290587
-1.8303193 -0.57637715 1.7311419
-1.7746396 -0.63542825 1.7331405
-1.7263203 -0.68618178 1.7379713
-1.7659681 -0.68946344 1.7411331
-1.6797396 -0.74382555 1.746179
-1.7191746 -0.73657656 1.7473857
-1.6765215 -0.79205519 1.7558748
-1.7125572 -0.78088081 1.7546854
-1.6155435 -0.85273647 1.7671129
-1.6574237 -0.84373617 1.7661812
-1.6050248 -0.9068976 1.7785698
-1.6441456 -0.88933498 1.7759875
-1.5521098 -0.95803738 1.7896636
-1.586097 -0.95665514 1.7904438
-1.5043652 -1.0238407 1.8045002
-1.5418556 -1.009809 1.8012688
-1.5823213 -0.99520266 1.7982928
-1.4927555 -1.0648161 1.8158697
-1.5317714 -1.0570115 1.8146051
-1.4403529 -1.1266066 1.8309797
-1.4772326 -1.1094322 1.8266803
-1.38968 -1.1797889 1.8489169
-1.4304432 -1.1728911 1.8437392
-1.3304155 -1.2348115 1.8681518
-1.3775263 -1.2272623 1.8624758
-0.98810732 -1.2973926 2.1330585
-1.0775427 -1.2938037 2.0798388
-1.2892363 -1.2874267 1.8863614
-1.3274819 -1.2822146 1.8816639
-1.3654939 -1.2711819 1.8752517
-1.0616038 -1.3382784 2.052433
-1.2792462 -1.3354595 1.9007658
-1.3205714 -1.324188 1.8950955
-1.0622103 -1.3864199 2.0540354
-1.0659436 -1.4031382 2.037569
-1.2215385 -1.3952847 1.9239671
-1.2648064 -1.3753936 1.9134829
-1.0662528 -1.4498011 2.0601099
-1.0765576 -1.4499543 2.0232801
-1.1104307 -1.4563819 1.9760524
-1.1648462 -1.4520545 1.9510683
-1.209934 -1.4434881 1.9396285
-1.087853 -1.4933214 2.0281763
-1.1218507 -1.482674 1.9938674
-1.1704247 -1.476975 1.9634439
-1.8785235 -0.077444375 1.9270091
-1.9196651 -0.076931119 1.897541
-1.9616787 -0.073765159 1.8668679
-2.009515 -0.07796973 1.8364065
-2.0418367 -0.082669437 1.8076415
-1.8285676 -0.078968704 1.9284769
-1.8528618 -0.077577174 1.9076407
-1.8981714 -0.076374054 1.8719258
-1.9415759 -0.078269243 1.832248
-1.9898696 -0.083618224 1.8079793
-2.0356472 -0.10730541 1.7800735
-2.0308304 -0.15872186 1.761398
-2.0207398 -0.20679483 1.7524788
-1.9666305 -0.28831434 1.7403491
-2.0051959 -0.27217031 1.7461982
-1.9555347 -0.32042265 1.7378477
-1.9991953 -0.32377192 1.7435812
-1.9485117 -0.37678611 1.7347105
-1.9860215 -0.37788078 1.7377846
-1.9361753 -0.42666695 1.7323322
-1.9806552 -0.43776214 1.7323039
-1.9250386 -0.48598033 1.7328826
-1.9707687 -0.46661681 1.7329764
-1.8723483 -0.54817122 1.7315273
-1.9134517 -0.54499894 1.7359402
-1.8636776 -0.5997901 1.7361369
-1.9030678 -0.60108918 1.7401842
-1.8151963 -0.65403271 1.7390604
-1.8600137 -0.65096807 1.7410305
-1.8058739 -0.70181972 1.7453566
-1.8477316 -0.70442915 1.7475563
-1.7461898 -0.76794505 1.7533917
-1.7939513 -0.75299335 1.7538555
-1.7415227 -0.80432969 1.7606701
-1.7838011 -0.81318951 1.7644221
-1.6963613 -0.86150032 1.7700843
-1.7392999 -0.85925192 1.7711418
-1.6425655 -0.93584752 1.7857757
-1.6850393 -0.91756892 1.7828877
-1.7291304 -0.90526849 1.7823024
-1.6270444 -0.97339094 1.7945881
-1.6738279 -0.97283918 1.7954324
-1.5711381 -1.0360227 1.809481
-1.6198579 -1.0272959 1.8077904
-1.5654137 -1.078411 1.8210474
-1.6059936 -1.0758617 1.8210225
-1.5188875 -1.1299225 1.8345648
-1.5643229 -1.1238438 1.8340385
-1.4596869 -1.1994114 1.8530427
-1.5056452 -1.184844 1.8512003
-1.4145865 -1.2489328 1.8679465
-1.4555283 -1.240618 1.8674989
-1.4971079 -1.2255809 1.8649523
-1.362169 -1.3118346 1.8895425
-1.4048374 -1.2950907 1.8834625
-1.4502519 -1.2865697 1.8827368
-1.3534405 -1.3520051 1.9051263
-1.3948725 -1.3402599 1.9013767
-1.3031743 -1.4064553 1.9247733
-1.3491344 -1.3938819 1.9224768
-1.0711502 -1.4789398 2.0752857
-1.248361 -1.4695101 1.9478217
-1.292536 -1.4546003 1.9440155
-1.0830233 -1.5010782 2.0787601
-1.1086681 -1.51422 2.0570533
-1.1518244 -1.521302 2.0253446
-1.1911783 -1.5142968 1.9868121
-1.2349069 -1.5047741 1.9674104
-1.9487566 -0.073049307 1.9225986
-1.9890301 -0.072277963 1.8927346
-2.0277002 -0.0725348 1.8580786
-2.0780673 -0.077853441 1.8197345
-2.1259103 -0.083575726 1.8017564
-2.075897 -0.113976 1.780946
-2.1152782 -0.12236995 1.7805727
-2.1045768 -0.17250824 1.7654552
-2.1504028 -0.16909319 1.7688117
-2.0535467 -0.23898801 1.7543099
-2.0966144 -0.224978 1.7589931
-2.0503542 -0.28243139 1.7505054
-2.0829139 -0.28649962 1.7529205
-2.0410497 -0.33593902 1.7462304
-2.0760844 -0.33893129 1.7492805
-2.0281293 -0.38841745 1.7401509
-2.0648124 -0.39090872 1.7433214
-2.0261095 -0.44376427 1.7383959
-2.0031562 -0.49579459 1.7395096
-1.9568517 -0.56023508 1.7424886
-1.9904002 -0.55677474 1.7463255
-1.9476292 -0.61102068 1.7455056
-1.8979125 -0.68109584 1.7483171
-1.9270194 -0.66087735 1.7488251
-1.8851135 -0.71530259 1.7516552
-1.9137073 -0.71462291 1.7547716
-1.8342464 -0.78073204 1.7607409
-1.8711159 -0.76450992 1.7607321
-1.8258388 -0.8220638 1.7685027
-1.8616822 -0.81340289 1.7688749
-1.7678409 -0.89227051 1.7808183
-1.806408 -0.86951405 1.7773058
-1.7176586 -0.94992924 1.791369
-1.7593603 -0.93470937 1.7903948
-1.7997346 -0.91865098 1.7882558
-1.717147 -0.98910868 1.8023345
-1.7508241 -0.97651136 1.8007784
-1.6563358 -1.0579261 1.8179185
-1.6949606 -1.0358684 1.8138448
-1.645357 -1.0942798 1.8284221
-1.6923866 -1.0875344 1.828536
-1.5896935 -1.1541952 1.8443968
-1.6239619 -1.1360027 1.8399525
-1.5471035 -1.2184958 1.8647265
-1.5821826 -1.1914248 1.856915
-1.4882048 -1.2640688 1.8782878
-1.5237674 -1.2568104 1.8782669
-1.4439234 -1.3289502 1.9017031
-1.481547 -1.3082457 1.8958263
-1.5223725 -1.2957832 1.8950615
-1.42851 -1.3633881 1.9165397
-1.3777055 -1.419368 1.9370697
-1.4128565 -1.3978957 1.9301567
-1.3279828 -1.4801252 1.9621973
-1.3698517 -1.461575 1.9581919
-1.1188523 -1.5343403 2.0870166
-1.181886 -1.549186 2.0527987
-1.2276396 -1.5424495 2.019197
-1.2728188 -1.5260428 1.9939742
-1.3116926 -1.5074173 1.9804091
-1.1807172 -1.5637605 2.076638
-1.9865296 -0.07724309 1.9435828
-2.0230682 -0.070803702 1.9305081
-2.0660825 -0.067277849 1.9038209
-2.1160131 -0.067477226 1.8623986
-2.1594102 -0.07338804 1.8253249
-2.203186 -0.084102809 1.8044177
-2.1884143 -0.13241273 1.7822595
-2.2216668 -0.16038531 1.7756541
-2.182667 -0.19087535 1.7694046
-2.1323843 -0.25363156 1.7594988
-2.1739364 -0.23805895 1.7642572
-2.117322 -0.30041832 1.7546754
-2.1608419 -0.30487841 1.7588899
-2.1097016 -0.34783593 1.7521226
-2.1490366 -0.35070512 1.756532
-2.1005228 -0.40867025 1.7522926
-2.1418471 -0.40085039 1.7582711
-2.0931828 -0.46127266 1.7538588
-2.0442543 -0.51261234 1.7472507
-2.0826969 -0.51143992 1.7542791
-2.0334096 -0.56783569 1.7520335
-2.0734675 -0.57326478 1.7573609
-2.0203247 -0.62051934 1.7551767
-1.9690185 -0.67741358 1.7572466
-2.0104651 -0.67534745 1.761647
-1.9607006 -0.72922766 1.7644211
-1.9956372 -0.72436476 1.7680452
-1.8987499 -0.79141617 1.7675205
-1.9407811 -0.78174019 1.7701617
-1.8916298 -0.83477306 1.7724413
-1.9465933 -0.83862114 1.7645756
-1.8460274 -0.89260548 1.7849277
-1.8907915 -0.89079356 1.7834134
-1.9397042 -0.88828135 1.758849
-1.9815732 -0.88323742 1.7358222
-1.7891769 -0.96382773 1.7990693
-1.8343649 -0.94799531 1.7978485
-1.8740156 -0.93324667 1.7970345
-1.9833236 -0.96661335 1.7042676
-1.779839 -0.9983412 1.8079107
-1.8238351 -0.99850959 1.8111115
-1.9843546 -1.0083659 1.6886733
-1.7334043 -1.0616492 1.8235618
-1.7768852 -1.0464922 1.822607
-1.9820361 -1.0599155 1.6690873
-1.6789227 -1.1171393 1.8379579
-1.7262874 -1.1064682 1.8384004
-1.9902865 -1.1124208 1.6452793
-1.6675498 -1.1644427 1.8534307
-1.7095413 -1.1468829 1.8513806
-1.9834062 -1.1693918 1.6286681
-1.6114962 -1.2267644 1.8725712
-1.6548123 -1.2114658 1.87059
-1.9827218 -1.2309299 1.6020752
-1.5670246 -1.2718461 1.8888232
-1.6089425 -1.2710296 1.8926344
-1.9720826 -1.2811506 1.592364
-1.9945112 -1.2794735 1.5830276
-1.5107558 -1.3358285 1.9104736
-1.5560043 -1.3213741 1.910642
-1.9483316 -1.3310877 1.5878623
-1.9819454 -1.329226 1.5674796
-1.4626656 -1.38614 1.9339763
-1.5058841 -1.3787539 1.9258517
-1.9483845 -1.384726 1.5762483
-1.9781899 -1.384064 1.5500182
-1.4029984 -1.4446211 1.9538908
-1.4495033 -1.4295243 1.9541323
-1.5087751 -1.4143519 1.9387668
-1.9559877 -1.4143569 1.5635344
-1.9710449 -1.4379823 1.5379951
-1.3692584 -1.508744 1.9878211
-1.4014852 -1.4843931 1.9769186
-1.9709306 -1.4977409 1.5209448
-1.2600172 -1.560128 2.06374
-1.2956469 -1.5474592 2.0367866
-1.3414358 -1.5278876 2.0068433
-1.9686805 -1.5429476 1.5055602
-1.2134745 -1.5695307 2.0819678
-1.9759474 -1.5825464 1.4936175
-1.9864165 -1.6247821 1.4724536
-2.115711 -0.062096417 1.935791
-2.1584992 -0.060500324 1.9099736
-2.1991684 -0.061183214 1.8780453
-2.2440457 -0.063190162 1.8501332
-2.2951941 -0.069025695 1.8238728
-2.0980625 -0.06507796 1.9419352
-2.2375731 -0.074488819 1.8166261
-2.2742252 -0.092889726 1.8004415
-2.3197858 -0.10052603 1.8002298
-2.2654665 -0.14725178 1.783993
-2.3106821 -0.15525883 1.7850614
-2.2552211 -0.20524025 1.7739165
-2.3012261 -0.20797819 1.7771658
-2.2523451 -0.25544211 1.7689455
-2.2956409 -0.23920339 1.7738317
-2.2028141 -0.31550741 1.7619038
-2.2474399 -0.31767347 1.7652149
-2.1917362 -0.36163273 1.7601194
-2.2366176 -0.36623058 1.7625331
-2.1821356 -0.42056584 1.7598817
-2.2300079 -0.42495942 1.7616024
-2.171593 -0.47681755 1.7610492
-2.2132888 -0.46961123 1.7622076
-2.1194999 -0.52661246 1.7621363
-2.1630626 -0.52937657 1.7640452
-2.1073165 -0.59163719 1.7613933
-2.1497533 -0.5897094 1.7649044
-2.0616422 -0.65121669 1.7639581
-2.103168 -0.64237601 1.7661248
-2.0527556 -0.69702935 1.7685425
-2.0956371 -0.69323409 1.7718302
-2.0395985 -0.74566656 1.7758367
-2.0814369 -0.74115747 1.7778624
-1.9896317 -0.79206014 1.7756748
-2.0376716 -0.80157381 1.774588
-2.0643716 -0.82471019 1.7629565
-1.9756413 -0.83170009 1.7623931
-2.0202732 -0.84746587 1.747804
-2.0731061 -0.85737073 1.7428315
-1.9617546 -0.91546291 1.7458436
-2.0095365 -0.89919001 1.7246346
-2.0623531 -0.90957403 1.7220024
-1.8741862 -0.98027754 1.810101
-1.9037678 -0.96145129 1.7990991
-1.9477594 -0.96036649 1.7568902
-1.9954566 -0.95182884 1.7113614
-2.0496736 -0.96576464 1.7008958
-1.8694649 -1.0172683 1.8199359
-1.9192168 -1.0237234 1.807657
-1.9523433 -1.0181884 1.7662653
-1.9746281 -1.0099354 1.7116802
-2.0319622 -1.018011 1.6805009
-2.0773571 -1.024719 1.6811031
-1.8071718 -1.0776246 1.8348366
-1.8508233 -1.0653906 1.8341372
-1.9639912 -1.0704057 1.7497859
-1.9696939 -1.0692712 1.7036556
-2.0228515 -1.0636292 1.6628473
-2.0690379 -1.0794313 1.6598994
-1.7660799 -1.1269362 1.848883
-1.806993 -1.1213173 1.8499782
-1.9665381 -1.1171461 1.7427595
-1.9693872 -1.1199496 1.6973623
-2.0162637 -1.1168941 1.6429349
-2.0604892 -1.122366 1.6434509
-1.7545658 -1.1749145 1.8669416
-1.80446 -1.1589198 1.8641472
-1.9662 -1.1721659 1.6893857
-2.0104129 -1.1571622 1.6282279
-2.056006 -1.182207 1.6218643
-1.6976601 -1.2390373 1.8884521
-1.738866 -1.2186598 1.8835477
-1.9647481 -1.232446 1.6730839
-1.9706631 -1.2336485 1.6306536
-2.0341523 -1.2336912 1.6097741
-1.6449167 -1.2921305 1.9067569
-1.6795511 -1.2803119 1.9049643
-1.9636123 -1.2893414 1.6666968
-1.9645241 -1.2824085 1.6224875
-2.0272775 -1.2890973 1.602419
-1.6012421 -1.3524166 1.9314272
-1.6407799 -1.3278755 1.9248592
-1.9461502 -1.3398044 1.6464746
-2.0293801 -1.3423131 1.578324
-1.5762039 -1.3933353 1.9350444
-1.9472624 -1.3947296 1.6400304
-1.9429772 -1.3879393 1.6093531
-2.0145178 -1.3901564 1.5475264
-2.0624197 -1.3958299 1.5499983
-1.4959419 -1.458432 1.974902
-1.5374554 -1.4448256 1.9626778
-1.5803467 -1.4384065 1.9443114
-1.9536123 -1.4335532 1.6375117
-1.9522996 -1.4461155 1.5984433
-2.0103264 -1.4352685 1.5325551
-2.0529652 -1.4485488 1.5312723
-1.4365414 -1.5177194 2.0107722
-1.4782938 -1.4948337 1.9957632
-1.956425 -1.5055981 1.5850835
-1.9766703 -1.5002019 1.5281224
-2.0337389 -1.5060165 1.5101659
-2.0749226 -1.5214493 1.5090392
-1.2992532 -1.567791 2.0865927
-1.3418633 -1.5591271 2.0794446
-1.3905606 -1.5446793 2.0472898
-1.442775 -1.5361199 2.0356991
-1.9558108 -1.5591507 1.5724277
-1.9581645 -1.5586238 1.5315006
-2.0230455 -1.556967 1.4930831
-2.0675392 -1.5649623 1.4946998
-1.9636549 -1.6080091 1.5676376
-1.9660796 -1.6107702 1.5225074
-2.0127766 -1.6030645 1.4778376
-2.0542381 -1.6177971 1.4769492
-1.9656558 -1.6634705 1.5188617
-2.0018499 -1.6612704 1.4658719
-2.0464635 -1.6657342 1.4688841
-1.936371 -1.7430902 1.5483133
-1.9542823 -1.7155595 1.5071687
-1.9996324 -1.7152014 1.4745617
-2.0434465 -1.7023438 1.4720706
-1.9581752 -1.7655082 1.4955912
-1.9937725 -1.7725533 1.4781804
-2.2025466 -0.056802034 1.9484009
-2.2375624 -0.056453645 1.9231482
-2.278868 -0.055815101 1.8882681
-2.3205349 -0.057632148 1.8541846
-2.3642991 -0.071122646 1.8210915
-2.3642368 -0.1118598 1.8013643
-2.3555214 -0.16356611 1.7879087
-2.3977776 -0.14980549 1.7944812
-2.3452532 -0.22146422 1.7804455
-2.3304572 -0.27000579 1.7743535
-2.3132582 -0.32973713 1.768759
-2.2651019 -0.38188821 1.7639959
-2.3035429 -0.37955952 1.7665992
-2.2590115 -0.43898648 1.7637208
-2.2913363 -0.43610492 1.7662959
-2.2492194 -0.49076366 1.765624
-2.2021983 -0.54438621 1.7675687
-2.2398548 -0.53974068 1.7684999
-2.19102 -0.60712111 1.7692698
-2.2309461 -0.58628368 1.7704498
-2.1707823 -0.65722162 1.7729069
-2.1293521 -0.71038878 1.7765778
-2.1655478 -0.70553321 1.779036
-2.0756359 -0.76311558 1.7806352
-2.1199026 -0.75940782 1.7840972
-2.0755215 -0.79664958 1.7804986
-2.108988 -0.81084156 1.7734721
-2.1381366 -0.83825642 1.7558758
-2.0997436 -0.85631078 1.7446178
-2.1417141 -0.86733317 1.7421048
-2.0943494 -0.8972699 1.7277346
-2.1298764 -0.91960865 1.7214475
-2.1248686 -0.97929269 1.6989702
-1.9132265 -1.0347954 1.8225832
-1.9525212 -1.0339117 1.785306
-2.1113887 -1.0243855 1.6819053
-2.1530697 -1.0355537 1.6795592
-1.8944898 -1.0901723 1.8477906
-1.9306259 -1.0678018 1.8300961
-1.9672461 -1.0846801 1.7928643
-2.1070549 -1.0809827 1.6611681
-2.1453233 -1.086616 1.661741
-1.8384665 -1.1466866 1.8630182
-1.8727077 -1.1341646 1.8627294
-1.9756179 -1.1334131 1.7679493
-2.1008909 -1.1309043 1.6425195
-2.1368356 -1.1370928 1.6425078
-1.7954793 -1.2066737 1.8833766
-1.8308361 -1.1857359 1.8783
-1.9765004 -1.1857673 1.7617494
-1.971436 -1.2047377 1.7291096
-2.0891128 -1.1707693 1.6284827
-2.1285996 -1.1900237 1.6242554
-1.7349446 -1.2677121 1.9071435
-1.7779827 -1.2458231 1.900152
-1.9774389 -1.232779 1.7516226
-1.973467 -1.2504269 1.7278113
-2.0858643 -1.2547055 1.630229
-2.1181631 -1.2440286 1.6286087
-1.7201362 -1.3031074 1.9215319
-1.764613 -1.2773583 1.9146121
-1.9731755 -1.3022114 1.7173038
-2.0660613 -1.295892 1.64057
-1.6673435 -1.359136 1.9464688
-1.7040551 -1.3385521 1.9389505
-1.965097 -1.3511968 1.7000444
-2.0655918 -1.3585777 1.6183027
-1.6296985 -1.4098444 1.9649531
-1.6579145 -1.3941662 1.9632853
-1.9681203 -1.408983 1.6866765
-2.0947926 -1.3894463 1.5752753
-2.1261997 -1.4077101 1.5541828
-1.5656422 -1.4781158 1.9948373
-1.6039633 -1.454133 1.9735265
-1.9675605 -1.4650707 1.6606092
-2.1234708 -1.4593452 1.5330998
-1.4695473 -1.5397546 2.0558057
-1.5195811 -1.5149212 2.0227304
-1.5570689 -1.4993491 2.0111136
-1.9715871 -1.5119865 1.657295
-1.9661767 -1.5283949 1.630648
-2.1192534 -1.5172596 1.5142894
-2.1564822 -1.5492074 1.5069166
-1.3856239 -1.5667789 2.1021593
-1.4243652 -1.5585222 2.087153
-1.9697498 -1.5745406 1.6227834
-2.1053247 -1.57178 1.4962091
-2.1427569 -1.5783329 1.4967245
-1.9706359 -1.6224406 1.6029513
-2.0954971 -1.6229889 1.481257
-2.134444 -1.6299556 1.4825175
-1.9741287 -1.6815411 1.5893507
-1.9674021 -1.682349 1.5507202
-2.0907233 -1.6823238 1.4766562
-2.1270797 -1.6725011 1.4778388
-1.9596568 -1.7284887 1.5795316
-1.9654318 -1.7039142 1.548372
-2.0410166 -1.745995 1.4988294
-2.0722635 -1.7226804 1.489212
-2.0237086 -1.7695312 1.4917955
-2.0584443 -1.7715728 1.4825965
-2.3755429 -0.048853338 1.9193759
-2.2843525 -0.052742064 1.9653056
-2.3174384 -0.051339447 1.9342347
-2.3524737 -0.049726427 1.8918834
-2.4019358 -0.053699076 1.8649213
-2.4452016 -0.074178457 1.8256454
-2.4796362 -0.0902794 1.8175412
-2.4323025 -0.12427735 1.8047464
-2.4763255 -0.13205659 1.8057065
-2.4251544 -0.17816174 1.7927964
-2.4666262 -0.18427676 1.7955796
-2.4180684 -0.2339164 1.7864089
-2.455091 -0.22605276 1.7906461
-2.4073076 -0.28173357 1.7816123
-2.3556633 -0.34386218 1.7717876
-2.399256 -0.35057864 1.7771949
-2.3491764 -0.39210284 1.7707281
-2.3862557 -0.39914852 1.7755098
-2.3349988 -0.44727749 1.7706944
-2.3790383 -0.44874746 1.7759885
-2.3242528 -0.5039078 1.7723624
-2.2698727 -0.55547225 1.7709513
-2.3126061 -0.55712098 1.7745976
-2.2603788 -0.61918759 1.7763152
-2.3030405 -0.61380315 1.7800496
-2.2139604 -0.66737115 1.7785106
-2.2554965 -0.66896021 1.782051
-2.2048752 -0.72237283 1.7855828
-2.2453868 -0.71752119 1.78845
-2.1567209 -0.77883852 1.789197
-2.1973999 -0.77177078 1.7909132
-2.1824875 -0.81908125 1.7701005
-2.2264802 -0.8407442 1.7591352
-2.1787148 -0.87685561 1.7387114
-2.2224278 -0.88193446 1.7395097
-2.1724019 -0.91031814 1.7258096
-2.2085757 -0.93046212 1.7208804
-2.2439501 -0.95778668 1.7124146
-2.192677 -0.98768771 1.6983153
-2.2395167 -1.0008771 1.6951773
-2.0387156 -1.0613762 1.8433641
-2.1893694 -1.0395502 1.6794773
-2.2311735 -1.0495038 1.677505
-1.9620682 -1.1066489 1.8569742
-2.007901 -1.0920486 1.8342479
-2.0521932 -1.1077605 1.8131411
-2.1763098 -1.0887225 1.6622157
-2.2213397 -1.0995157 1.6612132
-1.9185799 -1.1526718 1.873807
-1.9604282 -1.1494339 1.8729023
-1.9995608 -1.1450987 1.7966987
-2.0453906 -1.1540759 1.7948456
-2.1786041 -1.1339389 1.6466266
-2.2147899 -1.1532946 1.6419988
-1.8627462 -1.2155974 1.896093
-1.9027226 -1.1970741 1.8922801
-1.9939659 -1.1919155 1.782385
-2.0375834 -1.2037029 1.7776344
-2.1657035 -1.21749 1.6282266
-2.204864 -1.204617 1.6302757
-1.812049 -1.2742417 1.9167762
-1.8541849 -1.2563181 1.9137168
-2.0228133 -1.2641826 1.7576391
-2.0627444 -1.2809056 1.7508947
-2.1515679 -1.2654741 1.6479187
-2.2060354 -1.2625837 1.6350045
-1.7544135 -1.3226802 1.9340355
-1.7985237 -1.3152056 1.9367056
-2.0146465 -1.3074704 1.7387457
-2.0721128 -1.3183494 1.7264161
-2.1010199 -1.3083163 1.6807017
-2.2506671 -1.3378468 1.5743057
-1.700632 -1.3863459 1.9656148
-1.7452838 -1.3642068 1.9586523
-2.0032582 -1.3688761 1.717562
-2.0535295 -1.3769134 1.7091342
-2.0831809 -1.3737681 1.6653225
-2.1785152 -1.3898766 1.5895212
-2.2306879 -1.3770454 1.5647963
-2.2755837 -1.3679826 1.542655
-1.656233 -1.4314299 1.9863895
-1.694697 -1.4203273 1.9850149
-1.7361397 -1.4048166 1.9816064
-2.0017891 -1.4166342 1.6998007
-2.0479915 -1.4257984 1.6985893
-2.1068311 -1.4048235 1.660814
-2.1285384 -1.4052739 1.6274105
-2.1641226 -1.4066612 1.5722564
-2.2153065 -1.42312 1.5522367
-1.6034144 -1.4944119 2.0177951
-1.6431109 -1.474205 2.0102763
-1.6839215 -1.4584544 2.0066612
-1.9952682 -1.4612761 1.6875427
-2.0345979 -1.4723654 1.6802018
-2.0635858 -1.5002317 1.6734719
-2.2050197 -1.4738131 1.5342984
-2.2359896 -1.5002317 1.528808
-1.4987926 -1.5495491 2.0901809
-1.5516136 -1.5355839 2.0639451
-1.5904198 -1.5145243 2.0385408
-2.0117493 -1.5255668 1.6631601
-2.0598476 -1.5435755 1.6573241
-2.1917958 -1.5329716 1.5150465
-2.2342575 -1.5420077 1.515649
-1.4726235 -1.5591035 2.1049137
-2.0079017 -1.5769978 1.6446701
-2.0518758 -1.5954885 1.6383816
-2.188139 -1.5864857 1.4983635
-2.2332876 -1.5946431 1.5002214
-1.9978162 -1.6390612 1.6234095
-2.0446446 -1.6411948 1.6219928
-2.1794691 -1.638469 1.4862124
-2.2237415 -1.642554 1.4907798
-1.9983354 -1.687474 1.6042731
-2.0360425 -1.6938884 1.6038824
-2.1656818 -1.6970716 1.4885731
-2.2044985 -1.688224 1.4894757
-1.9857138 -1.7346686 1.5983559
-2.0281675 -1.7366319 1.600595
-2.1083002 -1.7471453 1.5072571
-2.1548645 -1.7300556 1.5055182
-2.0918574 -1.7692745 1.4971864
-2.3676631 -0.046022475 1.960446
-2.3961334 -0.045070589 1.9405508
-2.4377203 -0.045333683 1.9093673
-2.487977 -0.048251927 1.8725395
-2.5328839 -0.051289618 1.8509789
-2.4919481 -0.059647322 1.8394225
-2.5238476 -0.0845173 1.8235617
-2.5624208 -0.094357908 1.8224814
-2.5150816 -0.13891619 1.8066053
-2.5501993 -0.14523381 1.8079166
-2.50564 -0.19147587 1.7979168
-2.5436532 -0.19847441 1.8001153
-2.4955835 -0.24725282 1.7920083
-2.5393605 -0.24146038 1.7949991
-2.4457469 -0.30151176 1.7843618
-2.4863472 -0.29817379 1.7885675
-2.4424229 -0.36254933 1.7812434
-2.4724712 -0.35833806 1.7842823
-2.4274075 -0.40937984 1.7799183
-2.4647176 -0.41646448 1.7831266
-2.4199309 -0.4630565 1.7803401
-2.3995843 -0.51536155 1.7814848
-2.3548934 -0.56803179 1.7809587
-2.3889353 -0.57086802 1.7852435
-2.3438053 -0.63171196 1.7861422
-2.2878582 -0.68916041 1.7876133
-2.3239582 -0.68093866 1.7909364
-2.2798572 -0.73876035 1.7952371
-2.3150887 -0.72351694 1.7970513
-2.2268429 -0.79161918 1.792623
-2.2683799 -0.78620178 1.798918
-2.2651057 -0.83889687 1.7835209
-2.2613208 -0.88899833 1.7617444
-2.2643938 -0.93420297 1.7468039
-2.2703104 -0.95795625 1.7407033
-2.2726245 -1.0063328 1.7128388
-2.0909002 -1.0720861 1.8457612
-2.2778208 -1.0620916 1.6879826
-2.043468 -1.1137154 1.8673366
-2.0884943 -1.102309 1.8259561
-2.1287472 -1.115654 1.8175316
-2.2670231 -1.0997646 1.6677239
-2.2856948 -1.1229839 1.6632056
-1.9921839 -1.1706719 1.8832562
-2.0212541 -1.1589243 1.8817654
-2.087775 -1.1521299 1.795102
-2.1183305 -1.1626797 1.7965684
-2.2853272 -1.1629031 1.6464001
-1.9432682 -1.2262466 1.9077339
-1.9820013 -1.2053539 1.8988839
-2.0731914 -1.2098539 1.7777218
-2.108918 -1.2241123 1.775243
-2.148705 -1.2430035 1.7667886
-2.2837532 -1.2179545 1.6258533
-1.890443 -1.2894931 1.9357682
-1.9233862 -1.2622788 1.925177
-2.0685091 -1.2526762 1.7721418
-2.1017344 -1.2799354 1.7661788
-2.1805477 -1.2956882 1.6748863
-2.2112608 -1.2948101 1.6394837
-2.2700663 -1.2761981 1.6080971
-2.3085558 -1.2875373 1.6042135
-1.8437684 -1.3362968 1.9536057
-1.8712262 -1.316958 1.9471291
-2.0992014 -1.3040586 1.7414331
-2.1340845 -1.3121057 1.7205281
-2.1798038 -1.3085628 1.6917102
-2.2222805 -1.3240453 1.649579
-2.2567153 -1.3274167 1.5961748
-2.3077865 -1.3364677 1.5767596
-1.7841233 -1.3969265 1.9808908
-1.8211654 -1.3707037 1.969705
-2.2186072 -1.3879766 1.628087
-2.2376735 -1.3729827 1.5891502
-2.3009627 -1.3786664 1.5479414
-2.3303823 -1.3928444 1.5264157
-2.3776724 -1.4072311 1.5003483
-1.7346795 -1.4485071 2.0080905
-1.7619281 -1.4305375 1.9996388
-2.1149604 -1.4340422 1.6856734
-2.1588895 -1.4244242 1.663862
-2.1869256 -1.4135945 1.6441245
-2.2513013 -1.4294004 1.5526309
-2.2896349 -1.4380763 1.5505543
-2.337333 -1.4257925 1.5301527
-2.3840823 -1.4321231 1.5090191
-1.6762625 -1.5021188 2.0383656
-1.7187212 -1.4755368 2.0216444
-2.1074262 -1.4871318 1.6799493
-2.2810688 -1.486652 1.5369575
-2.3222785 -1.4942417 1.5362911
-1.5819125 -1.5382771 2.1005893
-1.6274128 -1.5272076 2.0738714
-2.0978973 -1.5453469 1.6578546
-2.1356218 -1.5497396 1.6578981
-2.2675626 -1.5457828 1.5170023
-2.3024671 -1.5581831 1.5154034
-2.0973268 -1.6077256 1.6392579
-2.1314473 -1.612426 1.639374
-2.2633941 -1.6001046 1.5015662
-2.294013 -1.60337 1.5022027
-2.0818899 -1.6490982 1.619875
-2.119422 -1.6557592 1.6208335
-2.2530427 -1.6582153 1.4934111
-2.2872858 -1.6506767 1.4960301
-2.0709176 -1.7004936 1.6067985
-2.1112463 -1.7079777 1.6094202
-2.213098 -1.7214878 1.507102
-2.2414343 -1.704272 1.5018497
-2.069577 -1.7335162 1.6052009
-2.0969205 -1.7387986 1.6079921
-2.1929138 -1.7551463 1.521849
-2.4271634 -0.047915876 1.9640746
-2.4786432 -0.044833124 1.951409
-2.5244737 -0.040309489 1.9136239
-2.5666585 -0.04392004 1.8756852
-2.61024 -0.05247581 1.8498983
-2.6442554 -0.066048265 1.8340267
-2.5983167 -0.10067034 1.8231142
-2.6416156 -0.11250508 1.8226254
-2.5899205 -0.15236694 1.8093375
-2.6349909 -0.16061991 1.8117266
-2.5806253 -0.20531696 1.8024275
-2.6221004 -0.20756072 1.8058246
-2.5727787 -0.26268125 1.7971472
-2.5223925 -0.31595469 1.7904122
-2.5618234 -0.30905476 1.7938272
-2.5044684 -0.37154612 1.7876285
-2.5483227 -0.3737455 1.7914619
-2.5018611 -0.42693049 1.7865865
-2.5386128 -0.43390799 1.7914269
-2.4893055 -0.47930679 1.7882465
-2.533289 -0.46367699 1.7919954
-2.4447327 -0.52229631 1.7869635
-2.4847245 -0.52959138 1.7911539
-2.4343209 -0.58264935 1.7911963
-2.4723969 -0.5764451 1.7951581
-2.3748276 -0.66060925 1.7936798
-2.4185352 -0.64205551 1.7970338
-2.366842 -0.69703686 1.7995721
-2.405184 -0.69643188 1.8043296
-2.3558133 -0.75099868 1.8075267
-2.3108933 -0.80172944 1.8077085
-2.3433089 -0.80072027 1.8152859
-2.3026557 -0.84478003 1.7971265
-2.3254156 -0.8597554 1.8077469
-2.2936487 -0.90082312 1.7777743
-2.315403 -0.90749687 1.792034
-2.3036237 -0.95449257 1.7749448
-2.3062015 -1.0196537 1.7510431
-2.1345105 -1.079128 1.8489392
-2.1730411 -1.0798565 1.8478639
-2.2134378 -1.0731602 1.8395646
-2.3151336 -1.072504 1.7289239
-2.0736697 -1.1397759 1.8817701
-2.1207781 -1.1219461 1.8743904
-2.1625066 -1.1204741 1.8237154
-2.2039783 -1.1270692 1.8178403
-2.322315 -1.1249251 1.7033685
-2.0626831 -1.17813 1.8913062
-2.1105418 -1.1861329 1.8908942
-2.1597857 -1.1619267 1.7987692
-2.2234302 -1.2055697 1.7885559
-2.3292944 -1.1787471 1.6798791
-2.0136523 -1.2380164 1.9163568
-2.0642231 -1.2283223 1.8970689
-2.1058078 -1.2369692 1.855607
-2.1459248 -1.2543136 1.8216938
-2.1921067 -1.2402834 1.7758758
-2.2250087 -1.2357848 1.7766628
-2.3370509 -1.2247661 1.6584622
-2.3423531 -1.2510753 1.6436224
-1.9198396 -1.3081417 1.9489645
-1.9622884 -1.2935627 1.9404099
-2.0040638 -1.2783179 1.9352345
-2.1070032 -1.2726586 1.8327434
-2.1274791 -1.2935073 1.8031297
-2.1694984 -1.266817 1.783159
-2.3428316 -1.2907987 1.6269631
-1.8695179 -1.3620076 1.972348
-1.911119 -1.3462831 1.9675732
-1.9531059 -1.3348716 1.9623864
-2.1377807 -1.3275936 1.7958214
-2.1708872 -1.3308889 1.759582
-2.2111151 -1.3388164 1.7232449
-2.2321362 -1.3553097 1.6913382
-2.3482256 -1.3474412 1.6049875
-1.8606985 -1.4024386 1.9954042
-1.9048617 -1.3805599 1.9874884
-2.2430778 -1.3969238 1.6778374
-2.3539343 -1.3764033 1.590067
-2.3697188 -1.4050164 1.5680146
-2.3985283 -1.414124 1.5218976
-1.8056364 -1.4514103 2.0187705
-1.8494483 -1.4420696 2.0196402
-2.1941752 -1.447427 1.6924242
-2.2253726 -1.4465227 1.6899436
-2.3682418 -1.4489794 1.5473644
-2.4132247 -1.4391487 1.5246193
-2.4361012 -1.4370755 1.4992707
-1.7090018 -1.5234118 2.0798087
-1.7554833 -1.4992198 2.0501568
-1.7871339 -1.4839159 2.0397747
-2.1765654 -1.4981419 1.6802692
-2.224122 -1.50976 1.6786757
-2.3577943 -1.5007744 1.5493343
-1.6230452 -1.542681 2.1159666
-1.6619309 -1.5415404 2.1093118
-2.1727719 -1.5520113 1.6596075
-2.2155814 -1.5621908 1.6608115
-2.3510237 -1.5641086 1.5202606
-2.3773768 -1.5908835 1.5246031
-2.1608279 -1.6044836 1.6425347
-2.2074528 -1.6148205 1.6420095
-2.3383751 -1.6132114 1.5025034
-2.3753433 -1.6222155 1.5153499
-2.1614156 -1.6632417 1.62205
-2.201931 -1.6706243 1.6240203
-2.3324275 -1.6693728 1.5016069
-2.3667047 -1.6639928 1.5079859
-2.1515164 -1.7154617 1.6120911
-2.1809051 -1.7176731 1.6163846
-2.277895 -1.7262371 1.5215929
-2.3119726 -1.7106131 1.5160005
-2.2320294 -1.7459915 1.5296636
-2.2660673 -1.7557254 1.5278963
-2.3122582 -1.7603712 1.5243497
-2.5865288 -0.033838212 1.9521394
-2.6114171 -0.033597589 1.9313394
-2.6445086 -0.033834636 1.9034898
-2.5208595 -0.043013632 1.9748044
-2.5602264 -0.036221862 1.9623524
-2.601702 -0.035746157 1.9197615
-2.6498985 -0.03718704 1.8848572
-2.6859455 -0.055155873 1.8480825
-2.7174354 -0.068479478 1.8390073
-2.6750479 -0.10895354 1.8263508
-2.7112184 -0.12529701 1.8227785
-2.6651423 -0.16604322 1.8128477
-2.6956067 -0.16950768 1.8139551
-2.657783 -0.22148663 1.8065451
-2.6918962 -0.22574264 1.808571
-2.6456046 -0.27473551 1.8025209
-2.6895816 -0.26955324 1.8058125
-2.596931 -0.33000588 1.7963226
-2.6363018 -0.32637331 1.8001242
-2.5911307 -0.38608605 1.7956829
-2.624732 -0.38897496 1.799332
-2.5837932 -0.44074395 1.7965589
-2.6300974 -0.43767157 1.8022082
-2.5626888 -0.49461961 1.7975203
-2.5189536 -0.54908061 1.7978561
-2.5520401 -0.54777271 1.8018036
-2.5087461 -0.6004144 1.8027799
-2.5501413 -0.59296685 1.8078475
-2.4625912 -0.66830629 1.807574
-2.4933622 -0.65713 1.8094457
-2.4524851 -0.71170747 1.8128772
-2.4723914 -0.70387799 1.8135434
-2.3937502 -0.78077745 1.8178931
-2.4312928 -0.76112181 1.819044
-2.3863912 -0.81916225 1.8247768
-2.4206865 -0.80493957 1.8251207
-2.372031 -0.8677364 1.83524
-2.3487842 -0.92040503 1.8269103
-2.3431883 -0.97262537 1.8133403
-2.3119106 -1.0479244 1.8519523
-2.3464293 -1.0322359 1.7975053
-2.2069559 -1.0969309 1.8680451
-2.2394183 -1.0832062 1.8604525
-2.2848997 -1.1118327 1.8281721
-2.3500013 -1.0908943 1.7745285
-2.157871 -1.1506832 1.8889914
-2.1987062 -1.136086 1.8844862
-2.2490041 -1.1276159 1.8189741
-2.2814615 -1.1364452 1.8179467
-2.3543501 -1.1401274 1.7433681
-2.1538925 -1.1874222 1.8987259
-2.2679081 -1.2167923 1.7911023
-2.3629758 -1.1923828 1.7198689
-2.0848336 -1.2635009 1.9218336
-2.1505497 -1.2259343 1.8860668
-2.1766248 -1.2526166 1.8519976
-2.2183201 -1.2637613 1.8150942
-2.260602 -1.2503548 1.7814908
-2.3047128 -1.2399269 1.784498
-2.3711181 -1.2436382 1.7010584
-2.3761413 -1.2650596 1.6834008
-2.0013838 -1.3241749 1.958653
-2.0396941 -1.3048111 1.9548478
-2.0756369 -1.2870095 1.94885
-2.1292682 -1.2888808 1.88222
-2.1561446 -1.3207047 1.8471467
-2.2252979 -1.3150133 1.8196197
-2.2593699 -1.3258176 1.7865334
-2.2964737 -1.3274733 1.7634656
-2.379272 -1.3090998 1.6695445
-1.9877644 -1.3567553 1.9761819
-2.1730669 -1.3346395 1.8294625
-2.206938 -1.3416011 1.7927263
-2.2471657 -1.3532474 1.7613119
-2.2845953 -1.3649749 1.7371122
-2.3797393 -1.3645625 1.6421714
-1.9075776 -1.4309101 2.020895
-1.940437 -1.402679 2.0040059
-1.9747349 -1.3915837 1.9968133
-2.2817476 -1.4072853 1.708128
-2.3149889 -1.4239638 1.6981995
-2.3882554 -1.4078897 1.6419474
-2.3975496 -1.4272232 1.6088539
-1.8464411 -1.4750901 2.0431595
-1.8780094 -1.4588397 2.0350835
-2.2761059 -1.4665313 1.6985927
-2.3178029 -1.4709333 1.6991711
-2.4169648 -1.464337 1.5809889
-2.4312057 -1.4486053 1.5497768
-1.7436846 -1.5352744 2.1174908
-1.7915399 -1.5187984 2.0896823
-1.8251424 -1.4972926 2.0625892
-2.2651882 -1.5094672 1.6826104
-2.2976124 -1.524034 1.6803167
-2.3990097 -1.5167036 1.5813359
-1.6982948 -1.5486838 2.1383605
-2.2564578 -1.5780128 1.6607516
-2.2887912 -1.5894098 1.6585983
-2.3989887 -1.5590892 1.561383
-2.401633 -1.5888269 1.5487623
-2.2430577 -1.6145884 1.6437336
-2.2786052 -1.6314919 1.6417165
-2.4034059 -1.6338475 1.5348778
-2.2701728 -1.6836141 1.6300435
-2.3969588 -1.6828725 1.5278969
-2.2317588 -1.72041 1.6234069
-2.2618711 -1.7266188 1.6283885
-2.3527646 -1.7375739 1.5367385
-2.345305 -1.7601858 1.5132697
-2.5841346 -0.035115123 1.9829302
-2.6430779 -0.031709373 1.9690713
-2.6835113 -0.029871404 1.9331492
-2.7247791 -0.030414402 1.8982255
-2.7741761 -0.033794045 1.8760674
-2.5534983 -0.041054308 2.0065596
-2.7551904 -0.062015653 1.8459055
-2.8042326 -0.077357471 1.8433168
-2.7528589 -0.12356406 1.8272452
-2.794673 -0.13536376 1.8273727
-2.7406044 -0.17803866 1.816921
-2.7855401 -0.18690664 1.8199918
-2.7331376 -0.23527622 1.8120215
-2.7755089 -0.22706538 1.8175712
-2.7231405 -0.28781724 1.8102846
-2.6731155 -0.33348906 1.8039002
-2.7098036 -0.3436439 1.8098606
-2.6610296 -0.39596835 1.8049906
-2.6975102 -0.40871713 1.8121328
-2.6534007 -0.45440668 1.8083944
-2.6979458 -0.45214316 1.8157803
-2.6019099 -0.50950682 1.8049731
-2.640296 -0.50351751 1.8111866
-2.5948884 -0.55676132 1.8098038
-2.636852 -0.55590534 1.8178318
-2.5421376 -0.62592274 1.8115151
-2.5846 -0.61044562 1.8161488
-2.529233 -0.67376202 1.8173627
-2.5683935 -0.67254078 1.8231056
-2.5210028 -0.72476006 1.8246261
-2.4739215 -0.77771938 1.8270714
-2.5117869 -0.77657741 1.8321998
-2.4616246 -0.83004302 1.8368157
-2.4062994 -0.88689578 1.8457352
-2.44943 -0.88018668 1.8484428
-2.3999064 -0.93660921 1.8582835
-2.3541765 -1.0046819 1.8711654
-2.3741477 -0.98247755 1.8598428
-2.3335993 -1.0432781 1.8707907
-2.3531423 -1.0452034 1.8313659
-2.2904408 -1.1050382 1.8809556
-2.3237805 -1.0902648 1.8526702
-2.3476672 -1.0917199 1.8134202
-2.2257805 -1.1661658 1.9010702
-2.2716558 -1.1486068 1.8955967
-2.3165188 -1.1324565 1.8236551
-2.3516042 -1.141337 1.7973027
-2.3726795 -1.1622849 1.7669575
-2.1828513 -1.2108393 1.9094459
-2.2249072 -1.2052361 1.9194062
-2.3497913 -1.2097442 1.7896647
-2.378705 -1.2048054 1.7519457
-2.1210055 -1.2813451 1.9356316
-2.2131085 -1.2598524 1.8967903
-2.2271128 -1.271245 1.8536878
-2.3168139 -1.242124 1.7850477
-2.3821814 -1.2573872 1.7461464
-2.0734003 -1.335377 1.9773487
-2.1122751 -1.3086154 1.9664381
-2.1647687 -1.3030903 1.9194522
-2.1958609 -1.3200722 1.876598
-2.2246041 -1.301002 1.8419899
-2.2803431 -1.3150326 1.7891012
-2.308511 -1.3284411 1.7618226
-2.390274 -1.3229041 1.7392807
-2.3981571 -1.3180307 1.7048554
-2.0239384 -1.3810413 1.9953594
-2.063381 -1.3689554 1.9952918
-2.1939301 -1.3388507 1.8543262
-2.3229313 -1.3656914 1.7388874
-2.3676481 -1.374824 1.7315826
-2.4006331 -1.3667812 1.6914494
-1.9691889 -1.4389441 2.0313606
-2.0123193 -1.4142661 2.0179813
-2.358206 -1.4192938 1.7072768
-2.3951111 -1.4244102 1.675065
-1.8817818 -1.5034862 2.0878911
-1.9212248 -1.483384 2.0611212
-1.9606106 -1.4685436 2.0493402
-2.3512373 -1.4732566 1.6958822
-2.3973823 -1.4784174 1.681134
-2.4377241 -1.4773896 1.629791
-1.7723626 -1.5397677 2.1425245
-1.8200053 -1.5288467 2.1272032
-1.8610826 -1.5134268 2.1017833
-2.334044 -1.5202863 1.6844661
-2.4036648 -1.537376 1.6781436
-2.4315724 -1.5302627 1.6236227
-2.3327138 -1.5940987 1.6597335
-2.3793223 -1.5957874 1.6605899
-2.4290495 -1.5946128 1.600085
-2.4223485 -1.6076667 1.5686331
-2.3218408 -1.6428816 1.6427464
-2.3709674 -1.6530306 1.6405269
-2.405077 -1.6630843 1.6349665
-2.4284694 -1.6471286 1.5696335
-2.3152442 -1.6919045 1.632614
-2.3594017 -1.698727 1.6303233
-2.3991652 -1.6942015 1.6279212
-2.4292011 -1.6942148 1.5624669
-2.4129229 -1.7421327 1.5425534
-2.6779127 -0.029855192 1.9937657
-2.7289114 -0.026029229 1.9805262
-2.7686665 -0.024396062 1.9505286
-2.8106728 -0.026636958 1.9164824
-2.8540318 -0.03827709 1.8742659
-2.9024174 -0.047994733 1.857296
-2.8434861 -0.080064774 1.8440884
-2.8865671 -0.087536812 1.8444672
-2.837178 -0.14660943 1.8303239
-2.8779664 -0.14540082 1.8363538
-2.829042 -0.19500178 1.8266891
-2.86537 -0.20481533 1.8337288
-2.8174505 -0.25158125 1.8251691
-2.8546243 -0.2361474 1.8317857
-2.8013921 -0.30463749 1.8249409
-2.7573681 -0.35290465 1.8191534
-2.794416 -0.3593711 1.8283095
-2.7481613 -0.41921636 1.8232067
-2.7861886 -0.40325278 1.8307598
-2.7256832 -0.47113639 1.8244531
-2.6799929 -0.52556229 1.8229555
-2.7204382 -0.51915449 1.8309759
-2.6714134 -0.5771296 1.8279078
-2.7124193 -0.56605548 1.8357137
-2.6217871 -0.63612986 1.8265767
-2.6626348 -0.6246419 1.8333782
-2.6182137 -0.69277948 1.8362571
-2.6571405 -0.6794703 1.842428
-2.5952935 -0.74202538 1.8408935
-2.5488403 -0.79584682 1.842986
-2.5875654 -0.7915293 1.8492856
-2.4994202 -0.85637081 1.8483274
-2.5403304 -0.84587365 1.8520414
-2.4958949 -0.90272331 1.8602512
-2.5345356 -0.89504093 1.8627533
-2.4350641 -0.95942104 1.8682038
-2.4781928 -0.95110887 1.8699707
-2.4246223 -1.0106968 1.8839628
-2.4691529 -0.99298584 1.8817972
-2.3729029 -1.07134 1.8977758
-2.4144382 -1.0579206 1.9001815
-2.363349 -1.1138973 1.9092302
-2.3153811 -1.1842512 1.9167873
-2.3509634 -1.1609346 1.9139962
-2.258621 -1.2308915 1.9373789
-2.297658 -1.2208762 1.9326988
-2.2120376 -1.2962639 1.9723086
-2.2562211 -1.2578032 1.9501059
-2.1543219 -1.3397952 1.9954334
-2.1965623 -1.3170637 1.9884523
-2.1066115 -1.3949008 2.0198805
-2.1379733 -1.3788373 2.0147634
-2.0519481 -1.4458852 2.0465693
-2.0950577 -1.424077 2.0390172
-1.9566371 -1.5119191 2.1098151
-1.9969115 -1.4926089 2.0785859
-2.0380201 -1.485729 2.0716364
-2.4190781 -1.4967241 1.6852989
-2.4447148 -1.5020314 1.6709915
-1.9112054 -1.5257497 2.1364009
-2.418093 -1.5186999 1.6841249
-2.4379253 -1.5294437 1.6684997
-2.4324043 -1.6097753 1.6452802
-2.4371109 -1.6521137 1.6298587
-2.4522707 -1.6662366 1.6107233
-2.4383111 -1.7015369 1.6276343
-2.4741795 -1.7107799 1.609235
-2.8357849 -0.024588943 1.9800507
-2.7717144 -0.024481297 2.0046215
-2.7967224 -0.023547351 1.9839644
-2.8467953 -0.025935292 1.9528039
-2.8892338 -0.028891325 1.9091792
-2.9338386 -0.039829731 1.8738135
-2.9695282 -0.054286897 1.8614485
-2.9253922 -0.094773114 1.8471435
-2.9581742 -0.10151505 1.85044
-2.9152222 -0.16141766 1.8428102
-2.9483457 -0.14410967 1.8501043
-2.9038675 -0.21330291 1.842913
-2.8548813 -0.27034986 1.8345953
-2.8861117 -0.26698112 1.8431157
-2.8568454 -0.31678939 1.8401544
-2.8730209 -0.32045007 1.8453186
-2.8380322 -0.37018085 1.8421614
-2.8107226 -0.42989427 1.8426661
-2.7785306 -0.48502252 1.841778
-2.8088994 -0.47339439 1.8501813
-2.7651663 -0.53682756 1.8461063
-2.7391887 -0.590078 1.8469214
-2.7025175 -0.64734399 1.847383
-2.7307372 -0.64073765 1.8531519
-2.6849616 -0.70159364 1.8531579
-2.6445017 -0.75629365 1.8548295
-2.6705189 -0.75111747 1.8594906
-2.6309376 -0.80668068 1.8612604
-2.5759597 -0.86612624 1.8626657
-2.6099203 -0.85890758 1.8674128
-2.5673516 -0.91646159 1.8729277
-2.6032062 -0.89549196 1.8737979
-2.5269051 -0.97229713 1.8818737
-2.5541289 -0.96491438 1.8842702
-2.5046029 -1.0176371 1.8942983
-2.4512248 -1.0814953 1.91155
-2.4915924 -1.0613209 1.9072957
-2.4052391 -1.1378093 1.9262394
-2.435668 -1.1258378 1.9285671
-2.3425164 -1.1980436 1.9304776
-2.3881757 -1.1849726 1.9403576
-2.3470986 -1.2391301 1.944577
-2.3704185 -1.2290879 1.9492264
-2.2526016 -1.3071328 1.9915346
-2.2917879 -1.2832403 1.9756145
-2.3236916 -1.2742 1.9602548
-2.1974871 -1.370923 2.0235736
-2.2323446 -1.3417308 2.0094461
-2.2656631 -1.3335257 2.0005956
-2.1716166 -1.4031751 2.0393462
-2.0981007 -1.4768021 2.0766573
-2.1285217 -1.4460684 2.0604248
-1.9890493 -1.511986 2.1385014
-2.0395725 -1.5000806 2.1211917
-2.0700059 -1.4982109 2.0956318
-1.9560716 -1.5368108 2.1600406
-2.4853652 -1.7206132 1.6297234
-2.8432627 -0.02317071 2.0035002
-2.877965 -0.024808228 1.9842688
-2.9279032 -0.024804115 1.9552635
-2.972435 -0.027038872 1.9237484
-3.0141616 -0.034930408 1.9125978
-2.9648073 -0.032300532 1.8983188
-3.0108676 -0.052375436 1.8782594
-3.0410388 -0.076143205 1.8774753
-3.0038059 -0.11115462 1.8653437
-2.9796388 -0.17375451 1.8640348
-2.9377728 -0.22160816 1.8547869
-2.9673424 -0.2280966 1.866732
-2.9333777 -0.27876753 1.8612304
-2.9706116 -0.26305789 1.8724208
-2.9160738 -0.33150095 1.8619063
-2.8710735 -0.38742039 1.8563579
-2.9049625 -0.38194916 1.8680561
-2.8651447 -0.44566306 1.8644127
-2.8970044 -0.43124074 1.8741274
-2.843822 -0.49948445 1.8668922
-2.7958369 -0.56275958 1.8609508
-2.829916 -0.54983163 1.8710563
-2.7926197 -0.6087873 1.8681352
-2.8230524 -0.59834576 1.8777299
-2.7751584 -0.65450668 1.8704913
-2.7203908 -0.72384346 1.8663983
-2.7567172 -0.7116341 1.8749692
-2.7130809 -0.77150571 1.8746959
-2.7533703 -0.75377601 1.8818333
-2.6610637 -0.83579195 1.874537
-2.7009432 -0.81919736 1.8807106
-2.6579881 -0.87688446 1.8824507
-2.6940455 -0.87176818 1.8903409
-2.6008673 -0.94224954 1.8854163
-2.6405036 -0.9283163 1.8898818
-2.5909257 -0.9782387 1.8943042
-2.6297941 -0.98186821 1.9023638
-2.5423186 -1.0414418 1.9073451
-2.5842662 -1.0305119 1.9091251
-2.4810371 -1.1087244 1.9244441
-2.5289271 -1.0953122 1.9242898
-2.5678234 -1.078774 1.923847
-2.4770095 -1.1472512 1.9421016
-2.5209899 -1.1412181 1.9417851
-2.4229681 -1.2059077 1.9582981
-2.4631968 -1.189708 1.9598622
-2.3697834 -1.2748729 1.9629729
-2.4090421 -1.2478132 1.9754927
-2.3680902 -1.29247 1.9715912
-2.3976574 -1.2978914 1.9702239
-2.2666273 -1.3741477 2.0392032
-2.3106437 -1.353852 2.0195622
-2.2162492 -1.4180847 2.0626717
-2.253994 -1.4053379 2.0632117
-2.06515 -1.4862254 2.149277
-2.1186228 -1.4902424 2.1366081
-2.1593955 -1.4753572 2.0917289
-2.1990066 -1.4524208 2.0823877
-2.067461 -1.4912632 2.1409619
-2.1074212 -1.4965501 2.1128893
-2.9786179 -0.02514714 1.9997934
-3.0070395 -0.031478524 1.9654692
-3.0426445 -0.041955113 1.9348991
-3.0610754 -0.054371476 1.91212
-3.0666225 -0.074094296 1.9005668
-3.0381384 -0.13642293 1.8870422
-3.0577087 -0.12269616 1.8939691
-3.0290518 -0.18840146 1.8931518
-3.0127511 -0.23812973 1.8962245
-2.9871082 -0.29749018 1.8894072
-2.9575245 -0.35163528 1.8835698
-2.9885652 -0.34007692 1.8985159
-2.9454913 -0.39979422 1.8884834
-2.8939967 -0.47695231 1.8812112
-2.9250245 -0.46157771 1.890775
-2.8976667 -0.51174653 1.8900526
-2.9117188 -0.50510013 1.8944023
-2.8769145 -0.56378341 1.8918827
-2.8478045 -0.61905283 1.8911905
-2.8183651 -0.67430168 1.8903513
-2.8461113 -0.65877676 1.8982935
-2.8014913 -0.72988659 1.8947237
-2.775671 -0.78091258 1.8957976
-2.742888 -0.84143883 1.897125
-2.7714288 -0.8252939 1.9026897
-2.727174 -0.88831306 1.9020848
-2.6875312 -0.9501726 1.9059408
-2.7150569 -0.93014938 1.9075292
-2.6672268 -0.99383467 1.9129473
-2.6197231 -1.0558171 1.9221778
-2.65237 -1.0401673 1.9233866
-2.5716271 -1.1178982 1.9381311
-2.6039767 -1.098688 1.9355659
-2.5552876 -1.1603798 1.9550468
-2.4986138 -1.2156005 1.9763212
-2.5406883 -1.1957358 1.9710943
-2.4461715 -1.2690375 1.994344
-2.4799469 -1.2573812 1.9927845
-2.4317319 -1.304723 2.0054195
-2.3157935 -1.3996421 2.0697367
-2.3468332 -1.3906839 2.0490279
-2.3729694 -1.3773907 2.0342343
-2.2513864 -1.4411308 2.0856662
-2.2858133 -1.4270018 2.0847239
-2.1562474 -1.4810567 2.1551609
-2.1941137 -1.4818294 2.1366322
-2.2421827 -1.469862 2.1068501
-3.0132709 -0.030268073 2.0045063
-3.0578465 -0.054199398 1.9587324
-3.0837343 -0.085072219 1.9531289
-3.0854244 -0.082490563 1.9256959
-3.0918486 -0.13243687 1.9620893
-3.0872087 -0.14168763 1.9243416
-3.0614872 -0.20964575 1.9176364
-3.0826468 -0.19786745 1.9265997
-3.0537043 -0.25460011 1.9216137
-3.038336 -0.30706567 1.9236038
-3.0121615 -0.36401933 1.9171771
-2.9808242 -0.41932303 1.9104424
-3.0093589 -0.40165132 1.9265501
-2.9745731 -0.47545502 1.9158665
-2.9480624 -0.52327335 1.913228
-2.9142509 -0.58438027 1.91109
-2.9417193 -0.5708307 1.9199502
-2.9037161 -0.62941939 1.9160314
-2.8800573 -0.68528879 1.9164984
-2.8367071 -0.74735481 1.9121367
-2.8727937 -0.74369657 1.9259269
-2.8313024 -0.79819608 1.9203768
-2.8064733 -0.85288626 1.9209609
-2.762536 -0.90534699 1.9161048
-2.7939572 -0.90549755 1.9269757
-2.755646 -0.95780951 1.9256442
-2.7991595 -0.94209224 1.9364028
-2.7055218 -1.0162489 1.9273987
-2.7374005 -1.0081021 1.9324926
-2.6942675 -1.061903 1.9386137
-2.7345648 -1.0440874 1.9421588
-2.6375911 -1.1288472 1.9514984
-2.6813996 -1.1121203 1.9526372
-2.5901704 -1.1805611 1.9676218
-2.6314588 -1.1734083 1.9686723
-2.5375304 -1.2397339 1.9934851
-2.5823035 -1.223758 1.9883858
-2.4871488 -1.2835602 2.0075953
-2.5226774 -1.2791891 2.0117025
-2.4442825 -1.3503639 2.0517576
-2.4728417 -1.3302729 2.0313172
-2.5121894 -1.317064 2.0292478
-2.3706913 -1.4111748 2.0679719
-2.4176266 -1.399024 2.0628648
-2.2826388 -1.472137 2.1619029
-2.3338065 -1.4500766 2.1051688
-2.3739061 -1.4322659 2.0975373
-2.2277124 -1.4759573 2.163727
-2.2686656 -1.4798248 2.1427968
-2.3033843 -1.4755807 2.118839
-3.0991654 -0.16633123 1.9742539
-3.1043906 -0.2240634 1.9800045
-3.1027033 -0.21415794 1.9527771
-3.1002092 -0.26706934 1.9587581
-3.1120455 -0.27625716 1.9566207
-3.0833206 -0.3233847 1.9411497
-3.1183956 -0.32384908 1.9504403
-3.0712969 -0.37745619 1.9506996
-3.1047709 -0.37157047 1.9544394
-3.0419216 -0.42792803 1.9522812
-3.0188963 -0.49647042 1.9494044
-3.0421941 -0.47268891 1.9618351
-3.0041308 -0.5421313 1.9445517
-2.9858017 -0.59581351 1.9466046
-2.9386644 -0.6544556 1.9344442
