# .PCD v0.7 - Point Cloud Data file format
VERSION 0.7
FIELDS x y z
SIZE 4 4 4
TYPE F F F
COUNT 1 1 1
WIDTH 1395
HEIGHT 1
VIEWPOINT 0 0 0 1 0 0 0
POINTS 1395
DATA ascii
0.50579834 -0.16453612 -2.6896958
0.5321753 -0.17621607 -2.712647
0.35495698 -0.20711851 -2.6090169
0.39714515 -0.20020023 -2.6059136
0.55075479 -0.20128042 -2.7022753
0.39475358 -0.24665043 -2.6121891
0.43619955 -0.24679801 -2.6054239
0.54143488 -0.26175502 -2.6570425
0.55023706 -0.24725398 -2.6913154
0.40628541 -0.29515493 -2.6147749
0.44486177 -0.28967857 -2.606509
0.53670478 -0.2909672 -2.6517901
0.54307127 -0.29572773 -2.6842325
0.43996656 -0.33522314 -2.6095378
0.49280822 -0.33196041 -2.6070578
0.52886367 -0.33099046 -2.650928
0.53378177 -0.32767528 -2.6783745
0.45096529 -0.37951037 -2.6079144
0.49305356 -0.37928861 -2.6141436
0.52168238 -0.37937498 -2.6466842
0.46027493 -0.42268381 -2.6065397
0.49103534 -0.43328011 -2.6165307
0.50916266 -0.42089078 -2.6353197
0.27316499 -0.14524558 -2.6287258
0.31769335 -0.14287603 -2.6413431
0.36499166 -0.14319262 -2.6635923
0.39910901 -0.14527172 -2.6851149
0.42493689 -0.15087312 -2.7152004
0.2812686 -0.17732012 -2.6158247
0.31557763 -0.1721451 -2.6140769
0.44462335 -0.15545723 -2.7090235
0.4793973 -0.16888574 -2.7327785
0.5094713 -0.18343219 -2.7407663
0.29094243 -0.21604863 -2.6197417
0.32296669 -0.21506175 -2.6145785
0.52039289 -0.21617958 -2.7396445
0.33697641 -0.25704348 -2.6193702
0.37116933 -0.27518603 -2.6166191
0.5377996 -0.26574558 -2.7336469
0.34529102 -0.30442196 -2.6203337
0.38288379 -0.30701983 -2.6168244
0.5408411 -0.30525321 -2.7261014
0.35623002 -0.34284893 -2.6208634
0.38737941 -0.34513736 -2.6174209
0.53755021 -0.34265703 -2.7062297
0.39142895 -0.38731897 -2.6182611
0.42508984 -0.39134887 -2.6144688
0.52713799 -0.39348787 -2.6729927
0.53100669 -0.38718385 -2.6997142
0.40320206 -0.42864323 -2.6193075
0.43455482 -0.43400776 -2.6134295
0.50567186 -0.44062397 -2.6322351
0.5178442 -0.43839681 -2.6689463
0.43924558 -0.47355205 -2.6146049
0.4896512 -0.47714061 -2.6247659
0.50998008 -0.47651294 -2.659595
0.448946 -0.52475393 -2.6134758
0.48570275 -0.52413857 -2.6303527
0.50045872 -0.50545406 -2.6502767
0.4736203 -0.55907249 -2.6234138
0.18822455 -0.14812285 -2.6306925
0.22453368 -0.14027095 -2.6389222
0.25256169 -0.13160649 -2.6625617
0.30366242 -0.13586649 -2.6810136
0.33987451 -0.14248192 -2.7084975
0.3749603 -0.15079093 -2.727391
0.40979958 -0.15686336 -2.7398062
0.19785547 -0.18459159 -2.6254323
0.23168027 -0.18968856 -2.6227102
0.42927587 -0.18541825 -2.7487357
0.45422792 -0.18045333 -2.7472129
0.23462069 -0.22587797 -2.6299174
0.26465511 -0.22158954 -2.624763
0.2388463 -0.26631925 -2.6311758
0.2750057 -0.26985928 -2.6285212
0.30925322 -0.27544242 -2.625031
0.51556313 -0.28673217 -2.7497418
0.28053355 -0.31894198 -2.6289413
0.31466174 -0.31428936 -2.6251314
0.51819408 -0.31469661 -2.7426085
0.28841591 -0.35578102 -2.6291289
0.32134771 -0.35655332 -2.6251397
0.5187577 -0.35448211 -2.7421677
0.3339467 -0.4016822 -2.6249299
0.37182176 -0.41607803 -2.6213951
0.52300489 -0.40160811 -2.7324328
0.3455447 -0.45190305 -2.6254888
0.38242531 -0.44521102 -2.6239877
0.51879239 -0.45451972 -2.6996925
0.52193701 -0.44654536 -2.720695
0.3525424 -0.48995531 -2.6272504
0.38449919 -0.48358074 -2.6264734
0.40776336 -0.49180606 -2.6240537
0.51478446 -0.48425576 -2.693253
0.51678908 -0.48010093 -2.7226665
0.39120209 -0.53332949 -2.6269269
0.42208481 -0.52835363 -2.6176026
0.49609017 -0.54566687 -2.6488311
0.50655997 -0.52872813 -2.6816001
0.40083504 -0.57931334 -2.6240199
0.43466175 -0.57637846 -2.6163082
0.48535812 -0.57823449 -2.6431222
0.49717855 -0.57447815 -2.6747999
0.43095124 -0.61873114 -2.6164715
0.47597408 -0.61376971 -2.6411924
0.43859744 -0.65892583 -2.6196594
0.46400785 -0.65070194 -2.6349869
0.079018712 -0.13218722 -2.6377923
0.10406959 -0.12076372 -2.6501987
0.14908147 -0.11940134 -2.670845
0.18731642 -0.12304825 -2.695296
0.22559261 -0.12852898 -2.7120304
0.25485861 -0.13064668 -2.7321115
0.08087182 -0.15079653 -2.6321282
0.1144824 -0.15510315 -2.6311967
0.15929675 -0.14123899 -2.6360953
0.20699596 -0.12743458 -2.6670394
0.24046028 -0.1276955 -2.6862791
0.27788126 -0.13402873 -2.7218618
0.31488049 -0.15643263 -2.7467232
0.35044336 -0.16171277 -2.7482786
0.12214816 -0.1977739 -2.6352878
0.16394866 -0.19693804 -2.6322105
0.32096374 -0.1914283 -2.7591505
0.35883796 -0.19621807 -2.7520318
0.3997463 -0.19425026 -2.7575133
0.13666904 -0.23213881 -2.640152
0.16747522 -0.23601606 -2.6376333
0.21009052 -0.23843017 -2.6334202
0.17877078 -0.27998611 -2.6391492
0.21900868 -0.28400248 -2.6337361
0.18832195 -0.32857072 -2.6388116
0.2236861 -0.32515377 -2.6344924
0.25935078 -0.33626196 -2.6315393
0.22425961 -0.36985362 -2.6362681
0.26585388 -0.36281914 -2.6320813
0.23363972 -0.41636986 -2.6371679
0.27410436 -0.40968895 -2.6319077
0.49897289 -0.41735685 -2.7530093
0.27031457 -0.46263915 -2.6345716
0.31011069 -0.45315096 -2.6277173
0.48625505 -0.47200379 -2.7562528
0.50698245 -0.45303732 -2.7437737
0.27913618 -0.50003016 -2.637964
0.31845284 -0.49426377 -2.6302996
0.47928679 -0.49618316 -2.7560766
0.51154745 -0.49668983 -2.7365732
0.29324687 -0.53042698 -2.6382613
0.32645416 -0.54294378 -2.6338403
0.36779368 -0.54536629 -2.6311188
0.49990606 -0.55130041 -2.7248363
0.50718272 -0.53817272 -2.7305756
0.33601189 -0.59210163 -2.6339722
0.37522483 -0.58942235 -2.6298349
0.49984241 -0.59284896 -2.7075152
0.49792874 -0.58635616 -2.73913
0.34560144 -0.63588953 -2.6327083
0.38561296 -0.62643403 -2.6270864
0.48463118 -0.64021051 -2.6686785
0.49286771 -0.62812233 -2.7030201
0.3832705 -0.67425972 -2.6278236
0.42257869 -0.68232381 -2.6204526
0.47257388 -0.67623484 -2.6605895
0.48397362 -0.67134094 -2.6965151
0.39078891 -0.71617341 -2.626261
0.43444133 -0.71547806 -2.6234274
0.4662863 -0.71931863 -2.6584516
0.47653937 -0.71685767 -2.6864035
0.3982209 -0.76000839 -2.6271658
0.43017697 -0.75606942 -2.6258178
0.45896649 -0.75737953 -2.6530881
0.42440176 -0.79808378 -2.6296608
0.44986367 -0.79067838 -2.6487789
0.011198878 -0.11908528 -2.6461537
0.054115295 -0.11587524 -2.6567082
0.086221576 -0.11074254 -2.6832185
0.12370706 -0.11471593 -2.706048
0.17494464 -0.12178674 -2.7264144
0.20371449 -0.12879077 -2.7437673
0.23650527 -0.13463768 -2.7510343
0.019916534 -0.16495436 -2.6368067
0.058320522 -0.1658344 -2.6347613
0.25264573 -0.16128784 -2.7627957
0.29042411 -0.17921197 -2.7591782
0.064016342 -0.21016285 -2.6422691
0.098074913 -0.21045116 -2.6392279
0.26732028 -0.1897144 -2.7748594
0.30814314 -0.19787505 -2.7681625
0.073790073 -0.24204311 -2.6470001
0.10678351 -0.24813715 -2.6439719
0.11086583 -0.29172829 -2.6467817
0.14978325 -0.29847997 -2.6433136
0.12363482 -0.33698761 -2.6475372
0.16098619 -0.34267405 -2.6430717
0.16144907 -0.37859064 -2.6423483
0.17684829 -0.42066881 -2.6437151
0.21355498 -0.42822552 -2.6397743
0.18555129 -0.46078697 -2.6462808
0.21752143 -0.47029728 -2.6419735
0.21865368 -0.51281494 -2.6460071
0.25677574 -0.50906324 -2.6424794
0.47175944 -0.51648277 -2.7679143
0.23216474 -0.54088771 -2.6480751
0.26436579 -0.55914837 -2.6445537
0.30141616 -0.5693754 -2.6386051
0.47372365 -0.55679381 -2.759213
0.2708503 -0.60120958 -2.643333
0.29976571 -0.60299069 -2.6389999
0.47856939 -0.60149586 -2.7516508
0.27844453 -0.64054978 -2.6442504
0.31071293 -0.63501811 -2.6377153
0.48486519 -0.64333314 -2.7438216
0.29344356 -0.67092025 -2.6410563
0.32218969 -0.68633479 -2.637615
0.48233294 -0.68817776 -2.7276087
0.33270323 -0.73180854 -2.6391695
0.36445248 -0.72951913 -2.6331987
0.4738673 -0.73741055 -2.6873221
0.47912395 -0.7308684 -2.7160864
0.34521496 -0.7753405 -2.6371183
0.37570441 -0.76954639 -2.6318617
0.46890342 -0.77119708 -2.6857452
0.47364998 -0.76563412 -2.7123995
0.34796894 -0.80212092 -2.6351719
0.38113225 -0.81809151 -2.6304703
0.42915523 -0.82476121 -2.6360955
0.45871484 -0.81660187 -2.6769247
0.46734858 -0.80142182 -2.7010829
0.38290799 -0.86033082 -2.6313746
0.42374265 -0.85839927 -2.6363599
0.44885337 -0.86148465 -2.667239
0.3952682 -0.8990714 -2.6315978
0.4220916 -0.90615213 -2.641417
0.44166195 -0.8966068 -2.6658988
0.41284776 -0.9340961 -2.6386085
-0.086003661 -0.10519433 -2.6534069
-0.056976676 -0.10374939 -2.6600361
-0.0095431805 -0.10040647 -2.6753802
0.028793335 -0.10314044 -2.7053573
0.056318521 -0.10745335 -2.7285776
0.086464882 -0.11180401 -2.7406988
-0.08119154 -0.13258597 -2.645072
-0.050138116 -0.13079944 -2.6451249
-0.015528202 -0.11427921 -2.6471434
0.045759916 -0.10767978 -2.6953983
0.071136713 -0.10995317 -2.7093463
0.11735976 -0.11650583 -2.7421348
0.15052998 -0.13140893 -2.765568
0.18133569 -0.14023668 -2.7674594
-0.03953445 -0.17274639 -2.64659
-0.0070570707 -0.18214145 -2.64327
0.19319975 -0.1669125 -2.7780161
0.22627914 -0.1763925 -2.7778888
-0.040593743 -0.21866336 -2.6519592
0.0059878826 -0.22013217 -2.6476846
0.012979388 -0.25917822 -2.6522183
0.052488923 -0.25840038 -2.6495855
0.026202679 -0.30131394 -2.6524854
0.058675051 -0.30630425 -2.6517339
0.088586211 -0.32081103 -2.6500862
0.062191844 -0.35662258 -2.6521749
0.098857284 -0.35001436 -2.6497631
0.072805405 -0.39011317 -2.652597
0.10552645 -0.39224946 -2.6501539
0.10847139 -0.43771607 -2.6523695
0.1445384 -0.43841517 -2.6490183
0.11942124 -0.48381737 -2.652776
0.1551739 -0.48327926 -2.6511469
0.16315961 -0.51873159 -2.6508169
0.19103658 -0.52677149 -2.6496067
0.16853893 -0.56522208 -2.6498013
0.20966077 -0.56819588 -2.6486368
0.18039179 -0.60942602 -2.6552172
0.21730959 -0.61174893 -2.650907
0.25285637 -0.6174463 -2.6455088
0.4494797 -0.6258561 -2.7681618
0.22146344 -0.65373218 -2.6506784
0.25185752 -0.64817137 -2.6470344
0.44912004 -0.65078187 -2.7656174
0.22689152 -0.69233954 -2.6518819
0.2614547 -0.69764739 -2.64818
0.45401978 -0.69931543 -2.761939
0.26754785 -0.74566454 -2.6493337
0.2978332 -0.74095726 -2.6451855
0.45838034 -0.74236977 -2.7561352
0.27821136 -0.78401828 -2.6460485
0.31123745 -0.77892923 -2.6431854
0.46712458 -0.78412026 -2.7414811
0.27399313 -0.81489205 -2.6474979
0.31769729 -0.82744581 -2.640234
0.4631449 -0.84306479 -2.705894
0.46562946 -0.82552063 -2.7329571
0.33169663 -0.87209988 -2.6415541
0.3598628 -0.87389767 -2.6356215
0.45542538 -0.87501562 -2.7037582
0.46023881 -0.86734295 -2.722733
0.33843303 -0.9102205 -2.6431189
0.36690927 -0.91183984 -2.6353402
0.44606102 -0.91457367 -2.6900461
0.3438406 -0.95419496 -2.6423225
0.37859774 -0.95694262 -2.6365373
0.4216938 -0.95857084 -2.652422
0.4384793 -0.95641577 -2.6815133
0.38469839 -1.0049167 -2.6387355
0.41646445 -1.0058645 -2.6545672
0.38887644 -1.0378922 -2.6415222
0.40673876 -1.0372783 -2.6491895
-0.15944934 -0.080128312 -2.6766744
-0.14488637 -0.080678463 -2.6859834
-0.18481159 -0.10864285 -2.6542807
-0.15323305 -0.10162783 -2.6559434
-0.10983932 -0.094174027 -2.6705997
-0.076465607 -0.090987384 -2.6947916
-0.034695148 -0.093903542 -2.7208996
0.0026483536 -0.1009748 -2.7468634
0.045497417 -0.11214206 -2.7609906
0.076490998 -0.11193809 -2.7579741
-0.14994788 -0.14251789 -2.6487398
-0.10422909 -0.13596725 -2.6463263
0.051930547 -0.13660741 -2.7823117
0.087415934 -0.14005026 -2.7797346
0.13096476 -0.14462152 -2.7809792
-0.13465941 -0.19075024 -2.6557646
-0.098602176 -0.18591711 -2.6543808
-0.063006401 -0.19138291 -2.6533666
0.098009229 -0.17507544 -2.7931802
0.13717461 -0.16649356 -2.7871885
0.16707611 -0.18507558 -2.7876449
-0.10122621 -0.23761532 -2.6553888
-0.052668929 -0.23414612 -2.653614
-0.088118672 -0.27329451 -2.6581588
-0.051031828 -0.26947433 -2.6562846
-0.018423438 -0.26927352 -2.6540918
-0.05434227 -0.31651956 -2.6584992
-0.0079181194 -0.31685156 -2.6563842
-0.042365432 -0.36584204 -2.6567075
0.0049307346 -0.36116242 -2.6540706
0.033049345 -0.36897543 -2.6533651
0.00207901 -0.40240172 -2.6557221
0.04819417 -0.3962743 -2.6543012
0.011627316 -0.44832748 -2.6587563
0.056098938 -0.44356045 -2.6574788
0.084316969 -0.46219099 -2.654124
0.022353411 -0.48082027 -2.658735
0.053993702 -0.49929801 -2.6583502
0.094608903 -0.48858747 -2.6538129
0.060666084 -0.53605258 -2.6573875
0.10202634 -0.53123224 -2.6535244
0.068235397 -0.57537872 -2.6552205
0.10512638 -0.58082789 -2.6528153
0.14019632 -0.5825358 -2.6498363
0.10426426 -0.62524593 -2.6545181
0.15699947 -0.62397647 -2.655757
0.1160624 -0.66280544 -2.6568077
0.15705264 -0.6635676 -2.6560643
0.19777453 -0.66467822 -2.656467
0.15828133 -0.70906454 -2.6547627
0.2102294 -0.71155041 -2.6551759
0.43385136 -0.70455116 -2.7809412
0.17168176 -0.75592023 -2.6580856
0.20607316 -0.75599527 -2.6586981
0.24281836 -0.75393069 -2.653821
0.44000721 -0.74995059 -2.7787504
0.21138012 -0.79619724 -2.6582937
0.25086606 -0.78808272 -2.6497016
0.41768885 -0.81036365 -2.7810445
0.43725133 -0.79094303 -2.7677121
0.22112918 -0.84581709 -2.6586835
0.2593919 -0.83921623 -2.6513793
0.42406523 -0.85883057 -2.7696643
0.44115746 -0.83709389 -2.7643414
0.25734961 -0.88988245 -2.6556234
0.29726005 -0.88014174 -2.6500359
0.42851579 -0.88990986 -2.765054
0.44990885 -0.88415837 -2.7461789
0.26845741 -0.92923748 -2.6551852
0.30588424 -0.92498779 -2.6498373
0.44651508 -0.92295992 -2.73311
0.44561541 -0.92307746 -2.7478108
0.27298689 -0.95690173 -2.6561384
0.31284904 -0.97243118 -2.6504683
0.34743345 -0.9841969 -2.6445251
0.44404471 -0.97108305 -2.717772
0.44549131 -0.96963573 -2.7460251
0.32207274 -1.0216794 -2.6529496
0.36317372 -1.0168645 -2.6434855
0.43597209 -1.0150895 -2.7055368
0.32932043 -1.0561101 -2.6509194
0.37022662 -1.0546865 -2.6437306
0.41429543 -1.0538067 -2.6649966
0.43046737 -1.0545405 -2.7045994
0.33937848 -1.1064472 -2.6500511
0.36652756 -1.1007557 -2.6477616
0.40747905 -1.1029265 -2.6728628
0.42271101 -1.088709 -2.7003698
0.3720541 -1.1521647 -2.6508446
0.39683235 -1.1521902 -2.6668415
-0.2591731 -0.079586864 -2.6656165
-0.22176981 -0.077931881 -2.6733432
-0.18589759 -0.076133847 -2.6993136
-0.1340729 -0.082219601 -2.7173655
-0.10166061 -0.085669816 -2.7387376
-0.083491325 -0.090764344 -2.7644603
-0.25146979 -0.11923519 -2.6560042
-0.21443301 -0.11388171 -2.6539922
-0.055003166 -0.10020787 -2.7669866
-0.02194953 -0.11537376 -2.7833338
0.014412045 -0.12386239 -2.7857659
-0.21195078 -0.1533556 -2.65973
-0.17577088 -0.15743175 -2.6544855
-0.0083280802 -0.14449969 -2.7925692
0.025060654 -0.15269226 -2.7958441
0.057498813 -0.16292438 -2.7994456
-0.20162487 -0.18817607 -2.6664214
-0.1701864 -0.20109558 -2.6622071
-0.1551733 -0.24476132 -2.6600046
-0.14659846 -0.27960935 -2.6627333
-0.11141896 -0.28310785 -2.6614444
-0.1368463 -0.32090104 -2.6629727
-0.1029923 -0.33168089 -2.6618798
-0.066892624 -0.33369824 -2.658911
-0.10485184 -0.376917 -2.6610434
-0.065260053 -0.37503451 -2.657161
-0.095621943 -0.41313452 -2.6600852
-0.058214664 -0.41316068 -2.6593177
-0.022002578 -0.41747278 -2.6583571
-0.05527544 -0.45931697 -2.6626782
-0.016925693 -0.46184707 -2.6618676
-0.042413235 -0.50152975 -2.6643734
-0.0058330297 -0.5076468 -2.6627359
0.0056266785 -0.54341269 -2.6661799
0.038092613 -0.54333436 -2.6613836
0.012815356 -0.59085113 -2.6629386
0.046172976 -0.59285241 -2.6572237
0.020590901 -0.62586308 -2.6617877
0.053432584 -0.63814998 -2.6576002
0.091115117 -0.64142001 -2.6554399
0.052175045 -0.67530292 -2.6600068
0.091610551 -0.67613631 -2.6572177
0.067342877 -0.71473193 -2.6587954
0.10224414 -0.7232241 -2.6572101
0.13549101 -0.73546231 -2.6557832
0.1016115 -0.76899493 -2.6601398
0.14091825 -0.76481146 -2.6605406
0.11413121 -0.79970419 -2.6619678
0.15310228 -0.80612224 -2.6630983
0.1566081 -0.85303295 -2.6631651
0.19455123 -0.85194343 -2.6636863
0.17494941 -0.89965475 -2.6632521
0.20552433 -0.89854145 -2.6609147
0.41366208 -0.90596986 -2.7761912
0.17581046 -0.93158674 -2.6631525
0.20799506 -0.9347353 -2.6621571
0.24256849 -0.94058907 -2.6623185
0.41919374 -0.93459517 -2.7735801
0.21336269 -0.97256017 -2.665462
0.25126445 -0.98563242 -2.6645627
0.29042339 -0.99487936 -2.6576452
0.42523324 -0.98339677 -2.7650113
0.26499403 -1.0295422 -2.6631703
0.28971577 -1.0252324 -2.6588709
0.43285716 -1.0293213 -2.7544787
0.43872261 -1.0364717 -2.7502828
0.26648808 -1.0629727 -2.6681306
0.29517782 -1.0650266 -2.6589334
0.43210089 -1.0676033 -2.7428446
0.30583489 -1.1120863 -2.6586704
0.42169189 -1.112752 -2.7249942
0.32076395 -1.159685 -2.6533499
0.36303151 -1.1626775 -2.6476879
0.40459192 -1.1604772 -2.6956751
0.41130614 -1.1600345 -2.7201748
0.3225112 -1.1985779 -2.6527603
0.36475623 -1.1965134 -2.6516538
0.40262711 -1.1959732 -2.6848774
0.33423972 -1.2415438 -2.6513517
0.37081289 -1.2438825 -2.6490872
0.4112637 -1.2418299 -2.6741991
0.42037654 -1.2477007 -2.7027662
0.37083197 -1.2886145 -2.650517
0.40813529 -1.2898009 -2.6703091
0.38178086 -1.3268723 -2.6525126
0.39669323 -1.3207756 -2.6614172
-0.30804753 -0.059659064 -2.6905868
-0.28310359 -0.058701336 -2.7052846
-0.36090761 -0.085078835 -2.6663394
-0.31979316 -0.078414083 -2.6666875
-0.27365565 -0.060399711 -2.68892
-0.24317229 -0.063514471 -2.7181249
-0.20103014 -0.070753932 -2.7368374
-0.15896952 -0.080313146 -2.7608466
-0.12165463 -0.093800783 -2.7812321
-0.095960021 -0.095666349 -2.7788196
-0.31072974 -0.12450457 -2.6596243
-0.27560097 -0.1316191 -2.6578183
-0.080422878 -0.12311205 -2.7913318
-0.046910644 -0.13295329 -2.7956018
-0.29538906 -0.16164806 -2.6689682
-0.26230288 -0.1628404 -2.6647584
-0.062175393 -0.14821044 -2.8051434
-0.036338329 -0.1543501 -2.8040967
0.01032114 -0.16838011 -2.8176839
-0.26244164 -0.21243298 -2.6698282
-0.22297674 -0.20883679 -2.6690056
-0.25272948 -0.26171967 -2.671978
-0.21834797 -0.25712869 -2.6693542
-0.18257976 -0.26098907 -2.6662788
-0.21317881 -0.29721883 -2.6697221
-0.17750788 -0.29519528 -2.6669085
-0.20313251 -0.34046972 -2.6697106
-0.16648519 -0.34266457 -2.6666617
-0.20395756 -0.38337702 -2.6647005
-0.16130984 -0.38680011 -2.6622248
-0.15176165 -0.42509449 -2.6658309
-0.11917055 -0.42774701 -2.6616197
-0.13987935 -0.47581959 -2.669524
-0.10820472 -0.47009379 -2.6677308
-0.075383902 -0.48653978 -2.6668491
-0.099795222 -0.51965129 -2.6696148
-0.065632701 -0.51482093 -2.6674957
-0.097887158 -0.55115634 -2.6739895
-0.063010216 -0.55237675 -2.6719599
-0.030230045 -0.55938768 -2.6704285
-0.058095098 -0.60569179 -2.6706045
-0.01880312 -0.60117096 -2.6660914
-0.043030739 -0.64273924 -2.6697843
-0.009773612 -0.64965546 -2.6650622
-0.0017210245 -0.68737525 -2.6656857
0.021938324 -0.69224453 -2.6623063
0.0079623461 -0.7342577 -2.6630712
0.044901371 -0.73257273 -2.6603551
0.019912481 -0.77687389 -2.6629629
0.048980594 -0.77941322 -2.6619227
0.080231786 -0.78450948 -2.6630249
0.054435849 -0.81980842 -2.666954
0.091089606 -0.81381822 -2.6643732
0.060417771 -0.84872973 -2.6700103
0.097915888 -0.86085415 -2.6686502
0.13134694 -0.86756372 -2.662961
0.10826039 -0.9087472 -2.6722269
0.14112461 -0.90700728 -2.6657393
0.1039983 -0.94319844 -2.671731
0.14540505 -0.94877201 -2.6701217
0.17522967 -0.95324773 -2.6700549
0.15674496 -0.99370438 -2.6701219
0.19518709 -0.9983235 -2.6656339
0.40192068 -0.99985564 -2.7865143
0.17053699 -1.0373983 -2.6722865
0.20173216 -1.0377131 -2.6735954
0.23610318 -1.042878 -2.6734326
0.39504409 -1.0414169 -2.7862396
0.20693803 -1.0805882 -2.6724145
0.24517894 -1.0764256 -2.6729431
0.40087426 -1.0737463 -2.77912
0.21264064 -1.1268375 -2.6647439
0.25400782 -1.121295 -2.6647422
0.4100132 -1.1280508 -2.7639031
0.22050476 -1.1753209 -2.6629443
0.25610781 -1.1697325 -2.6586428
0.29082155 -1.1745024 -2.6569555
0.40966964 -1.1659247 -2.7488368
0.22252512 -1.2042104 -2.6594448
0.2570405 -1.2062514 -2.6565366
0.29132378 -1.2120298 -2.6539824
0.41018486 -1.2082971 -2.7361996
0.26749253 -1.2541206 -2.6550646
0.30455101 -1.2560585 -2.6533041
0.42001581 -1.2528974 -2.7296565
0.31443834 -1.3008521 -2.654202
0.41330779 -1.307466 -2.6979136
0.42083561 -1.2981602 -2.7206671
0.31765532 -1.3383124 -2.6558363
0.35625327 -1.3380811 -2.6530519
0.40353787 -1.3407636 -2.6838365
0.41409731 -1.3373922 -2.7146862
0.33025146 -1.3736479 -2.6574109
0.36740756 -1.375715 -2.6610274
0.39447153 -1.3759608 -2.6867728
-0.45548177 -0.059968472 -2.6757381
-0.42935324 -0.056636751 -2.6827972
-0.39101046 -0.050004303 -2.6948929
-0.34400082 -0.050108969 -2.7142587
-0.30192626 -0.05431056 -2.7405663
-0.27152169 -0.059816539 -2.761951
-0.24343932 -0.067248702 -2.7716906
-0.45311141 -0.078678548 -2.6716325
-0.42119253 -0.095700741 -2.6707058
-0.37883085 -0.087915063 -2.6682141
-0.22004032 -0.0802387 -2.7837558
-0.18167639 -0.10007083 -2.7940445
-0.14410353 -0.10514718 -2.795095
-0.41222739 -0.13592768 -2.6743736
-0.37600207 -0.13552278 -2.6701567
-0.34073317 -0.14441749 -2.6670837
-0.1828053 -0.13190144 -2.8064914
-0.13833785 -0.13100886 -2.8084259
-0.10449052 -0.14587665 -2.8104405
-0.37310529 -0.17440844 -2.6757095
-0.32837528 -0.17501971 -2.672509
-0.36555612 -0.22388318 -2.674716
-0.31822377 -0.21942768 -2.671047
-0.28831691 -0.23615795 -2.670445
-0.3485893 -0.26479483 -2.6729367
-0.31671268 -0.26967037 -2.6731827
-0.27290398 -0.26198968 -2.6740129
-0.31272352 -0.30730957 -2.6767554
-0.26799887 -0.30381742 -2.6738989
-0.23724097 -0.31766808 -2.6747146
-0.3005653 -0.33950549 -2.6774824
-0.26640618 -0.35686353 -2.6754293
-0.22808373 -0.34845966 -2.6725149
-0.26355219 -0.3977285 -2.6737309
-0.21782964 -0.40066728 -2.667104
-0.2529543 -0.4377754 -2.6744051
-0.21728396 -0.43352628 -2.6686115
-0.18227959 -0.43841463 -2.6712797
-0.21811765 -0.4802537 -2.672564
-0.1723088 -0.48091754 -2.6740704
-0.20368433 -0.52822781 -2.6750913
-0.16197467 -0.52949584 -2.671783
-0.12779152 -0.52795017 -2.671531
-0.16254938 -0.56895256 -2.6716886
-0.1097399 -0.56252408 -2.6749198
-0.1544435 -0.61019069 -2.6738687
-0.11363244 -0.61539406 -2.6717553
-0.086152196 -0.60902113 -2.6718006
-0.1094954 -0.66349345 -2.6723545
-0.066317916 -0.65492189 -2.6707304
-0.10798931 -0.70183372 -2.6736622
-0.062291622 -0.69446319 -2.6721785
-0.09198761 -0.7308715 -2.6768813
-0.060617685 -0.74526268 -2.6761889
-0.026224017 -0.73862469 -2.6676335
-0.053228378 -0.79260224 -2.6725118
-0.014369726 -0.78972954 -2.6672425
-0.049528837 -0.82854164 -2.6712246
-0.0031520128 -0.8272385 -2.6670315
0.032318234 -0.83947223 -2.6688976
-0.036565781 -0.86137301 -2.6685014
-0.0026785135 -0.87528872 -2.6695852
0.045877218 -0.87408674 -2.6732266
0.070198655 -0.88866758 -2.6755474
0.0043933392 -0.91155851 -2.6769767
0.040685654 -0.92106104 -2.6781044
0.081673861 -0.91426897 -2.6766453
0.045161843 -0.95833588 -2.6784246
0.090034366 -0.96333206 -2.6728809
0.056673169 -1.0050917 -2.6772289
0.093337417 -1.0028709 -2.6730158
0.12734449 -1.0095791 -2.6719728
0.094745755 -1.0524623 -2.6726651
0.1429342 -1.046185 -2.6731138
0.3641361 -1.0535523 -2.8095279
0.10019791 -1.0938448 -2.6729167
0.14869857 -1.0897253 -2.6688702
0.37253296 -1.0909642 -2.7995145
0.10967469 -1.1346295 -2.6678758
0.15068614 -1.1363149 -2.6668212
0.18183088 -1.1310272 -2.6650116
0.35163963 -1.1410182 -2.8061097
0.37892914 -1.1343737 -2.7905426
0.15165615 -1.1832806 -2.6644919
0.20015359 -1.1757272 -2.6629887
0.38514352 -1.1868993 -2.7910669
0.16242301 -1.2195857 -2.663461
0.20574594 -1.219816 -2.65976
0.40261543 -1.2142674 -2.7800987
0.17341387 -1.2635319 -2.663888
0.20840025 -1.2650856 -2.6610692
0.24537683 -1.2708757 -2.6583834
0.40958917 -1.266525 -2.7776599
0.20795894 -1.3118712 -2.6625419
0.25363207 -1.3116541 -2.6612391
0.41442943 -1.3131329 -2.7660339
0.21976006 -1.3561469 -2.6629281
0.25602448 -1.3537853 -2.6620741
0.28844357 -1.3487988 -2.6597469
0.41426802 -1.3488251 -2.7510195
0.25361347 -1.3869532 -2.6659403
0.30141544 -1.3956826 -2.6713152
0.34334528 -1.412009 -2.6898501
0.388574 -1.4048653 -2.7099018
0.4045887 -1.3935159 -2.7415292
0.34384573 -1.4230708 -2.7066512
0.37184048 -1.4240816 -2.722501
-0.53119177 -0.033704817 -2.6910679
-0.49737436 -0.031812072 -2.703876
-0.45391327 -0.032894611 -2.7303908
-0.427369 -0.040865123 -2.7428484
-0.52490157 -0.06044805 -2.6807837
-0.48389941 -0.051450968 -2.6835401
-0.43884605 -0.041913033 -2.704829
-0.40506721 -0.0419029 -2.7331748
-0.3687858 -0.04596597 -2.7583025
-0.33354145 -0.056138158 -2.7830799
-0.29772985 -0.068155527 -2.7967229
-0.52006364 -0.088823915 -2.6766977
-0.48090065 -0.10462844 -2.6755061
-0.28407848 -0.096607685 -2.8016822
-0.249856 -0.11135626 -2.8034163
-0.46837646 -0.14578956 -2.6807289
-0.43327045 -0.15058708 -2.6787162
-0.2315973 -0.13972461 -2.821326
-0.21002519 -0.14010888 -2.8296192
-0.46019876 -0.17786494 -2.683908
-0.42754728 -0.18876711 -2.681627
-0.38961959 -0.19141439 -2.6774645
-0.42288059 -0.23339579 -2.6844921
-0.3888433 -0.23437047 -2.6811311
-0.38164121 -0.28105935 -2.684057
-0.34492534 -0.28528666 -2.6772566
-0.37370783 -0.32273939 -2.6850896
-0.3429628 -0.31736353 -2.6802192
-0.36703151 -0.35039431 -2.6867397
-0.33060163 -0.36724976 -2.682549
-0.3217749 -0.41204458 -2.6826124
-0.29087216 -0.412081 -2.6808112
-0.31147361 -0.44933721 -2.6802132
-0.27536148 -0.44839752 -2.6781754
-0.30239213 -0.47846478 -2.6807914
-0.27169889 -0.49450564 -2.6814537
-0.23616481 -0.50427628 -2.6791587
-0.25904524 -0.54275513 -2.6861546
-0.22653931 -0.53685695 -2.6807315
-0.25824147 -0.57438833 -2.681525
-0.22521085 -0.58082676 -2.6802535
-0.18825865 -0.58373874 -2.676115
-0.21961373 -0.62719208 -2.6826239
-0.17939126 -0.62604886 -2.6801419
-0.20698345 -0.66712219 -2.6802022
-0.17093599 -0.67276871 -2.6783128
-0.15722346 -0.71051818 -2.6749032
-0.12026453 -0.71404421 -2.674149
-0.15398002 -0.75279284 -2.6788285
-0.11644185 -0.75586367 -2.6777687
-0.079181671 -0.75989741 -2.6801963
-0.11279094 -0.80169255 -2.6811719
-0.08142817 -0.79595631 -2.6764255
-0.10812581 -0.84115237 -2.6778216
-0.072919011 -0.84006757 -2.673754
-0.09743011 -0.87983793 -2.6742165
-0.06264019 -0.88923085 -2.6716084
-0.028890491 -0.89073169 -2.6702874
-0.063525319 -0.93533146 -2.6739709
-0.019715309 -0.93130064 -2.6760468
-0.049625278 -0.96524966 -2.6780634
-0.011798382 -0.97254437 -2.6780293
0.032806396 -0.97445917 -2.6792352
-0.0041601658 -1.0153172 -2.6853111
0.034265161 -1.0190831 -2.6825728
0.0080881119 -1.0686655 -2.6834433
0.038168192 -1.0632145 -2.67732
0.079024911 -1.067513 -2.6763806
0.013974071 -1.0954816 -2.6732485
0.044749022 -1.103143 -2.6740174
0.079597712 -1.0971782 -2.6753886
0.047270417 -1.1508576 -2.6727796
0.086986423 -1.1476257 -2.670099
0.34419703 -1.146014 -2.8233418
0.3394804 -1.1510015 -2.8421118
0.061937809 -1.1972864 -2.6677492
0.096370459 -1.1927769 -2.6664999
0.13001931 -1.197973 -2.6652603
0.35575843 -1.1944096 -2.8142085
0.096783042 -1.232347 -2.6653709
0.13785982 -1.2300575 -2.6645465
0.3785007 -1.2418457 -2.8166001
0.10397446 -1.2792001 -2.6679835
0.14298034 -1.2762659 -2.6653628
0.39534855 -1.2765168 -2.8124967
0.1510061 -1.3235964 -2.6675761
0.19821978 -1.3281659 -2.6629372
0.39698267 -1.3231246 -2.7990198
0.161309 -1.3635197 -2.6696661
0.19167316 -1.3656486 -2.6679049
0.39366829 -1.3687041 -2.7945216
0.20913815 -1.3909285 -2.6776855
0.24092758 -1.4062026 -2.6906142
0.28138447 -1.423429 -2.7076073
0.36904383 -1.430649 -2.7726574
0.3881588 -1.4075871 -2.7753382
0.29170966 -1.4325244 -2.719749
0.32472527 -1.4378109 -2.7333357
0.35886681 -1.4431174 -2.7514055
0.38719594 -1.4302113 -2.7602365
-0.62144405 -0.036251426 -2.6929862
-0.58938462 -0.034796834 -2.6976371
-0.55414349 -0.027775228 -2.7054238
-0.51383752 -0.026097238 -2.7371399
-0.47286141 -0.031004786 -2.7598855
-0.43193001 -0.038741469 -2.7736046
-0.4081654 -0.046542227 -2.7867916
-0.61582822 -0.073204339 -2.6832595
-0.58430457 -0.068079054 -2.6826577
-0.55100775 -0.067246318 -2.6806552
-0.38404149 -0.064099073 -2.8025811
-0.35148704 -0.070819199 -2.8035569
-0.57570326 -0.11096966 -2.6856389
-0.53906965 -0.11551327 -2.6836028
-0.50432503 -0.12817395 -2.6831391
-0.37780273 -0.10102385 -2.8114064
-0.34330875 -0.09634757 -2.8075867
-0.3139407 -0.1074838 -2.8165979
-0.54128742 -0.16040072 -2.6858892
-0.50143629 -0.15994251 -2.6840932
-0.52802289 -0.19515479 -2.688967
-0.49043417 -0.19913158 -2.6885545
-0.48339593 -0.2455177 -2.6882629
-0.44422227 -0.25116655 -2.6881628
-0.46988881 -0.29514939 -2.6879852
-0.43082869 -0.28546906 -2.6878512
-0.46194029 -0.32319084 -2.6869245
-0.431198 -0.32665169 -2.6895928
-0.39787626 -0.33345672 -2.6877172
-0.42585814 -0.3798992 -2.6890609
-0.38588285 -0.37537786 -2.6866474
-0.41315246 -0.42222136 -2.6826143
-0.37959242 -0.42201668 -2.6823368
-0.34802741 -0.42682087 -2.6826296
-0.38268322 -0.46156198 -2.685235
-0.34449953 -0.45781004 -2.683249
-0.37006795 -0.49777114 -2.6886289
-0.33169901 -0.50736976 -2.6856551
-0.3229717 -0.54990113 -2.6879525
-0.28903717 -0.54913694 -2.6840897
-0.31070012 -0.59226984 -2.687669
-0.27674991 -0.58741659 -2.6829662
-0.30664217 -0.63236493 -2.6881528
-0.27238536 -0.63546759 -2.6842966
-0.24085063 -0.65170169 -2.6803045
-0.26728618 -0.68078333 -2.6907079
-0.23074466 -0.68381518 -2.6855206
-0.22918439 -0.71936625 -2.689672
-0.19448626 -0.72000134 -2.6856718
-0.22090578 -0.75650424 -2.6885214
-0.18550026 -0.7698378 -2.6864431
-0.21738422 -0.81018609 -2.6879561
-0.1712563 -0.81383389 -2.6872532
-0.16028023 -0.85247439 -2.6816416
-0.13399601 -0.84712589 -2.680017
-0.15313518 -0.89531571 -2.684119
-0.12164235 -0.90014082 -2.6766963
-0.14727116 -0.94934845 -2.682327
-0.11138773 -0.94292486 -2.679347
-0.076572537 -0.94832438 -2.6756773
-0.11002362 -0.98079914 -2.6805243
-0.071800947 -0.98300678 -2.6786027
-0.10262764 -1.0332547 -2.6822002
-0.072273135 -1.0277183 -2.683099
-0.032855511 -1.0299577 -2.6866624
-0.09907949 -1.0713185 -2.6760547
-0.067061424 -1.0765444 -2.6740093
-0.023772717 -1.071901 -2.6789913
-0.056588173 -1.1128829 -2.6755271
-0.012621522 -1.1107944 -2.6753106
-0.055117488 -1.1455995 -2.677115
-0.010108948 -1.1576792 -2.6731968
-0.0018069744 -1.2032988 -2.6702657
0.032961607 -1.2017797 -2.6686876
0.0092147589 -1.2418031 -2.6714184
0.045959234 -1.2418807 -2.6697178
0.014117837 -1.2752411 -2.6729994
0.046625257 -1.2880313 -2.6723566
0.081481457 -1.2964664 -2.6705709
0.054896355 -1.3324113 -2.6729248
0.093590856 -1.3361521 -2.6711097
0.09352088 -1.3639058 -2.6750226
0.13456154 -1.3799529 -2.6863346
0.17982066 -1.4024429 -2.7041554
0.2153132 -1.4206874 -2.7241158
0.25000167 -1.435451 -2.7370551
0.34707797 -1.4388931 -2.7955027
0.3654418 -1.4169148 -2.7977843
0.27223551 -1.4446487 -2.747046
0.30664384 -1.4519467 -2.7646537
0.33746254 -1.452167 -2.7740531
-0.6974324 -0.020092487 -2.7087173
-0.65594387 -0.014958084 -2.719821
-0.61531395 -0.012132227 -2.7402675
-0.57885206 -0.013658583 -2.7608559
-0.55693865 -0.01733011 -2.7803819
-0.70263118 -0.047266245 -2.6935802
-0.65278113 -0.038165569 -2.6949983
-0.60225004 -0.019746304 -2.7176402
-0.56887054 -0.019366086 -2.7370296
-0.5300774 -0.025297582 -2.7773705
-0.49492252 -0.040038764 -2.8013711
-0.45343727 -0.048397541 -2.8039072
-0.6880815 -0.082226276 -2.6931424
-0.64885914 -0.082944393 -2.6872897
-0.45603687 -0.082767069 -2.8167062
-0.41924679 -0.081871152 -2.8148749
-0.63832289 -0.12611693 -2.6932693
-0.60021067 -0.12808996 -2.6897571
-0.39906442 -0.10780448 -2.821471
-0.63191062 -0.17458591 -2.6942458
-0.5863055 -0.17062643 -2.68852
-0.62207359 -0.20859134 -2.6928802
-0.58955002 -0.21229473 -2.6902456
-0.55215502 -0.205641 -2.6897082
-0.58735293 -0.25560474 -2.6970148
-0.54211271 -0.25468296 -2.6915884
-0.54582751 -0.30796215 -2.6942728
-0.50612682 -0.29984707 -2.6859541
-0.53441489 -0.34596509 -2.6963592
-0.48944312 -0.34113276 -2.6918092
-0.5257746 -0.38365108 -2.6953516
-0.48964566 -0.39007434 -2.6927907
-0.45261765 -0.38298076 -2.6916451
-0.48229176 -0.43324009 -2.6937377
-0.4425742 -0.42977536 -2.6873302
-0.47111326 -0.47028685 -2.6979921
-0.43522501 -0.46977895 -2.6918116
-0.40130943 -0.4825905 -2.6904488
-0.43243694 -0.5189777 -2.6949992
-0.38880426 -0.51673257 -2.6898165
-0.42314279 -0.57114971 -2.6955147
-0.3859849 -0.55879015 -2.6910992
-0.35332131 -0.57074833 -2.6903276
-0.41320074 -0.59804654 -2.6940117
-0.38324684 -0.60469931 -2.6914291
-0.34272349 -0.59969234 -2.690129
-0.38238335 -0.64359337 -2.6924648
-0.33471113 -0.64841121 -2.6891966
-0.33230364 -0.69223458 -2.6925926
-0.28742301 -0.6935612 -2.6921871
-0.32298368 -0.73691165 -2.6901433
-0.27125055 -0.72650278 -2.6944594
-0.30974555 -0.77969146 -2.6895862
-0.277022 -0.77813876 -2.6876369
-0.23221815 -0.7812463 -2.6999173
-0.3078239 -0.80700409 -2.6901996
-0.27481031 -0.82568401 -2.6875131
-0.22658867 -0.82148123 -2.6887152
-0.27263248 -0.86746675 -2.6887782
-0.2307592 -0.86389899 -2.6874533
-0.19928944 -0.8485167 -2.6913669
-0.22941709 -0.91141576 -2.689296
-0.18365085 -0.9064371 -2.6864843
-0.21714401 -0.96041143 -2.6894388
-0.1797967 -0.95648491 -2.6829486
-0.17299092 -0.992553 -2.6866918
-0.13084412 -1.0024534 -2.6840763
-0.19922137 -1.0268362 -2.684885
-0.16770291 -1.0412159 -2.6845119
-0.12446761 -1.039506 -2.6842291
-0.16079235 -1.0880427 -2.6855686
-0.11583042 -1.0881367 -2.6792154
-0.1488924 -1.1241863 -2.6851351
-0.12111104 -1.125859 -2.6831059
-0.07889843 -1.1223121 -2.679903
-0.1136471 -1.172081 -2.6785662
-0.065960407 -1.1722987 -2.6763842
-0.10268629 -1.2244842 -2.6775451
-0.065820575 -1.2136583 -2.6760151
-0.031847239 -1.2242584 -2.6733534
-0.091678619 -1.2505548 -2.6777561
-0.06477356 -1.2592857 -2.676662
-0.019772649 -1.25493 -2.6737814
-0.058042049 -1.3035299 -2.6790135
-0.012966275 -1.2994077 -2.6761925
0.018381238 -1.3151338 -2.6751676
-0.010700822 -1.3472211 -2.6820745
0.03271246 -1.3520885 -2.6788034
0.037302971 -1.3768462 -2.7026024
0.074009657 -1.3856159 -2.7085533
0.11160696 -1.39979 -2.7201056
0.12994862 -1.4157164 -2.7404675
0.15929627 -1.4201777 -2.7438035
0.19145977 -1.4350755 -2.7610602
0.23497486 -1.443728 -2.7864742
0.26486504 -1.4515662 -2.8026505
0.25826406 -1.452234 -2.7712452
0.29191327 -1.4538662 -2.7901678
-0.7847892 -0.022861242 -2.703372
-0.75592321 -0.014185607 -2.7092705
-0.72130001 -0.0076776147 -2.7252927
-0.67843789 -0.0065748692 -2.7539477
-0.63743693 -0.0066641569 -2.7785857
-0.60744047 -0.014467955 -2.7993474
-0.5720216 -0.025963724 -2.8146546
-0.78071976 -0.056174517 -2.6950009
-0.74953657 -0.054716647 -2.6924558
-0.55432707 -0.054522693 -2.8179386
-0.52191621 -0.061352968 -2.8155699
-0.74740666 -0.093611777 -2.6993697
-0.70887643 -0.094203293 -2.7005131
-0.54196012 -0.081888199 -2.8255229
-0.51112545 -0.089569747 -2.8290129
-0.48017991 -0.094159722 -2.8343196
-0.73985118 -0.12485254 -2.7050655
-0.7056402 -0.13593447 -2.7067723
-0.67158848 -0.13997412 -2.7020054
-0.69412816 -0.18659759 -2.7068543
-0.66196543 -0.18014222 -2.7009518
-0.6796121 -0.21653372 -2.70439
-0.65407205 -0.22391778 -2.7017298
-0.64158821 -0.26934147 -2.7027483
-0.60694605 -0.27239621 -2.7000523
-0.62875539 -0.31816685 -2.698133
-0.59503728 -0.31343123 -2.6971827
-0.62379616 -0.34819329 -2.6944623
-0.58882713 -0.35331112 -2.6970367
-0.55672663 -0.34814757 -2.696696
-0.58887285 -0.39707375 -2.6955836
-0.54800695 -0.39940295 -2.6959741
-0.58042872 -0.43364948 -2.6991439
-0.5488534 -0.44571316 -2.6992228
-0.50982445 -0.44856054 -2.7005196
-0.54302168 -0.48507255 -2.700527
-0.49878091 -0.48228568 -2.6992979
-0.53265941 -0.52781487 -2.6949899
-0.49201536 -0.53138584 -2.697587
-0.4446032 -0.54265451 -2.6955011
-0.48643339 -0.5746789 -2.7017467
-0.44992054 -0.57560521 -2.7020032
-0.47049952 -0.61996168 -2.6989374
-0.43555295 -0.61157542 -2.6963537
-0.46731716 -0.64577657 -2.6962371
-0.43384266 -0.65994829 -2.6935141
-0.38899225 -0.66512614 -2.6956806
-0.42736244 -0.69861132 -2.7042382
-0.39453828 -0.70655721 -2.7015498
-0.35614032 -0.71091104 -2.6966815
-0.38866347 -0.74698484 -2.7038062
-0.3580389 -0.7476728 -2.6998053
-0.37741518 -0.78712809 -2.6929233
-0.34786206 -0.7905708 -2.6956761
-0.336945 -0.83776093 -2.6983409
-0.32809091 -0.87629008 -2.6957583
-0.29096943 -0.882985 -2.6991296
-0.31477982 -0.90729308 -2.7004514
-0.28090656 -0.92064428 -2.7011833
-0.25031406 -0.93652099 -2.6967187
-0.26799703 -0.97151554 -2.6980205
-0.24224299 -0.96441293 -2.6924138
-0.26758277 -1.0066102 -2.7017627
-0.23580784 -1.0057302 -2.6966748
-0.26404768 -1.0570573 -2.6915817
-0.23043573 -1.0525488 -2.6911383
-0.1928637 -1.0557742 -2.6840911
-0.22829866 -1.0978667 -2.6868412
-0.18966687 -1.1014347 -2.6868443
-0.21680701 -1.1415104 -2.6840708
-0.18221533 -1.1341034 -2.6833563
-0.20690954 -1.173849 -2.6825154
-0.17058694 -1.1833169 -2.6815953
-0.16522205 -1.2295476 -2.6819692
-0.13094342 -1.2262714 -2.6796012
-0.15301299 -1.2701433 -2.6825459
-0.11599481 -1.2633075 -2.6801462
-0.14839995 -1.2996325 -2.6842821
-0.11282241 -1.3120186 -2.6824713
-0.076353908 -1.3191783 -2.6796069
-0.070296645 -1.3502758 -2.6937749
-0.03031373 -1.3685246 -2.7120066
0.013533354 -1.3882674 -2.7305048
0.053844452 -1.4043469 -2.7465701
0.076157331 -1.4144766 -2.7585518
0.10323334 -1.4261698 -2.7726645
0.13425219 -1.4319645 -2.793035
0.17460251 -1.43787 -2.8003478
0.20690298 -1.4392715 -2.8023067
-0.86776388 0.0094034672 -2.7207422
-0.82947421 0.011786401 -2.7367709
-0.78261548 0.0057042241 -2.7598324
-0.74866533 0.00182724 -2.7782338
-0.72344244 0.00070244074 -2.7924483
-0.89424253 -0.0150069 -2.7022662
-0.86326969 -0.021055043 -2.7031584
-0.81565046 -0.01125735 -2.7109468
-0.77075976 0.0039789081 -2.7392976
-0.7414766 0.00078421831 -2.7606955
-0.70086783 -0.0037534237 -2.7929499
-0.65710729 -0.023647785 -2.8182733
-0.62216741 -0.02949506 -2.819407
-0.84763229 -0.066808701 -2.7028992
-0.81172198 -0.064573407 -2.6997838
-0.61789602 -0.056389928 -2.8263326
-0.59180027 -0.074804604 -2.8352537
-0.8048594 -0.10393721 -2.7042
-0.56830418 -0.084590197 -2.8325527
-0.79219919 -0.15208149 -2.7060487
-0.75527221 -0.14751625 -2.7057192
-0.72767037 -0.16510636 -2.713347
-0.75398099 -0.19686681 -2.7044156
-0.71900541 -0.19558936 -2.7112117
-0.78064752 -0.24868858 -2.6985223
-0.74917024 -0.23344681 -2.7109301
-0.70977092 -0.23366073 -2.7167513
-0.73933119 -0.28442669 -2.7041647
-0.71088856 -0.27785075 -2.7073793
-0.67568678 -0.28077599 -2.7079568
-0.70404518 -0.32808167 -2.7045004
-0.66175097 -0.32224423 -2.7084031
-0.69636577 -0.36923525 -2.7069511
-0.6588726 -0.36539632 -2.7050369
-0.64421827 -0.40909025 -2.7039037
-0.61028433 -0.42527366 -2.6967645
-0.63260245 -0.45941421 -2.7019503
-0.59575236 -0.45709544 -2.7018905
-0.62722623 -0.49892622 -2.7030013
-0.59439349 -0.49396765 -2.7005889
-0.5584684 -0.49894223 -2.699713
-0.59172589 -0.53948808 -2.6990402
-0.55817187 -0.53927666 -2.6972945
-0.5798105 -0.58596063 -2.6982112
-0.54849738 -0.58885592 -2.696178
-0.51661372 -0.59415609 -2.7050118
-0.54338342 -0.62774593 -2.7005386
-0.50303286 -0.62513196 -2.702256
-0.53440249 -0.6634776 -2.7050836
-0.49520469 -0.6710611 -2.7052155
-0.45536137 -0.68695027 -2.7083571
-0.48155296 -0.71915627 -2.7107761
-0.44754237 -0.71583778 -2.7119768
-0.47651249 -0.76060295 -2.7121639
-0.44116533 -0.75217724 -2.7218738
-0.41256297 -0.76730835 -2.7145538
-0.52104092 -0.80073857 -2.6590621
-0.44965696 -0.78962052 -2.7235539
-0.40239823 -0.79976499 -2.7217221
-0.37683326 -0.8215155 -2.7324977
-0.38775116 -0.8457042 -2.7101557
-0.37868088 -0.82597065 -2.735723
-0.38141167 -0.88234693 -2.6956081
-0.35739702 -0.89141881 -2.6988583
-0.37966335 -0.92262155 -2.6960094
-0.34422171 -0.93064594 -2.7070818
-0.30453295 -0.94829893 -2.7161713
-0.3811453 -0.98015916 -2.686522
-0.34066159 -0.98374516 -2.7094009
-0.30044711 -0.97622716 -2.709722
-0.37489039 -1.0117264 -2.6905584
-0.33294976 -1.0183634 -2.7052593
-0.29354656 -1.0153339 -2.7028563
-0.32821202 -1.0638963 -2.6909251
-0.28479856 -1.0586113 -2.6931095
-0.31391376 -1.1074451 -2.6910977
-0.28062105 -1.1056215 -2.6891966
-0.30653024 -1.1518265 -2.687959
-0.27448338 -1.1455623 -2.6866999
-0.24274623 -1.1461712 -2.6860604
-0.26740479 -1.1942166 -2.6879401
-0.23074245 -1.1912444 -2.6847117
-0.26231343 -1.2359629 -2.6885779
-0.22579288 -1.2394078 -2.6853802
-0.19299865 -1.2456732 -2.6843247
-0.22412586 -1.2808924 -2.6884379
-0.1871779 -1.2744218 -2.6855502
-0.21045792 -1.3087336 -2.6876731
-0.17312717 -1.321223 -2.6898975
-0.13798213 -1.3411136 -2.6957831
-0.1268605 -1.3499285 -2.7113066
-0.096594334 -1.3632522 -2.7195244
-0.060236096 -1.380846 -2.7389762
-0.030557871 -1.3909153 -2.7503796
-0.0076714754 -1.400841 -2.7570577
0.032735348 -1.4155016 -2.779768
0.071417212 -1.4221606 -2.8029485
0.11283803 -1.4258523 -2.8108225
-0.96626151 0.010207593 -2.7169256
-0.918163 0.018633127 -2.729491
-0.88766152 0.023205459 -2.7503905
-0.84615421 0.017851114 -2.774565
-0.80231845 0.0092250705 -2.7892346
-0.77380162 0.00084125996 -2.8142846
-0.73765826 -0.0050588846 -2.817071
-0.95937687 -0.030533552 -2.7034059
-0.9088797 -0.033464551 -2.7035518
-0.76015615 -0.027117372 -2.8318701
-0.72222441 -0.029916227 -2.8274286
-0.68082213 -0.040871739 -2.826529
-0.94436264 -0.071222842 -2.7118723
-0.91448134 -0.07974571 -2.7128153
-0.87304932 -0.072159946 -2.7077465
-0.71206051 -0.068438709 -2.8418448
-0.67190224 -0.066991389 -2.8340616
-0.90933919 -0.12363166 -2.7121606
-0.86415654 -0.11126012 -2.7091787
-0.83245105 -0.13356805 -2.7110438
-0.90353781 -0.1629377 -2.7048211
-0.86320245 -0.16061002 -2.7044399
-0.82332456 -0.15957689 -2.710948
-0.89300942 -0.20374095 -2.7006774
-0.85729718 -0.20727724 -2.7093894
-0.81302774 -0.20622489 -2.716681
-0.7887246 -0.19423455 -2.717519
-0.8507331 -0.25646827 -2.7081606
-0.80874658 -0.25074613 -2.71597
-0.77587861 -0.23152155 -2.7133992
-0.79062265 -0.28635225 -2.7101128
-0.76630956 -0.28455946 -2.7074256
-0.79537743 -0.33375883 -2.7050433
-0.75843126 -0.33423066 -2.7110143
-0.72640061 -0.34337929 -2.707356
-0.75609124 -0.37921041 -2.7131584
-0.71275485 -0.37314138 -2.7087364
-0.74868798 -0.42725787 -2.7115169
-0.70881671 -0.41890875 -2.7109373
-0.6754396 -0.43618202 -2.7061558
-0.74327838 -0.44926611 -2.7110014
-0.70889944 -0.47147864 -2.7097397
-0.66455364 -0.46446145 -2.7098024
-0.70829672 -0.50951338 -2.7061629
-0.66102099 -0.5068109 -2.7072022
-0.69319522 -0.55151969 -2.707988
-0.64952058 -0.55073565 -2.7053354
-0.61038601 -0.56218851 -2.7069132
-0.65210164 -0.59987819 -2.7085545
-0.6059472 -0.60011274 -2.7103186
-0.63392621 -0.64465719 -2.711988
-0.60259271 -0.63687134 -2.7066016
-0.56696469 -0.6400544 -2.7067885
-0.62775099 -0.68903261 -2.7039101
-0.6002906 -0.68335271 -2.7092133
-0.55623704 -0.68431318 -2.7062087
-0.52285933 -0.69722408 -2.7155879
-0.59190643 -0.73091102 -2.7106504
-0.55155337 -0.7286548 -2.7137811
-0.51475126 -0.72630507 -2.7095437
-0.59173495 -0.77108109 -2.6963408
-0.55065066 -0.77189624 -2.7035592
-0.50156665 -0.76981241 -2.708478
-0.46318895 -0.77209526 -2.7269437
-0.53893757 -0.79541445 -2.6918204
-0.49813211 -0.79451537 -2.6994388
-0.47516924 -0.79081404 -2.7139678
-0.41430235 -0.82093173 -2.7405128
-0.4203223 -0.85931969 -2.7376099
-0.44702363 -0.89879072 -2.7195439
-0.42044491 -0.89976859 -2.7376907
-0.39180171 -0.95701838 -2.7129602
-0.44275427 -0.99121869 -2.7021542
-0.40407515 -0.98520255 -2.7119431
-0.43650979 -1.0304304 -2.6980977
-0.39105004 -1.0302104 -2.6959686
-0.42546815 -1.0776339 -2.6981683
-0.3873468 -1.0714431 -2.6952596
-0.35324311 -1.0881091 -2.6927855
-0.38876486 -1.1248043 -2.6952395
-0.34314597 -1.1196952 -2.6919558
-0.38153619 -1.1674868 -2.6949728
-0.34073603 -1.1564639 -2.6903663
-0.36872709 -1.2016317 -2.6944659
-0.33103764 -1.2062004 -2.6915259
-0.29053062 -1.2132202 -2.6890893
-0.32358617 -1.2546041 -2.6935148
-0.27834195 -1.2503133 -2.6906891
-0.31399781 -1.2965441 -2.693217
-0.27699405 -1.2877783 -2.6904631
-0.24843478 -1.2941763 -2.6891322
-0.27855974 -1.3215706 -2.6966898
-0.23852396 -1.3304579 -2.7038536
-0.19597459 -1.3505175 -2.7249167
-0.18121696 -1.3634425 -2.7411227
-0.14669168 -1.3706064 -2.7475653
-0.11211622 -1.3840003 -2.7631197
-0.086097717 -1.3964205 -2.7828779
-0.047081709 -1.4038368 -2.8176055
-0.057645321 -1.400269 -2.777997
-0.024851203 -1.4092461 -2.7937541
0.016446471 -1.4169604 -2.8040724
-1.0591052 0.027796865 -2.7240074
-1.0344697 0.031149566 -2.7328391
-0.98680925 0.032476246 -2.7502985
-0.94621599 0.034418166 -2.7729874
-0.91370332 0.032614112 -2.7922347
-0.88736016 0.026076615 -2.8152685
-1.0614486 0.00074619055 -2.7126787
-1.0217913 0.0073196292 -2.7150738
-0.99255252 0.018090844 -2.7181413
-0.85553586 0.01385653 -2.8211262
-0.82936043 -0.003783226 -2.828815
-1.0529081 -0.028025389 -2.7098215
-1.0197256 -0.045838118 -2.7093077
-0.97831631 -0.050530314 -2.7063496
-0.82028693 -0.032503963 -2.8376536
-0.79305023 -0.038437605 -2.835808
-1.0112171 -0.081742108 -2.7193062
-0.97443354 -0.087955832 -2.7184727
-0.737679 -0.066600323 -2.855706
-0.96678293 -0.13114405 -2.7146592
-0.92343676 -0.12160343 -2.7142329
-0.95461005 -0.17227101 -2.7196827
-0.92440152 -0.17899197 -2.719389
-0.91806757 -0.22117633 -2.7168965
-0.86777657 -0.22406936 -2.7143309
-0.90117955 -0.26161873 -2.7116528
-0.86615199 -0.25633481 -2.7115171
-0.83816391 -0.26159614 -2.7209389
-0.906596 -0.30085966 -2.7061257
-0.87113416 -0.30640155 -2.7202966
-0.83408564 -0.30055419 -2.7352333
-0.8585428 -0.33926922 -2.7246368
-0.82514334 -0.35451651 -2.7229917
-0.81834698 -0.38837713 -2.716841
-0.84602123 -0.43189499 -2.7040081
-0.80778807 -0.43681297 -2.7076147
-0.76555604 -0.4293935 -2.7109814
-0.79983097 -0.48041609 -2.7080114
-0.76114613 -0.48036006 -2.7090375
-0.78871077 -0.51407278 -2.7093213
-0.75382972 -0.51933241 -2.7115922
-0.78607196 -0.55132055 -2.7079175
-0.75666195 -0.56589425 -2.7074883
-0.71420538 -0.56838441 -2.7091925
-0.74728251 -0.61131656 -2.7043242
-0.70488513 -0.61269081 -2.7081704
-0.66489935 -0.61557692 -2.7103484
-0.71369797 -0.65351421 -2.7082243
-0.6722014 -0.64752924 -2.7123826
-0.70310128 -0.69677228 -2.7027884
-0.65573484 -0.6937663 -2.7099848
-0.70129484 -0.75319529 -2.6889069
-0.65013671 -0.74083865 -2.7116601
-0.60234243 -0.7339825 -2.7113669
-0.6892069 -0.77309549 -2.6890035
-0.63509309 -0.78191262 -2.7033813
-0.61044753 -0.78347635 -2.7033973
-0.62636745 -0.82784677 -2.6998987
-0.60230482 -0.81796706 -2.702636
-0.6258238 -0.87712163 -2.693018
-0.59313977 -0.87169278 -2.7064643
-0.56435996 -0.8758834 -2.71334
-0.58389723 -0.91615701 -2.7028077
-0.55034298 -0.90904957 -2.714216
-0.53392285 -0.90645134 -2.7344036
-0.43144286 -0.9131844 -2.7499046
-0.57954234 -0.94209224 -2.7028656
-0.54695034 -0.96010453 -2.7077959
-0.50872183 -0.95850497 -2.7237659
-0.47215009 -0.97108829 -2.7386103
-0.53774422 -1.0050788 -2.706732
-0.50087184 -1.0024647 -2.7192705
-0.46674079 -1.0032291 -2.7157233
-0.49499029 -1.0419929 -2.705317
-0.48650032 -1.0888244 -2.7036712
-0.44878721 -1.0867116 -2.7004111
-0.47102886 -1.1382301 -2.69994
-0.43792152 -1.1296829 -2.6972933
-0.43594736 -1.1721618 -2.6988668
-0.39966464 -1.1659063 -2.6948631
-0.42607617 -1.2213519 -2.7003915
-0.39284045 -1.2146504 -2.6962438
-0.38958514 -1.2646301 -2.6980641
-0.35540003 -1.2600088 -2.6953993
-0.38475227 -1.2997746 -2.6994548
-0.3458271 -1.3048104 -2.7012296
-0.32722676 -1.3327839 -2.7235515
-0.29730511 -1.3398664 -2.7275438
-0.26336437 -1.3535237 -2.7406063
-0.23353052 -1.3669779 -2.7577639
-0.20803523 -1.3748152 -2.768271
-0.17185438 -1.3853143 -2.7858195
-0.14331079 -1.3913497 -2.8042777
-0.088499665 -1.3984396 -2.8121374
-1.1267362 0.027236223 -2.7286124
-1.0862761 0.035953879 -2.7384722
-1.0516806 0.041366518 -2.7626491
-1.0108408 0.038372636 -2.7884166
-0.96950895 0.0376333 -2.8160892
-0.93948609 0.027150929 -2.8309898
-0.90469843 0.021251619 -2.8326094
-1.1262219 -0.010419428 -2.7149525
-1.0903304 -0.0070314407 -2.712549
-0.92717254 0.00097680092 -2.8396916
-0.88800943 -0.010296524 -2.8386264
-1.1092695 -0.050081372 -2.717592
-1.0744218 -0.055956185 -2.7157817
-0.87824976 -0.038170874 -2.8493996
-0.84973007 -0.037027001 -2.846314
-1.0738055 -0.1009286 -2.7188416
-1.034349 -0.10009933 -2.716954
-1.0620117 -0.13811284 -2.7186108
-1.0220129 -0.1345486 -2.7198348
-1.0261494 -0.18341702 -2.7186072
-0.98593473 -0.18638766 -2.7208481
-1.0121223 -0.22949272 -2.7199578
-0.96943665 -0.22627899 -2.7210267
-1.0070728 -0.27144694 -2.7089219
-0.96637177 -0.26517981 -2.7169082
-0.93172562 -0.26389363 -2.7319784
-0.96127415 -0.30828544 -2.7132978
-0.92171127 -0.31738806 -2.720453
-0.87666368 -0.29406568 -2.7500215
-0.9450835 -0.36462194 -2.7117779
-0.91131902 -0.35776561 -2.7167099
-0.87818456 -0.35743222 -2.7319069
-0.94493353 -0.4039084 -2.7128608
-0.91634297 -0.39956579 -2.7194071
-0.87010902 -0.39755204 -2.7268434
-0.90470457 -0.43636116 -2.714489
-0.87096953 -0.44886613 -2.716892
-0.94046009 -0.50693047 -2.6858132
